3.4e-05 -9e-06 0.002389
-0.000551 0.00044 0.002966
0.000132 -9e-06 0.002388
0.000157 -1e-05 0.00239
0.000181 -8e-06 0.002388
0.000206 -9e-06 0.002389
0.000231 -9e-06 0.00239
0.000255 -9e-06 0.002389
0.00028 -9e-06 0.002388
0.000305 -8e-06 0.002387
0.000329 -8e-06 0.002387
0.000354 -8e-06 0.002388
0.000378 -8e-06 0.002387
0.000403 -8e-06 0.002388
0.00121 0.000429 0.002664
0.001274 0.000592 0.002704
0.000477 -8e-06 0.002387
0.000502 -8e-06 0.002387
0.000526 -9e-06 0.002389
0.000551 -9e-06 0.00239
0.001406 0.000715 0.002631
0.001275 0.000565 0.002704
0.000744 0.000663 0.002346
-0.000674 0.000689 0.002859
-0.000632 -8e-06 0.002328
-0.000607 -9e-06 0.002329
-0.000582 -9e-06 0.00233
-0.000575 0.000439 0.002961
-0.000533 -9e-06 0.00233
-0.000508 -1e-05 0.002332
-0.000484 -1.1e-05 0.002334
-0.000435 -9e-06 0.00233
-0.00041 -9e-06 0.00233
-0.001164 0.00056 0.002518
-0.000687 0.000515 0.002818
-0.000847 0.000721 0.00231
-0.000623 0.000465 0.002949
-0.000237 -9e-06 0.002329
-0.001325 0.000488 0.002631
-0.000659 0.00051 0.002898
-0.00113 0.000632 0.002488
-0.000763 0.000731 0.002374
-0.000712 0.000608 0.002726
-1.6e-05 -9e-06 0.00233
9e-06 -8e-06 0.002328
3.4e-05 -9e-06 0.00233
5.8e-05 -9e-06 0.00233
-0.000599 0.000438 0.002956
-0.000623 0.000438 0.002949
0.000181 -9e-06 0.00233
0.000206 -9e-06 0.00233
0.00028 -1e-05 0.002331
0.000305 -9e-06 0.002329
0.000329 -9e-06 0.002331
0.000354 -9e-06 0.002331
0.000664 0.000643 0.002418
0.000452 -1.1e-05 0.002334
0.000477 -1.1e-05 0.002334
0.000502 -1e-05 0.002333
0.000526 -9e-06 0.002332
0.000551 -9e-06 0.002332
0.000576 -9e-06 0.00233
0.0006 -9e-06 0.00233
0.000792 0.000688 0.002335
-0.000687 0.000706 0.002818
-0.001294 0.000719 0.00261
-0.000533 -8e-06 0.00227
-0.000508 -8e-06 0.002269
-0.000484 -9e-06 0.00227
-0.000459 -8e-06 0.00227
-0.000435 -9e-06 0.002271
-0.00041 -9e-06 0.002271
-0.00113 0.000578 0.002488
-0.000643 0.000443 0.002931
-0.000659 0.000456 0.002898
-0.000213 -9e-06 0.002271
-0.000551 0.000495 0.002966
-0.001356 0.000476 0.002648
-0.001386 0.000466 0.002663
-0.000763 0.000677 0.002373
-0.001559 0.000666 0.002544
-0.001294 0.000528 0.002611
-1.6e-05 -9e-06 0.002271
9e-06 -9e-06 0.002273
3.4e-05 -8e-06 0.00227
5.8e-05 -8e-06 0.00227
0.0007 0.000551 0.00237
0.000602 0.000516 0.002785
0.000614 0.000533 0.002743
0.000542 0.000709 0.002921
0.00028 -1e-05 0.002274
0.000305 -1e-05 0.002275
0.000329 -1e-05 0.002275
0.000354 -1e-05 0.002274
0.000378 -1e-05 0.002271
0.000403 -1e-05 0.002272
0.000428 -9e-06 0.002273
0.000452 -8e-06 0.002271
0.000477 -8e-06 0.00227
0.000502 -9e-06 0.002272
0.000551 -8e-06 0.002271
0.000575 -9e-06 0.002273
0.0006 -9e-06 0.002273
0.000625 -1e-05 0.002275
-0.000673 0.000472 0.002858
-0.0007 0.000723 0.002774
-0.001263 0.000732 0.00259
-0.000575 0.000466 0.002961
-0.000508 -9e-06 0.002212
-0.000484 -9e-06 0.002213
-0.000459 -9e-06 0.002212
-0.000687 0.000489 0.002817
-0.000723 0.0006 0.002678
-0.000623 0.00052 0.002948
-0.001294 0.000555 0.002611
-0.001561 0.000556 0.002547
-0.000237 -1.1e-05 0.002217
-0.000213 -1.1e-05 0.002217
-0.000188 -1.1e-05 0.002218
-0.000896 0.000692 0.002301
-0.000551 0.000468 0.002966
-0.00055 0.000577 0.002965
-0.001198 0.000734 0.002544
-6.5e-05 -1.1e-05 0.002219
-4e-05 -1.2e-05 0.002219
-1.6e-05 -1.2e-05 0.002219
9e-06 -1.1e-05 0.002218
3.4e-05 -1.2e-05 0.002219
5.8e-05 -1.3e-05 0.002218
0.00135 0.000313 0.002696
0.00068 0.000545 0.002389
0.001349 0.000585 0.002695
0.001326 0.000585 0.002704
0.000547 0.000321 0.002937
0.000206 -1e-05 0.002216
0.000231 -1e-05 0.002217
0.000255 -1e-05 0.002217
0.000625 0.000443 0.002698
0.001302 0.000585 0.00271
0.000589 0.00069 0.002827
0.000354 -9e-06 0.002214
0.000378 -9e-06 0.002214
0.000403 -9e-06 0.002213
0.000428 -9e-06 0.002214
0.000452 -9e-06 0.002214
0.000477 -1e-05 0.002215
0.000721 0.000635 0.002356
0.000458 0.000368 0.002981
0.000551 -1e-05 0.002216
0.000575 -1.1e-05 0.002218
0.0006 -1.1e-05 0.002218
0.000601 0.000462 0.002785
-0.0007 0.000507 0.002773
-0.001095 0.000623 0.002457
-0.00113 0.000605 0.002488
-0.00095 0.000707 0.002312
-0.000599 0.000575 0.002955
-0.000638 0.000697 0.002912
-0.000657 0.000705 0.00289
-0.000982 0.00072 0.002334
-0.00074 0.000679 0.002558
-0.000599 0.00052 0.002956
-0.000724 0.000627 0.002679
-0.001356 0.000584 0.002649
-0.001386 0.000575 0.002661
-0.001197 0.000544 0.002544
-0.000763 0.000704 0.002374
-0.000237 -1.6e-05 0.00217
-0.000213 -1.7e-05 0.002171
-0.000188 -1.7e-05 0.002171
-0.000164 -1.7e-05 0.002172
-0.000139 -1.7e-05 0.002173
-0.000114 -1.7e-05 0.002173
-9e-05 -1.8e-05 0.002174
-6.5e-05 -1.7e-05 0.002173
-4e-05 -1.8e-05 0.002174
-1.6e-05 -1.8e-05 0.002175
9e-06 -1.8e-05 0.002174
3.4e-05 -1.8e-05 0.002174
5.8e-05 -1.8e-05 0.002174
8.3e-05 -1.8e-05 0.002173
0.000107 -1.8e-05 0.002173
0.000132 -1.7e-05 0.002173
0.000157 -1.7e-05 0.002172
0.000181 -1.7e-05 0.002172
0.000206 -1.6e-05 0.00217
0.000231 -1.6e-05 0.002169
0.000255 -1.6e-05 0.002169
0.00028 -1.5e-05 0.002169
0.001346 0.000672 0.002685
0.000329 -1.4e-05 0.002167
0.000354 -1.4e-05 0.002166
0.000378 -1.4e-05 0.002165
0.000403 -1.3e-05 0.002165
0.000428 -1.3e-05 0.002164
0.000452 -1.3e-05 0.002164
0.000477 -1.2e-05 0.002161
0.000527 0.000641 0.002956
0.001242 0.000551 0.002685
0.0007 0.000523 0.00237
0.000507 0.000283 0.002973
0.000846 0.00057 0.002341
-0.001164 0.000614 0.002518
-0.001197 0.000598 0.002544
-0.001197 0.000571 0.002544
-0.001325 0.000515 0.002631
-0.001562 0.000582 0.002411
-0.000575 0.000576 0.00296
-0.000687 0.000651 0.002818
-0.0007 0.00067 0.002773
-0.00113 0.00074 0.002489
-0.001164 0.000723 0.002517
-0.000748 0.000745 0.002409
-0.000733 0.000651 0.002623
-0.000575 0.000603 0.00296
-0.000599 0.000602 0.002954
-0.001989 0.000707 0.002027
-0.001988 0.000735 0.002025
-0.000262 -2.4e-05 0.00213
-0.000237 -2.5e-05 0.002131
-0.000213 -2.6e-05 0.002132
-0.000188 -2.6e-05 0.002133
-0.000164 -2.7e-05 0.002135
-0.000139 -2.7e-05 0.002134
-0.000114 -2.7e-05 0.002135
-9e-05 -2.8e-05 0.002137
-6.5e-05 -2.8e-05 0.002137
-4e-05 -2.8e-05 0.002137
-1.6e-05 -2.8e-05 0.002137
9e-06 -2.8e-05 0.002137
3.4e-05 -2.7e-05 0.002136
5.8e-05 -2.7e-05 0.002136
8.3e-05 -2.7e-05 0.002136
0.000107 -2.7e-05 0.002135
0.000132 -2.7e-05 0.002135
0.000157 -2.6e-05 0.002134
0.000181 -2.6e-05 0.002133
0.000206 -2.6e-05 0.002132
0.000231 -2.5e-05 0.002132
0.000255 -2.5e-05 0.002131
0.00028 -2.4e-05 0.002129
0.000304 -2.3e-05 0.002127
0.000329 -2.3e-05 0.002127
0.000354 -2.2e-05 0.002125
0.000378 -2.2e-05 0.002123
0.00043 0.000673 0.002974
0.000548 0.000593 0.002937
0.001242 0.000605 0.002685
0.000625 0.000687 0.002699
0.001176 0.000634 0.002641
0.00121 0.000565 0.002664
0.000818 0.000522 0.002335
0.000458 0.000286 0.002981
0.000958 0.000506 0.002448
0.000877 0.000559 0.002356
-0.000871 0.000748 0.002305
-0.00123 0.000583 0.002569
-0.00123 0.000556 0.002569
-0.001356 0.000503 0.002649
-0.001564 0.000544 0.002506
-0.000848 0.000748 0.002311
-0.001059 0.000644 0.002421
-0.000712 0.000526 0.002726
-0.001386 0.00052 0.002662
-0.001412 0.000517 0.002662
-0.000575 0.000521 0.002961
-0.000551 0.000522 0.002965
-0.000674 0.000553 0.002859
-0.000622 0.000603 0.002945
-0.002216 0.000598 0.001686
-0.001553 0.000625 0.002305
-0.000262 -3.6e-05 0.002097
-0.000237 -3.7e-05 0.002097
-0.000213 -3.7e-05 0.002099
-0.000188 -3.8e-05 0.0021
-0.000164 -3.8e-05 0.0021
-0.000139 -3.8e-05 0.002101
-0.000114 -3.9e-05 0.002103
-9e-05 -3.9e-05 0.002103
-6.5e-05 -3.9e-05 0.002104
-4e-05 -4e-05 0.002104
-1.6e-05 -3.9e-05 0.002104
9e-06 -3.9e-05 0.002104
3.3e-05 -3.9e-05 0.002104
5.8e-05 -4e-05 0.002104
8.3e-05 -3.9e-05 0.002103
0.000107 -3.9e-05 0.002103
0.000132 -3.9e-05 0.002102
0.000157 -3.8e-05 0.002102
0.000181 -3.8e-05 0.002101
0.000206 -3.7e-05 0.0021
0.000231 -3.7e-05 0.002099
0.000255 -3.6e-05 0.002097
0.00028 -3.5e-05 0.002095
0.000304 -3.4e-05 0.002093
0.000329 -3.3e-05 0.002091
0.001327 0.000366 0.002706
0.000562 0.000334 0.002903
0.001177 0.000335 0.002641
0.001372 0.000288 0.002685
0.001108 0.000368 0.002589
0.000846 0.000515 0.002342
0.000663 0.000509 0.002415
0.000547 0.000294 0.002937
0.000562 0.000307 0.002902
0.001372 0.000315 0.002684
0.000877 0.000531 0.002356
0.000846 0.000542 0.002341
-0.000599 0.000411 0.002956
-0.000575 0.000412 0.002961
-0.00055 0.000413 0.002965
-0.000526 0.000415 0.00297
-0.001553 0.000652 0.002306
-0.001469 0.000627 0.002631
-0.001412 0.000408 0.002663
-0.001386 0.000412 0.002663
-0.001356 0.000422 0.002648
-0.001326 0.000434 0.002631
-0.001294 0.000447 0.002611
-0.001262 0.000461 0.002589
-0.00123 0.000474 0.002568
-0.001197 0.000489 0.002544
-0.001164 0.000505 0.002517
-0.00113 0.000523 0.002488
-0.001095 0.000542 0.002455
-0.001059 0.000562 0.002421
-0.001021 0.000587 0.002377
-0.000982 0.000612 0.002333
-0.00095 0.000626 0.002312
-0.000922 0.000633 0.002303
-0.000896 0.000637 0.002301
-0.000871 0.000639 0.002304
-0.000847 0.00064 0.00231
-0.000824 0.000638 0.00232
-0.000802 0.000636 0.002332
-0.000781 0.000631 0.002349
-0.000763 0.000623 0.002373
-0.000747 0.00061 0.002406
-0.00074 0.000543 0.002558
-0.000733 0.000515 0.002622
-0.000723 0.000492 0.002677
-0.000712 0.000471 0.002727
-0.0007 0.000452 0.002774
-0.000687 0.000434 0.002818
-0.000673 0.000417 0.002859
-0.000659 0.000402 0.002897
-0.000643 0.000389 0.002932
-0.000623 0.000384 0.002949
-0.000599 0.000384 0.002955
-0.000575 0.000385 0.00296
-0.00055 0.000386 0.002965
-0.000526 0.000387 0.00297
-0.001533 0.000517 0.002595
-0.001447 0.000629 0.002642
-0.001412 0.00038 0.002663
-0.001386 0.000384 0.002663
-0.001356 0.000395 0.002648
-0.001325 0.000407 0.002631
-0.001294 0.000419 0.002612
-0.001262 0.000433 0.00259
-0.00123 0.000447 0.002568
-0.001197 0.000462 0.002544
-0.001164 0.000478 0.002518
-0.00113 0.000496 0.002488
-0.001095 0.000514 0.002457
-0.001059 0.000535 0.002421
-0.001021 0.000559 0.002378
-0.000982 0.000584 0.002334
-0.00095 0.000599 0.002311
-0.000922 0.000606 0.002303
-0.000896 0.00061 0.002301
-0.000871 0.000612 0.002304
-0.000847 0.000613 0.00231
-0.000824 0.000611 0.002319
-0.000802 0.000609 0.002332
-0.000782 0.000603 0.00235
-0.000763 0.000596 0.002373
-0.000747 0.000582 0.002409
-0.000739 0.000517 0.002556
-0.000733 0.000488 0.002622
-0.000723 0.000465 0.002677
-0.000712 0.000444 0.002728
-0.0007 0.000425 0.002773
-0.000687 0.000407 0.002818
-0.000673 0.00039 0.002859
-0.000659 0.000375 0.002897
-0.000643 0.000361 0.002932
-0.000623 0.000357 0.002949
-0.000599 0.000357 0.002956
-0.000575 0.000358 0.002961
-0.00055 0.000359 0.002965
-0.000526 0.00036 0.00297
-0.001533 0.000572 0.002594
-0.001564 0.000644 0.00246
-0.001412 0.000353 0.002663
-0.001386 0.000357 0.002663
-0.001356 0.000368 0.002648
-0.001325 0.000379 0.002631
-0.001294 0.000392 0.002612
-0.001262 0.000406 0.002589
-0.00123 0.00042 0.002568
-0.001197 0.000435 0.002544
-0.001164 0.000451 0.002517
-0.00113 0.000469 0.002488
-0.001095 0.000488 0.002455
-0.001059 0.000508 0.002422
-0.00102 0.000533 0.002377
-0.000982 0.000557 0.002334
-0.00095 0.000572 0.002311
-0.000922 0.000579 0.002304
-0.000896 0.000583 0.002301
-0.000871 0.000585 0.002304
-0.000847 0.000585 0.00231
-0.000824 0.000584 0.002319
-0.000802 0.000581 0.002332
-0.000781 0.000576 0.002349
-0.000763 0.000568 0.002374
-0.000747 0.000555 0.002407
-0.00074 0.000489 0.002558
-0.000733 0.000461 0.002622
-0.000723 0.000438 0.002677
-0.000712 0.000417 0.002727
-0.0007 0.000398 0.002773
-0.000687 0.00038 0.002817
-0.000673 0.000363 0.002859
-0.000659 0.000348 0.002897
-0.000643 0.000334 0.002932
-0.000623 0.00033 0.002949
-0.000599 0.00033 0.002956
-0.000575 0.000331 0.00296
-0.00055 0.000332 0.002965
-0.000526 0.000333 0.00297
-0.001551 0.000574 0.002577
-0.001564 0.000626 0.002506
-0.001326 0.000689 0.002635
-0.001386 0.00033 0.002663
-0.001355 0.000341 0.002649
-0.001325 0.000352 0.002631
-0.001294 0.000365 0.002612
-0.001262 0.000379 0.002589
-0.00123 0.000393 0.002568
-0.001197 0.000408 0.002543
-0.001164 0.000423 0.002518
-0.00113 0.000442 0.002488
-0.001095 0.000461 0.002456
-0.001059 0.000481 0.002421
-0.000982 0.000531 0.002332
-0.00095 0.000544 0.002311
-0.000922 0.000552 0.002303
-0.000896 0.000556 0.002301
-0.000871 0.000558 0.002304
-0.000847 0.000558 0.00231
-0.000824 0.000557 0.002319
-0.000802 0.000554 0.002332
-0.000781 0.000549 0.002349
-0.000763 0.000541 0.002373
-0.000747 0.000528 0.002407
-0.000733 0.000433 0.002623
-0.000723 0.00041 0.002678
-0.000712 0.000389 0.002729
-0.0007 0.000371 0.002773
-0.000687 0.000353 0.002817
-0.000674 0.000335 0.00286
-0.000659 0.00032 0.002898
-0.000643 0.000307 0.002932
-0.000623 0.000302 0.002949
-0.000599 0.000303 0.002955
-0.000574 0.000304 0.00296
-0.00055 0.000305 0.002965
-0.000526 0.000306 0.00297
-0.001751 0.000751 0.001929
-0.00155 0.000601 0.002576
-0.001561 0.000691 0.00241
-0.001359 0.000705 0.002642
-0.001355 0.000313 0.002649
-0.001325 0.000325 0.002631
-0.001294 0.000338 0.002611
-0.001262 0.000352 0.002589
-0.00123 0.000366 0.002568
-0.001197 0.000381 0.002544
-0.001164 0.000396 0.002518
-0.00113 0.000414 0.002488
-0.001095 0.000433 0.002456
-0.001059 0.000454 0.002421
-0.000981 0.000504 0.002331
-0.00095 0.000517 0.002311
-0.000922 0.000525 0.002303
-0.000895 0.000529 0.002301
-0.000871 0.000531 0.002304
-0.000847 0.000531 0.00231
-0.000824 0.00053 0.002319
-0.000802 0.000527 0.002332
-0.000781 0.000522 0.002349
-0.000763 0.000514 0.002373
-0.000747 0.0005 0.002408
-0.000723 0.000383 0.002677
-0.000712 0.000362 0.002728
-0.0007 0.000343 0.002774
-0.000687 0.000325 0.002818
-0.000673 0.000308 0.002859
-0.000659 0.000293 0.002899
-0.000643 0.00028 0.002932
-0.000622 0.000275 0.002948
-0.000599 0.000275 0.002955
-0.000574 0.000277 0.00296
-0.00055 0.000278 0.002965
-0.000526 0.000279 0.00297
-0.001564 0.000617 0.00246
-0.001491 0.000599 0.00262
-0.001564 0.000671 0.00246
-0.001438 0.00069 0.002629
-0.001355 0.000286 0.002649
-0.001325 0.000298 0.00263
-0.001294 0.00031 0.002612
-0.001262 0.000325 0.002589
-0.00123 0.000338 0.002568
-0.001197 0.000354 0.002543
-0.001164 0.000369 0.002519
-0.00113 0.000387 0.002489
-0.001095 0.000406 0.002456
-0.001059 0.000427 0.00242
-0.00095 0.00049 0.002311
-0.000922 0.000498 0.002302
-0.000895 0.000502 0.002301
-0.000871 0.000504 0.002303
-0.000847 0.000504 0.00231
-0.000824 0.000503 0.002319
-0.000802 0.0005 0.002331
-0.000781 0.000495 0.002349
-0.000762 0.000487 0.002372
-0.000747 0.000474 0.002406
-0.000723 0.000356 0.002678
-0.000712 0.000335 0.002728
-0.0007 0.000316 0.002773
-0.000687 0.000298 0.002818
-0.000673 0.000282 0.002859
-0.000659 0.000266 0.002898
-0.000643 0.000253 0.002932
-0.000622 0.000248 0.002948
-0.000599 0.000248 0.002955
-0.000575 0.000249 0.00296
-0.00055 0.00025 0.002965
-0.000526 0.000252 0.00297
-0.001558 0.000657 0.002359
-0.001448 0.000601 0.002644
-0.001511 0.000627 0.002606
-0.001467 0.000657 0.002628
-0.001355 0.000259 0.00265
-0.001325 0.000271 0.002631
-0.001294 0.000284 0.002611
-0.001262 0.000297 0.00259
-0.00123 0.000312 0.002566
-0.001197 0.000327 0.002543
-0.001164 0.000342 0.002518
-0.00113 0.00036 0.002489
-0.001094 0.00038 0.002454
-0.001059 0.000399 0.002421
-0.000344 -3.6e-05 0.002084
-0.00095 0.000463 0.002311
-0.000922 0.00047 0.002303
-0.000895 0.000475 0.0023
-0.000871 0.000477 0.002303
-0.000847 0.000477 0.002309
-0.000824 0.000476 0.002318
-0.000802 0.000473 0.002331
-0.000781 0.000468 0.002349
-0.000762 0.00046 0.002372
-0.000747 0.000446 0.002409
-0.000741 0.000378 0.002561
-0.000733 0.000352 0.002623
-0.000723 0.000329 0.002677
-0.000712 0.000308 0.002727
-0.0007 0.000289 0.002774
-0.000687 0.000271 0.002818
-0.000673 0.000255 0.002858
-0.000659 0.000238 0.002898
-0.000643 0.000226 0.002932
-0.000622 0.000221 0.002948
-0.000599 0.000221 0.002955
-0.000574 0.000222 0.00296
-0.00055 0.000223 0.002965
-0.000526 0.000225 0.002969
-0.000368 -3.6e-05 0.002078
-0.001469 0.000545 0.002632
-0.001561 0.00061 0.002547
-0.001424 0.000631 0.002652
-0.001546 0.00066 0.002569
-0.001355 0.000232 0.002649
-0.001325 0.000244 0.002631
-0.001294 0.000256 0.002611
-0.001262 0.00027 0.002589
-0.00123 0.000284 0.002567
-0.001197 0.0003 0.002543
-0.001164 0.000315 0.002518
-0.00113 0.000333 0.002488
-0.001094 0.000352 0.002455
-0.001059 0.000372 0.00242
-0.00102 0.000397 0.002377
-0.00095 0.000436 0.002311
-0.000922 0.000443 0.002302
-0.000895 0.000448 0.0023
-0.00087 0.00045 0.002303
-0.000847 0.00045 0.002309
-0.000824 0.000449 0.002318
-0.000802 0.000446 0.002331
-0.000781 0.000441 0.002349
-0.000763 0.000433 0.002373
-0.000748 0.000418 0.00241
-0.00074 0.000352 0.002561
-0.000733 0.000325 0.002623
-0.000723 0.000302 0.002676
-0.000712 0.000281 0.002727
-0.0007 0.000262 0.002773
-0.000687 0.000244 0.002817
-0.000673 0.000227 0.002859
-0.000659 0.000211 0.002898
-0.000643 0.000199 0.002931
-0.000622 0.000194 0.002947
-0.000599 0.000194 0.002955
-0.000574 0.000195 0.00296
-0.00055 0.000196 0.002965
-0.000526 0.000197 0.002969
-0.000392 -3.7e-05 0.002072
-0.001836 0.000713 0.001971
-0.001425 0.000602 0.002654
-0.002024 0.000693 0.002039
-0.001564 0.00068 0.002506
-0.001355 0.000205 0.002649
-0.001324 0.000217 0.00263
-0.001294 0.000229 0.002611
-0.001262 0.000243 0.002589
-0.00123 0.000257 0.002568
-0.001197 0.000273 0.002543
-0.001164 0.000288 0.002518
-0.00113 0.000306 0.002488
-0.001094 0.000325 0.002455
-0.001059 0.000345 0.00242
-0.00102 0.00037 0.002377
-0.00095 0.000409 0.00231
-0.000922 0.000416 0.002302
-0.000895 0.000421 0.002301
-0.00087 0.000423 0.002303
-0.000847 0.000423 0.002309
-0.000824 0.000422 0.002318
-0.000802 0.000419 0.002332
-0.000781 0.000414 0.002349
-0.000763 0.000405 0.002373
-0.000748 0.00039 0.002411
-0.000744 0.000358 0.002485
-0.00074 0.000325 0.00256
-0.000733 0.000297 0.002625
-0.000723 0.000275 0.002677
-0.000712 0.000254 0.002727
-0.0007 0.000234 0.002774
-0.000687 0.000217 0.002818
-0.000673 0.0002 0.002858
-0.000659 0.000184 0.002898
-0.000643 0.000172 0.00293
-0.000621 0.000168 0.002945
-0.000598 0.000168 0.002953
-0.000574 0.000168 0.00296
-0.00055 0.000169 0.002965
-0.000526 0.00017 0.002969
-0.000416 -3.7e-05 0.002066
-0.001552 0.000519 0.002578
-0.001503 0.000758 0.002073
-0.001952 0.00072 0.002018
-0.001444 0.000658 0.002639
-0.001355 0.000178 0.002649
-0.001324 0.00019 0.002631
-0.001294 0.000202 0.002611
-0.001262 0.000216 0.002589
-0.00123 0.00023 0.002567
-0.001197 0.000245 0.002543
-0.001164 0.00026 0.002518
-0.00113 0.000278 0.002489
-0.001094 0.000298 0.002455
-0.001058 0.000318 0.00242
-0.00102 0.000342 0.002378
-0.000981 0.000368 0.002331
-0.00095 0.000381 0.002311
-0.000921 0.000389 0.002304
-0.000895 0.000393 0.002301
-0.000871 0.000395 0.002303
-0.000847 0.000395 0.00231
-0.000824 0.000394 0.002319
-0.000802 0.000391 0.002332
-0.000781 0.000386 0.00235
-0.000763 0.000378 0.002373
-0.000748 0.000363 0.002411
-0.000744 0.000331 0.002485
-0.00074 0.000297 0.002561
-0.000733 0.00027 0.002623
-0.000723 0.000247 0.002678
-0.000712 0.000227 0.002727
-0.0007 0.000207 0.002774
-0.000687 0.00019 0.002817
-0.000673 0.000173 0.002858
-0.000659 0.000157 0.002898
-0.000642 0.000146 0.002929
-0.000621 0.000142 0.002942
-0.000597 0.000142 0.002951
-0.000574 0.000142 0.002957
-0.00055 0.000143 0.002963
-0.000525 0.000144 0.002967
-0.001561 0.000583 0.002548
-0.001401 0.000605 0.002661
-0.001399 0.000634 0.002659
-0.001528 0.000657 0.002586
-0.001355 0.000151 0.002648
-0.001324 0.000163 0.00263
-0.001293 0.000175 0.00261
-0.001261 0.000189 0.002588
-0.00123 0.000203 0.002567
-0.001197 0.000218 0.002543
-0.001164 0.000234 0.002518
-0.00113 0.000251 0.002488
-0.001094 0.000271 0.002455
-0.001059 0.000291 0.002421
-0.00102 0.000315 0.002377
-0.000981 0.000341 0.00233
-0.00095 0.000354 0.002311
-0.000921 0.000362 0.002304
-0.000895 0.000366 0.002301
-0.000871 0.000368 0.002304
-0.000847 0.000368 0.00231
-0.000824 0.000367 0.002319
-0.000802 0.000364 0.002332
-0.000781 0.000359 0.00235
-0.000763 0.000351 0.002373
-0.000748 0.000336 0.002411
-0.000743 0.000304 0.002483
-0.00074 0.00027 0.002561
-0.000733 0.000243 0.002623
-0.000723 0.00022 0.002678
-0.000712 0.000199 0.002728
-0.0007 0.00018 0.002774
-0.000687 0.000163 0.002817
-0.000673 0.000145 0.002859
-0.000659 0.00013 0.002898
-0.000641 0.00012 0.002925
-0.000619 0.000118 0.002937
-0.000596 0.000117 0.002946
-0.000572 0.000117 0.002953
-0.000548 0.000118 0.002959
-0.000524 0.000119 0.002963
-0.001915 0.000708 0.002003
-0.001532 0.000599 0.002593
-0.00149 0.000627 0.002619
-0.002057 0.000738 0.002041
-0.001355 0.000124 0.002647
-0.001324 0.000135 0.002631
-0.001293 0.000149 0.002609
-0.001261 0.000163 0.002587
-0.00123 0.000176 0.002568
-0.001197 0.000191 0.002542
-0.001164 0.000207 0.002517
-0.00113 0.000224 0.002488
-0.001095 0.000243 0.002456
-0.001059 0.000264 0.00242
-0.00102 0.000288 0.002377
-0.000981 0.000314 0.002331
-0.00095 0.000327 0.002311
-0.000921 0.000334 0.002303
-0.000895 0.000339 0.002301
-0.000871 0.000341 0.002304
-0.000847 0.000341 0.00231
-0.000824 0.00034 0.002319
-0.000802 0.000337 0.002332
-0.000781 0.000332 0.00235
-0.000763 0.000324 0.002373
-0.000748 0.000309 0.00241
-0.00074 0.000243 0.00256
-0.000733 0.000216 0.002623
-0.000723 0.000192 0.002679
-0.000712 0.000172 0.002727
-0.0007 0.000153 0.002774
-0.000687 0.000135 0.002818
-0.000673 0.000118 0.002859
-0.000659 0.000103 0.002897
-0.000639 9.6e-05 0.002919
-0.000617 9.4e-05 0.00293
-0.000594 9.3e-05 0.002939
-0.00057 9.3e-05 0.002946
-0.000546 9.4e-05 0.002951
-0.000522 9.5e-05 0.002956
-0.000497 9.7e-05 0.002958
-0.001953 0.000693 0.002016
-0.001512 0.000599 0.002608
-0.001558 0.000712 0.002359
-0.001324 0.000717 0.002634
-0.001354 9.7e-05 0.002645
-0.001324 0.000108 0.00263
-0.001293 0.000122 0.002609
-0.001261 0.000135 0.002588
-0.00123 0.000149 0.002567
-0.001197 0.000164 0.002543
-0.001164 0.000179 0.002518
-0.001129 0.000198 0.002486
-0.001094 0.000217 0.002454
-0.001058 0.000237 0.002419
-0.00102 0.000261 0.002377
-0.000982 0.000286 0.002332
-0.00095 0.000299 0.002312
-0.000921 0.000307 0.002303
-0.000895 0.000312 0.002301
-0.00087 0.000314 0.002303
-0.000847 0.000314 0.00231
-0.000824 0.000313 0.002319
-0.000802 0.00031 0.002332
-0.000781 0.000304 0.00235
-0.000762 0.000297 0.002373
-0.000748 0.000282 0.002411
-0.00044 -3.8e-05 0.00206
-0.000464 -3.8e-05 0.002054
-0.000724 0.000165 0.00268
-0.000712 0.000145 0.002727
-0.0007 0.000126 0.002773
-0.000687 0.000108 0.002818
-0.000673 9.2e-05 0.002858
-0.000657 7.8e-05 0.002893
-0.000637 7.3e-05 0.00291
-0.000614 7.1e-05 0.00292
-0.000591 7.1e-05 0.002929
-0.000567 7.1e-05 0.002936
-0.000543 7.2e-05 0.002941
-0.001952 0.000612 0.002015
-0.001558 0.000684 0.002359
-0.002093 0.000698 0.002052
-0.001461 0.000689 0.002619
-0.001353 7.3e-05 0.00264
-0.001324 8.1e-05 0.00263
-0.001293 9.4e-05 0.002609
-0.001261 0.000108 0.002587
-0.001229 0.000122 0.002567
-0.001197 0.000137 0.002543
-0.001164 0.000152 0.002517
-0.001129 0.00017 0.002487
-0.001094 0.000189 0.002455
-0.001058 0.00021 0.002419
-0.00102 0.000234 0.002378
-0.000982 0.000259 0.002332
-0.00095 0.000272 0.002312
-0.000921 0.00028 0.002303
-0.000895 0.000284 0.002301
-0.00087 0.000287 0.002303
-0.000847 0.000287 0.00231
-0.000824 0.000286 0.002319
-0.000802 0.000283 0.002332
-0.000781 0.000277 0.00235
-0.000763 0.000269 0.002373
-0.000747 0.000255 0.002409
-0.00074 0.000188 0.002561
-0.000733 0.000162 0.002623
-0.000723 0.000138 0.002679
-0.000712 0.000118 0.002728
-0.000699 9.9e-05 0.002773
-0.000687 8.1e-05 0.002818
-0.000673 6.5e-05 0.002857
-0.000655 5.5e-05 0.002884
-0.000633 5.2e-05 0.002898
-0.00061 5e-05 0.002908
-0.000587 5e-05 0.002916
-0.000563 5e-05 0.002923
-0.001533 0.000544 0.002595
-0.001552 0.000708 0.002304
-0.002091 0.000726 0.00205
-0.001375 4.8e-05 0.002627
-0.00135 5e-05 0.00263
-0.001323 5.6e-05 0.002626
-0.001293 6.7e-05 0.002609
-0.001261 8.1e-05 0.002586
-0.001229 9.5e-05 0.002566
-0.001197 0.00011 0.002542
-0.001164 0.000125 0.002518
-0.001129 0.000144 0.002486
-0.001094 0.000162 0.002454
-0.001058 0.000183 0.002419
-0.00102 0.000208 0.002375
-0.000981 0.000232 0.002332
-0.00095 0.000245 0.002312
-0.000921 0.000253 0.002303
-0.000895 0.000257 0.002301
-0.00087 0.000259 0.002304
-0.000847 0.000259 0.00231
-0.000824 0.000258 0.002319
-0.000802 0.000255 0.002332
-0.000781 0.00025 0.00235
-0.000763 0.000242 0.002374
-0.000747 0.000228 0.002409
-0.000741 0.000161 0.002562
-0.000733 0.000134 0.002624
-0.000723 0.000111 0.002679
-0.000712 9.1e-05 0.002728
-0.000699 7.2e-05 0.002773
-0.000687 5.4e-05 0.002817
-0.000671 4.1e-05 0.002851
-0.000651 3.5e-05 0.00287
-0.000629 3.2e-05 0.002883
-0.000606 3.1e-05 0.002892
-0.000582 3e-05 0.0029
-0.001498 0.000764 0.001971
-0.001561 0.000664 0.00241
-0.001394 2.9e-05 0.002604
-0.001371 2.9e-05 0.002611
-0.001346 3e-05 0.002616
-0.001321 3.3e-05 0.002616
-0.001292 4.1e-05 0.002606
-0.001261 5.4e-05 0.002586
-0.001229 6.8e-05 0.002565
-0.001197 8.3e-05 0.002542
-0.001164 9.8e-05 0.002517
-0.001129 0.000116 0.002487
-0.001094 0.000135 0.002455
-0.001058 0.000156 0.002418
-0.00102 0.00018 0.002376
-0.000981 0.000205 0.002332
-0.00095 0.000218 0.002311
-0.000921 0.000226 0.002303
-0.000895 0.00023 0.002301
-0.00087 0.000232 0.002304
-0.000847 0.000232 0.00231
-0.000824 0.000231 0.002319
-0.000802 0.000228 0.002332
-0.000781 0.000223 0.002349
-0.000763 0.000215 0.002374
-0.000748 0.000201 0.00241
-0.000488 -3.9e-05 0.002048
-0.000723 8.4e-05 0.002678
-0.000712 6.3e-05 0.002729
-0.000699 4.5e-05 0.002772
-0.000685 3e-05 0.00281
-0.000667 2e-05 0.002837
-0.000645 1.6e-05 0.002852
-0.000623 1.4e-05 0.002863
-0.0006 1.3e-05 0.002872
-0.002246 0.000572 0.001741
-0.001531 0.000628 0.002591
-0.001388 1.2e-05 0.002583
-0.001365 1.2e-05 0.002591
-0.001341 1.2e-05 0.002596
-0.001316 1.4e-05 0.002599
-0.001289 1.9e-05 0.002596
-0.00126 2.8e-05 0.002584
-0.001229 4.1e-05 0.002565
-0.001197 5.5e-05 0.002542
-0.001164 7.1e-05 0.002517
-0.001129 9e-05 0.002485
-0.001094 0.000108 0.002455
-0.001058 0.000129 0.002418
-0.000981 0.000178 0.002331
-0.00095 0.000191 0.002311
-0.000921 0.000198 0.002303
-0.000895 0.000203 0.002301
-0.00087 0.000205 0.002304
-0.000847 0.000205 0.00231
-0.000824 0.000204 0.002319
-0.000802 0.000201 0.002332
-0.000781 0.000196 0.002349
-0.000763 0.000187 0.002374
-0.000747 0.000174 0.002409
-0.000741 0.000106 0.002562
-0.000733 8e-05 0.002623
-0.000723 5.7e-05 0.002678
-0.000712 3.6e-05 0.002728
-0.000698 2e-05 0.002768
-0.00068 1e-05 0.002796
-0.00066 4e-06 0.002814
-0.000638 1e-06 0.002827
-0.000615 0.0 0.002836
-0.000568 0.0 0.002851
-0.000544 1e-06 0.002857
-0.001552 0.00068 0.002304
-0.001554 0.000733 0.002307
-0.001379 -0.0 0.002552
-0.001355 -0.0 0.002559
-0.001332 -1e-06 0.002567
-0.001308 -0.0 0.002573
-0.001283 3e-06 0.002574
-0.001256 7e-06 0.002571
-0.001227 1.6e-05 0.002561
-0.001196 2.9e-05 0.002541
-0.001163 4.5e-05 0.002515
-0.001129 6.3e-05 0.002485
-0.001058 0.000102 0.002419
-0.00102 0.000126 0.002375
-0.000981 0.000151 0.002331
-0.00095 0.000164 0.002311
-0.000921 0.000171 0.002303
-0.000895 0.000176 0.002301
-0.00087 0.000178 0.002304
-0.000847 0.000178 0.00231
-0.000824 0.000177 0.002319
-0.000802 0.000174 0.002332
-0.000781 0.000169 0.002349
-0.000763 0.00016 0.002374
-0.000747 0.000146 0.002409
-0.000741 7.9e-05 0.002562
-0.000733 5.3e-05 0.002624
-0.000723 3e-05 0.002677
-0.00071 1.2e-05 0.002721
-0.000692 2e-06 0.002749
-0.000672 -3e-06 0.002766
-0.000649 -4e-06 0.002775
-0.000625 -5e-06 0.002784
-0.000554 -4e-06 0.002802
-0.00053 -4e-06 0.00281
-0.000507 -4e-06 0.002817
-0.001564 0.000589 0.00246
-0.001564 0.000653 0.002506
-0.001366 -5e-06 0.002507
-0.001343 -6e-06 0.002515
-0.001319 -6e-06 0.002521
-0.001295 -5e-06 0.002527
-0.001271 -4e-06 0.002532
-0.001246 -3e-06 0.002536
-0.001221 -0.0 0.002538
-0.001193 7e-06 0.002531
-0.001162 1.9e-05 0.002512
-0.001129 3.5e-05 0.002486
-0.001093 5.5e-05 0.002452
-0.001058 7.5e-05 0.002418
-0.001019 9.9e-05 0.002374
-0.000981 0.000124 0.002331
-0.000949 0.000137 0.002311
-0.000921 0.000144 0.002303
-0.000895 0.000149 0.002301
-0.00087 0.000151 0.002304
-0.000847 0.000151 0.00231
-0.000824 0.000149 0.002319
-0.000802 0.000146 0.002332
-0.000781 0.000142 0.002349
-0.000763 0.000133 0.002374
-0.000747 0.000119 0.00241
-0.000741 5.2e-05 0.002563
-0.000733 2.5e-05 0.002624
-0.000721 6e-06 0.00267
-0.000703 -4e-06 0.002698
-0.000681 -6e-06 0.00271
-0.000657 -6e-06 0.002716
-0.000515 -5e-06 0.002756
-0.000491 -5e-06 0.002762
-0.000467 -4e-06 0.002768
-0.00042 -4e-06 0.002782
-0.000396 -4e-06 0.002789
-0.000372 -4e-06 0.002795
-0.000349 -4e-06 0.002802
-0.001512 0.000544 0.002608
-0.001373 -5e-06 0.002444
-0.001349 -5e-06 0.00245
-0.001327 -7e-06 0.002461
-0.001303 -6e-06 0.002467
-0.001279 -7e-06 0.002474
-0.001256 -7e-06 0.002483
-0.001233 -8e-06 0.002492
-0.001209 -8e-06 0.002499
-0.001184 -6e-06 0.0025
-0.001157 -0.0 0.002496
-0.001127 1e-05 0.002481
-0.001093 2.7e-05 0.002452
-0.001058 4.7e-05 0.002419
-0.001019 7.3e-05 0.002373
-0.000981 9.7e-05 0.002331
-0.000949 0.00011 0.002311
-0.000921 0.000117 0.002302
-0.000895 0.000122 0.0023
-0.00087 0.000123 0.002304
-0.000847 0.000124 0.00231
-0.000824 0.000122 0.002319
-0.000801 0.000119 0.002332
-0.000781 0.000114 0.002349
-0.000763 0.000106 0.002374
-0.000747 9.2e-05 0.002409
-0.00073 3e-06 0.002613
-0.000711 -5e-06 0.002638
-0.000688 -6e-06 0.002647
-0.000512 -3.9e-05 0.002042
0.001038 -2.1e-05 0.001894
0.001015 -2.2e-05 0.001903
-0.0005 -7e-06 0.002706
-0.000476 -7e-06 0.002712
-0.000452 -7e-06 0.002718
-0.000406 -8e-06 0.002734
-0.000382 -8e-06 0.00274
-0.000359 -9e-06 0.00275
-0.000335 -8e-06 0.002755
-0.00031 -7e-06 0.002759
-0.001382 -7e-06 0.002386
-0.001357 -6e-06 0.002388
-0.001334 -7e-06 0.002399
-0.001287 -7e-06 0.002412
-0.001262 -5e-06 0.002416
-0.001239 -6e-06 0.002424
-0.001192 -6e-06 0.002437
-0.001168 -7e-06 0.002446
-0.001144 -6e-06 0.002451
-0.00112 -4e-06 0.002455
-0.001091 1e-06 0.002448
-0.00098 7e-05 0.002329
-0.000949 8.3e-05 0.00231
-0.000921 9e-05 0.002302
-0.000895 9.5e-05 0.0023
-0.00087 9.6e-05 0.002303
-0.000847 9.6e-05 0.00231
-0.000824 9.5e-05 0.002319
-0.000801 9.2e-05 0.002332
-0.000781 8.7e-05 0.002349
-0.000762 7.9e-05 0.002374
-0.000747 6.5e-05 0.00241
-0.000745 3e-05 0.002488
-0.000738 1e-06 0.002555
-0.00072 -8e-06 0.00258
-0.000696 -8e-06 0.002587
-0.000672 -7e-06 0.002593
-0.000649 -9e-06 0.0026
-0.000535 -3.9e-05 0.002036
0.000993 -2.2e-05 0.001913
0.00097 -2.3e-05 0.001922
-0.000559 -3.9e-05 0.002028
-0.000459 -7e-06 0.002653
-0.000435 -6e-06 0.002659
-0.000412 -6e-06 0.002666
-0.000388 -5e-06 0.002672
-0.000364 -6e-06 0.00268
-0.000341 -6e-06 0.002688
-0.000317 -6e-06 0.002695
-0.000294 -6e-06 0.002703
-0.001365 -6e-06 0.002327
-0.001341 -7e-06 0.002334
-0.001317 -6e-06 0.002341
-0.000583 -3.9e-05 0.002022
-0.001271 -7e-06 0.002356
-0.001247 -8e-06 0.002364
-0.001224 -8e-06 0.002372
-0.001201 -9e-06 0.002381
-0.001177 -9e-06 0.002387
-0.001153 -9e-06 0.002395
-0.001131 -1e-05 0.002404
-0.001107 -1e-05 0.002411
-0.001083 -1e-05 0.002417
-0.001055 -3e-06 0.00241
-0.00098 4.4e-05 0.002328
-0.000949 5.6e-05 0.00231
-0.000921 6.3e-05 0.002302
-0.000895 6.7e-05 0.0023
-0.00087 6.9e-05 0.002303
-0.000846 6.9e-05 0.00231
-0.000823 6.8e-05 0.002319
-0.000801 6.5e-05 0.002331
-0.000781 6e-05 0.002349
-0.000762 5.2e-05 0.002373
-0.000745 2e-06 0.002491
-0.000728 -9e-06 0.002519
-0.000705 -1e-05 0.002528
-0.000681 -9e-06 0.002534
-0.000658 -1e-05 0.002542
-0.000634 -1e-05 0.00255
-0.000611 -1e-05 0.002557
-0.000606 -3.9e-05 0.002015
-0.000422 -1.1e-05 0.002615
-0.000398 -1e-05 0.002622
-0.000279 -9e-06 0.00265
-0.000255 -8e-06 0.002658
-0.000229 -5e-06 0.002658
-0.001351 -1.1e-05 0.00228
-0.001328 -1.1e-05 0.002288
-0.001256 -1e-05 0.002306
-0.001232 -1e-05 0.002313
-0.001209 -1e-05 0.00232
-0.001185 -1e-05 0.002328
-0.001161 -1e-05 0.002334
-0.001448 0.000519 0.002644
-0.00063 -3.9e-05 0.002007
-0.000653 -3.9e-05 0.002
-0.000949 2.9e-05 0.002309
-0.000921 3.7e-05 0.0023
-0.000895 4e-05 0.0023
-0.001421 0.000661 0.002647
-0.000846 4.2e-05 0.002309
-0.000823 4.1e-05 0.002319
-0.000801 3.8e-05 0.002331
-0.000781 3.3e-05 0.002349
-0.000762 2.5e-05 0.002373
-0.000735 -8e-06 0.002455
-0.000711 -8e-06 0.002462
-0.000687 -7e-06 0.002467
-0.000663 -7e-06 0.002473
-0.00064 -7e-06 0.002481
-0.000616 -7e-06 0.002487
-0.000593 -8e-06 0.002496
-0.000677 -3.8e-05 0.001992
-0.000241 -1.2e-05 0.00261
-0.000216 -9e-06 0.00261
-0.001512 0.000517 0.002608
-0.00131 -9e-06 0.002227
-0.001286 -9e-06 0.002233
-0.001262 -7e-06 0.002237
-0.001239 -7e-06 0.002247
-0.001215 -8e-06 0.002253
-0.001191 -7e-06 0.002258
-0.001167 -7e-06 0.002265
-0.001143 -6e-06 0.00227
-0.00112 -8e-06 0.00228
-0.001096 -7e-06 0.002285
-0.001072 -6e-06 0.002291
-0.001049 -7e-06 0.002299
-0.001989 0.000598 0.002027
-0.000701 -3.9e-05 0.001986
-0.000724 -3.8e-05 0.001978
-0.000949 1e-06 0.00231
-0.000921 9e-06 0.002301
-0.000895 1.3e-05 0.0023
-0.002066 0.000758 0.001343
-0.001836 0.000686 0.00197
-0.001551 0.000546 0.002578
-0.001558 0.00063 0.002359
-0.000782 4e-06 0.002353
-0.000764 -4e-06 0.002378
-0.000743 -1e-05 0.002395
-0.000719 -9e-06 0.002401
-0.0006 -8e-06 0.002431
-0.000576 -7e-06 0.002438
-0.000553 -8e-06 0.002446
-0.000458 -7e-06 0.002474
-0.002024 0.00064 0.002036
-0.001292 -7e-06 0.002167
-0.001269 -8e-06 0.002175
-0.001246 -8e-06 0.002184
-0.001222 -8e-06 0.002191
-0.001198 -7e-06 0.002196
-0.001175 -8e-06 0.002203
-0.00115 -7e-06 0.002208
-0.001128 -8e-06 0.002218
-0.001836 0.00074 0.001971
-0.001056 -7e-06 0.002237
-0.001032 -7e-06 0.002244
-0.001952 0.000639 0.002016
-0.000915 -8e-06 0.00228
-0.000891 -7e-06 0.002286
-0.000868 -8e-06 0.002294
-0.001491 0.000518 0.00262
-0.002059 0.000573 0.002049
-0.000726 -8e-06 0.002336
-0.000702 -8e-06 0.002342
-0.000678 -8e-06 0.002349
-0.000655 -8e-06 0.002356
-0.000466 -8e-06 0.002413
-0.000442 -8e-06 0.002419
-0.000276 -8e-06 0.002467
-0.000253 -7e-06 0.002473
-0.000228 -6e-06 0.002479
-0.000159 -6e-06 0.002499
-0.000127 5e-06 0.002483
-0.002024 0.000585 0.002037
-0.001276 -7e-06 0.002111
-0.001253 -8e-06 0.002119
-0.001229 -8e-06 0.002128
-0.001206 -8e-06 0.002134
-0.001182 -7e-06 0.00214
-0.001157 -7e-06 0.002144
-0.001561 0.000529 0.002547
-0.00111 -7e-06 0.002159
-0.000747 -3.8e-05 0.00197
-0.001563 0.000563 0.002459
-0.001989 0.000625 0.002026
-0.001914 0.000654 0.002001
-0.00077 -3.7e-05 0.001962
-0.000794 -3.6e-05 0.001954
-0.001561 0.000745 0.00241
-0.001492 0.000725 0.002576
-0.000852 -9e-06 0.00224
-0.000817 -3.6e-05 0.001947
-0.001469 0.000518 0.002632
-0.001448 0.000573 0.002645
-0.00147 0.000572 0.002633
-0.000733 -8e-06 0.002274
-0.00071 -9e-06 0.002282
-0.000686 -9e-06 0.002289
-0.000662 -9e-06 0.002295
-0.000639 -9e-06 0.002302
-0.000615 -9e-06 0.002309
-0.000474 -1e-05 0.002353
-0.00045 -1e-05 0.00236
-0.000426 -9e-06 0.002364
-0.000261 -8e-06 0.00241
-0.000237 -8e-06 0.002419
-0.000212 -7e-06 0.002424
-0.000189 -8e-06 0.002431
-0.000166 -8e-06 0.002441
-0.000143 -9e-06 0.002449
-0.000119 -9e-06 0.002455
-9.6e-05 -6e-06 0.002458
-0.001801 0.000752 0.001962
-0.001878 0.000722 0.00199
-0.001989 0.00068 0.002026
-0.001213 -8e-06 0.002072
-0.00119 -8e-06 0.002079
-0.001166 -9e-06 0.002086
-0.001143 -9e-06 0.002094
-0.00112 -1e-05 0.002103
-0.000841 -3.5e-05 0.001938
-0.000864 -3.5e-05 0.001929
-0.002025 0.000667 0.002037
-0.001426 0.00052 0.002656
-0.000763 -7e-06 0.002201
-0.00074 -8e-06 0.00221
-0.000716 -8e-06 0.002216
-0.000693 -8e-06 0.002223
-0.000669 -7e-06 0.00223
-0.000645 -7e-06 0.002236
-0.000621 -8e-06 0.002242
-0.000599 -8e-06 0.002252
-0.000386 -9e-06 0.002316
-0.000363 -9e-06 0.002323
-0.000338 -8e-06 0.002327
-0.000314 -7e-06 0.002333
-0.000291 -7e-06 0.00234
-0.000268 -8e-06 0.002349
-0.000221 -9e-06 0.002365
-0.000198 -1e-05 0.002373
-0.000174 -1e-05 0.00238
-0.00015 -9e-06 0.002385
-0.000126 -9e-06 0.002393
-0.000103 -1e-05 0.002401
-7.9e-05 -9e-06 0.002405
-0.001268 -9e-06 0.001996
-0.001426 0.000547 0.002656
-0.002024 0.000613 0.002036
-0.001173 -8e-06 0.002023
-0.00115 -8e-06 0.002029
-0.001125 -7e-06 0.002033
-0.001102 -7e-06 0.002042
-0.001078 -8e-06 0.00205
-0.001561 0.000637 0.00241
-0.001031 -8e-06 0.002063
-0.001007 -8e-06 0.00207
-0.000985 -9e-06 0.00208
-0.000937 -9e-06 0.002093
-0.002059 0.000654 0.002048
-0.001469 0.0006 0.002632
-0.000794 -7e-06 0.00213
-0.000771 -7e-06 0.002138
-0.000747 -8e-06 0.002146
-0.000723 -6e-06 0.002151
-0.0007 -7e-06 0.002159
-0.000676 -7e-06 0.002167
-0.000653 -8e-06 0.002175
-0.00063 -8e-06 0.002182
-0.000582 -8e-06 0.002195
-0.000558 -8e-06 0.002202
-0.000534 -8e-06 0.002208
-0.000441 -1e-05 0.00224
-0.000418 -9e-06 0.002247
-0.000394 -1e-05 0.002255
-0.000371 -1e-05 0.002263
-0.000346 -9e-06 0.002267
-0.000323 -9e-06 0.002274
-0.000299 -9e-06 0.002281
-0.000275 -9e-06 0.002287
-0.000252 -1e-05 0.002297
-0.001875 0.00067 0.001986
-0.000204 -8e-06 0.002307
-0.000181 -9e-06 0.002316
-0.000156 -8e-06 0.00232
-0.000133 -9e-06 0.002329
-0.00011 -8e-06 0.002335
-8.6e-05 -8e-06 0.002342
-6.2e-05 -8e-06 0.002348
-0.001252 -8e-06 0.001939
-0.001228 -9e-06 0.001948
-0.001204 -9e-06 0.001954
-0.001181 -1e-05 0.001962
-0.001157 -9e-06 0.001968
-0.001134 -9e-06 0.001976
-0.00111 -9e-06 0.001981
-0.001086 -9e-06 0.001989
-0.001062 -9e-06 0.001994
-0.001015 -9e-06 0.00201
-0.000992 -9e-06 0.002017
-0.000968 -1e-05 0.002023
-0.000944 -9e-06 0.002029
-0.000921 -9e-06 0.002038
-0.000897 -9e-06 0.002044
-0.000874 -1e-05 0.002052
-0.001482 0.000727 0.002022
-0.000827 -1e-05 0.002068
-0.000804 -1e-05 0.002075
-0.00078 -1e-05 0.002081
-0.000756 -1e-05 0.002088
-0.000733 -1.1e-05 0.002098
-0.00071 -1.1e-05 0.002105
-0.000685 -1e-05 0.00211
-0.000662 -1.1e-05 0.002117
-0.000638 -1e-05 0.002122
-0.000615 -1.1e-05 0.002131
-0.000591 -1.1e-05 0.002138
-0.000567 -1.1e-05 0.002145
-0.000544 -1e-05 0.002151
-0.00052 -1.1e-05 0.002159
-0.000496 -1.1e-05 0.002165
-0.000449 -1e-05 0.002178
-0.000425 -9e-06 0.002184
-0.000401 -9e-06 0.00219
-0.000378 -9e-06 0.002198
-0.000354 -9e-06 0.002205
-0.00033 -1e-05 0.002212
-0.000306 -8e-06 0.002217
-0.000282 -8e-06 0.002222
-0.000258 -7e-06 0.002228
-0.000188 -9e-06 0.00225
-0.000164 -8e-06 0.002257
-0.000141 -8e-06 0.002265
-0.000117 -9e-06 0.002274
-9.4e-05 -9e-06 0.00228
-7e-05 -9e-06 0.002287
-4.7e-05 -1e-05 0.002296
-0.001188 -8e-06 0.001897
-0.001164 -9e-06 0.001904
-0.001142 -1e-05 0.001914
-0.001118 -1e-05 0.001921
-0.001094 -1e-05 0.001929
-0.00206 0.000708 0.002046
-0.001529 0.000709 0.002176
-0.001544 0.000651 0.002246
-0.001512 0.000726 0.002561
-0.000978 -1.3e-05 0.001969
-0.001563 0.000726 0.002459
-0.000931 -1.4e-05 0.001986
-0.000908 -1.5e-05 0.001993
-0.000884 -1.5e-05 0.002
-0.000861 -1.5e-05 0.002008
-0.000837 -1.6e-05 0.002015
-0.000814 -1.6e-05 0.002024
-0.00079 -1.6e-05 0.00203
-0.000767 -1.6e-05 0.002038
-0.000744 -1.7e-05 0.002046
-0.00072 -1.7e-05 0.002053
-0.000697 -1.7e-05 0.00206
-0.000673 -1.7e-05 0.002068
-0.00065 -1.8e-05 0.002076
-0.000626 -1.7e-05 0.002082
-0.000602 -1.7e-05 0.002088
-0.000579 -1.7e-05 0.002095
-0.000555 -1.8e-05 0.002103
-0.000531 -1.7e-05 0.002109
-0.000507 -1.7e-05 0.002116
-0.000484 -1.7e-05 0.002123
-0.00046 -1.7e-05 0.00213
-0.000436 -1.7e-05 0.002136
-0.000413 -1.7e-05 0.002143
-0.000389 -1.6e-05 0.002148
-0.000365 -1.6e-05 0.002156
-0.000341 -1.5e-05 0.00216
-0.000317 -1.4e-05 0.002165
-0.000293 -1.4e-05 0.002172
-0.000269 -1.4e-05 0.002179
-0.00015 -1.2e-05 0.00221
-0.000126 -1.1e-05 0.002214
-0.000102 -1e-05 0.002219
-7.8e-05 -1e-05 0.002226
-5.4e-05 -1e-05 0.002233
-3e-05 -1e-05 0.002239
-0.001703 0.000747 0.001899
-0.001748 0.000726 0.001924
-0.001564 0.000599 0.002505
-0.001562 0.000718 0.002411
-0.001128 -1.6e-05 0.001869
-0.001106 -1.7e-05 0.001879
-0.001522 0.00069 0.002577
-0.002025 0.000721 0.002037
-0.001878 0.000694 0.001991
-0.001488 0.000656 0.002615
-0.00154 0.000692 0.002559
-0.001554 0.000698 0.002536
-0.001503 0.000688 0.002593
-0.001482 0.000688 0.002606
-0.000897 -2.3e-05 0.001954
-0.000873 -2.4e-05 0.001963
-0.00085 -2.4e-05 0.001971
-0.000827 -2.5e-05 0.001979
-0.000803 -2.5e-05 0.001986
-0.00078 -2.6e-05 0.001994
-0.000757 -2.6e-05 0.002002
-0.000733 -2.6e-05 0.00201
-0.00071 -2.7e-05 0.002018
-0.000686 -2.7e-05 0.002024
-0.000663 -2.7e-05 0.002032
-0.000639 -2.7e-05 0.002039
-0.000616 -2.7e-05 0.002046
-0.000592 -2.7e-05 0.002053
-0.000568 -2.8e-05 0.002061
-0.000545 -2.7e-05 0.002067
-0.000521 -2.7e-05 0.002074
-0.000497 -2.7e-05 0.002081
-0.000473 -2.7e-05 0.002087
-0.00045 -2.6e-05 0.002093
-0.000426 -2.6e-05 0.002099
-0.000401 -2.5e-05 0.002104
-0.000378 -2.5e-05 0.002111
-0.000354 -2.5e-05 0.002117
-0.00033 -2.4e-05 0.002122
-0.000306 -2.3e-05 0.002128
-0.000282 -2.3e-05 0.002134
-0.000257 -2.2e-05 0.002138
-0.001558 0.000603 0.00236
-0.001793 0.000705 0.001948
-0.002059 0.0006 0.002048
-0.002297 0.000518 0.001949
-0.001448 0.000546 0.002644
-0.001491 0.000545 0.00262
-0.001562 0.000609 0.002411
-0.002059 0.000627 0.002048
-0.001793 0.000732 0.001949
-0.001914 0.000681 0.002001
-0.001426 0.000574 0.002656
-0.001875 0.000642 0.001986
-0.001835 0.000659 0.001969
-0.001793 0.000678 0.001948
-0.001663 0.000736 0.001883
-0.001637 0.000741 0.001887
-0.001605 0.000751 0.001883
-0.001489 0.000734 0.001994
-0.002117 0.000735 0.001268
-0.002104 0.00076 0.001289
-0.002298 0.000537 0.001885
-0.002306 0.000468 0.001924
-0.002233 0.000599 0.002024
-0.002163 0.000726 0.001243
-0.002771 0.000604 0.00102
-0.001544 0.000624 0.002246
-0.001553 0.000598 0.002306
-0.001558 0.000576 0.002359
-0.001562 0.000555 0.002411
-0.001563 0.000535 0.002459
-0.001564 0.000517 0.002506
-0.001561 0.000501 0.002547
-0.001552 0.000491 0.002578
-0.001533 0.00049 0.002595
-0.001512 0.00049 0.002608
-0.001491 0.00049 0.002621
-0.001469 0.000491 0.002632
-0.001448 0.000492 0.002644
-0.001426 0.000493 0.002656
-0.002297 0.000491 0.001949
-0.002247 0.000626 0.001742
-0.002023 0.000558 0.002037
-0.001989 0.000571 0.002027
-0.001952 0.000585 0.002014
-0.001914 0.0006 0.002001
-0.001876 0.000615 0.001987
-0.001835 0.000632 0.001969
-0.001793 0.000651 0.001949
-0.001747 0.000672 0.001923
-0.0017 0.000696 0.001894
-0.001662 0.00071 0.00188
-0.001631 0.000719 0.001878
-0.001605 0.000724 0.001883
-0.002265 0.000598 0.001987
-0.002304 0.000605 0.001922
-0.002267 0.000657 0.001792
-0.002284 0.000637 0.00184
-0.002215 0.0006 0.002041
-0.002249 0.000599 0.002005
-0.002336 0.000741 0.001263
-0.002408 0.000723 0.000518
-0.001544 0.000597 0.002245
-0.001553 0.000571 0.002306
-0.001558 0.000548 0.00236
-0.001562 0.000527 0.002411
-0.001563 0.000508 0.002459
-0.001564 0.000489 0.002506
-0.001561 0.000474 0.002547
-0.001552 0.000464 0.002578
-0.001533 0.000462 0.002595
-0.001512 0.000463 0.002608
-0.001491 0.000463 0.00262
-0.001469 0.000464 0.002632
-0.001448 0.000465 0.002644
-0.001426 0.000466 0.002656
-0.00083 0.000748 0.002317
-0.000807 0.00075 0.002327
-0.000787 0.000749 0.002342
-0.002612 0.000487 0.001271
-0.0023 0.000753 0.001264
-0.002024 0.000531 0.002038
-0.001988 0.000544 0.002026
-0.001952 0.000558 0.002014
-0.001915 0.000572 0.002003
-0.001875 0.000588 0.001987
-0.001835 0.000605 0.001969
-0.001793 0.000624 0.001948
-0.001748 0.000644 0.001925
-0.0017 0.000668 0.001894
-0.001661 0.000683 0.00188
-0.001631 0.000692 0.001878
-0.001604 0.000697 0.001882
-0.001581 0.0007 0.001891
-0.002267 0.000685 0.001792
-0.002302 0.000633 0.001921
-0.002293 0.000629 0.001946
-0.002248 0.000626 0.002005
-0.002231 0.000627 0.002022
-0.002296 0.000545 0.001948
-0.002306 0.000495 0.001924
-0.001528 0.000601 0.002175
-0.001544 0.000569 0.002246
-0.001553 0.000544 0.002305
-0.001558 0.000521 0.00236
-0.001562 0.0005 0.002411
-0.001563 0.000481 0.002459
-0.001564 0.000463 0.002505
-0.001561 0.000447 0.002547
-0.001552 0.000437 0.002578
-0.001533 0.000435 0.002595
-0.001512 0.000436 0.002608
-0.001491 0.000436 0.00262
-0.001469 0.000437 0.002632
-0.001448 0.000437 0.002644
-0.001426 0.000438 0.002656
-0.000829 0.000722 0.002317
-0.000807 0.000723 0.002328
-0.000788 0.000722 0.002342
-0.002418 0.000629 0.001269
-0.002216 0.000572 0.002042
-0.002024 0.000504 0.002038
-0.001988 0.000517 0.002026
-0.001952 0.000531 0.002015
-0.001915 0.000545 0.002003
-0.001875 0.000561 0.001986
-0.001835 0.000578 0.001968
-0.001793 0.000596 0.001949
-0.001749 0.000617 0.001925
-0.001701 0.00064 0.001897
-0.001661 0.000656 0.00188
-0.001631 0.000665 0.001878
-0.001604 0.00067 0.001882
-0.001581 0.000672 0.001891
-0.001559 0.000673 0.001903
-0.00154 0.000672 0.001918
-0.002158 0.000697 0.002056
-0.002265 0.000626 0.001986
-0.002418 0.00071 0.00127
-0.002238 0.000672 0.001243
-0.0015 0.000696 0.002103
-0.001529 0.000574 0.002176
-0.001559 0.000494 0.002361
-0.001562 0.000473 0.002411
-0.001563 0.000454 0.002458
-0.001564 0.000435 0.002506
-0.001561 0.00042 0.002547
-0.001552 0.00041 0.002578
-0.001533 0.000408 0.002595
-0.001512 0.000408 0.002608
-0.001491 0.000409 0.00262
-0.001469 0.000409 0.002633
-0.001448 0.00041 0.002645
-0.001426 0.000411 0.002657
-0.00083 0.000694 0.002317
-0.000807 0.000696 0.002328
-0.002281 0.000463 0.001968
-0.002058 0.000464 0.002047
-0.002024 0.000477 0.002037
-0.001987 0.00049 0.002025
-0.001952 0.000503 0.002015
-0.001915 0.000517 0.002003
-0.001874 0.000535 0.001985
-0.001834 0.000551 0.001968
-0.001793 0.000569 0.001949
-0.001748 0.00059 0.001925
-0.001701 0.000613 0.001896
-0.001661 0.000629 0.00188
-0.00163 0.000638 0.001877
-0.001604 0.000643 0.001882
-0.001581 0.000645 0.001891
-0.001559 0.000646 0.001903
-0.00154 0.000644 0.001918
-0.002201 0.00069 0.002029
-0.002295 0.0006 0.001947
-0.002281 0.000544 0.001968
-0.002232 0.000463 0.002023
-0.001545 0.000514 0.002247
-0.001553 0.000489 0.002306
-0.001559 0.000466 0.002361
-0.001561 0.000446 0.00241
-0.001563 0.000427 0.002459
-0.001564 0.000408 0.002506
-0.001561 0.000392 0.002548
-0.001552 0.000383 0.002579
-0.001533 0.000381 0.002595
-0.001512 0.000381 0.002608
-0.001491 0.000382 0.00262
-0.001469 0.000382 0.002632
-0.001448 0.000383 0.002644
-0.001426 0.000384 0.002656
-0.002091 0.000426 0.002058
-0.002059 0.000437 0.002046
-0.002024 0.00045 0.002036
-0.001988 0.000462 0.002026
-0.001951 0.000476 0.002014
-0.001915 0.00049 0.002002
-0.001874 0.000507 0.001985
-0.001835 0.000524 0.001968
-0.001793 0.000542 0.001949
-0.001748 0.000563 0.001925
-0.001701 0.000586 0.001896
-0.001661 0.000602 0.00188
-0.001631 0.00061 0.001878
-0.001605 0.000615 0.001883
-0.001581 0.000618 0.001891
-0.001559 0.000619 0.001903
-0.001539 0.000617 0.001918
-0.002298 0.000663 0.001917
-0.002246 0.000653 0.001741
-0.002265 0.000544 0.001987
-0.002248 0.000463 0.002005
-0.001544 0.000488 0.002246
-0.001553 0.000462 0.002306
-0.001559 0.000439 0.00236
-0.001562 0.0004 0.002458
-0.001564 0.000381 0.002506
-0.001561 0.000365 0.002548
-0.001552 0.000356 0.002579
-0.001533 0.000354 0.002595
-0.001512 0.000354 0.002608
-0.001491 0.000354 0.00262
-0.001469 0.000355 0.002633
-0.001448 0.000356 0.002645
-0.001426 0.000356 0.002657
-0.002092 0.0004 0.002051
-0.002059 0.00041 0.002046
-0.002024 0.000422 0.002036
-0.001988 0.000435 0.002027
-0.001951 0.000449 0.002014
-0.001914 0.000463 0.002002
-0.001875 0.00048 0.001986
-0.001834 0.000497 0.001968
-0.001793 0.000515 0.001949
-0.001748 0.000536 0.001924
-0.0017 0.000559 0.001895
-0.001661 0.000575 0.001879
-0.00163 0.000584 0.001877
-0.001604 0.000588 0.001883
-0.001581 0.000591 0.001891
-0.001559 0.000591 0.001903
-0.001539 0.00059 0.001918
-0.002267 0.000712 0.001792
-0.002305 0.000577 0.001923
-0.002249 0.000544 0.002005
-0.002299 0.000509 0.001885
-0.001529 0.000491 0.002177
-0.001545 0.00046 0.002247
-0.001553 0.000435 0.002306
-0.001559 0.000412 0.00236
-0.001561 0.000392 0.00241
-0.001562 0.000373 0.002457
-0.001564 0.000354 0.002506
-0.001561 0.000338 0.002548
-0.001552 0.000328 0.002579
-0.001533 0.000326 0.002595
-0.001512 0.000327 0.002608
-0.00149 0.000328 0.00262
-0.001469 0.000328 0.002632
-0.001448 0.000329 0.002644
-0.001426 0.00033 0.002656
-0.001403 0.000332 0.002665
-0.002092 0.000372 0.002051
-0.002059 0.000383 0.002046
-0.002024 0.000395 0.002036
-0.001988 0.000408 0.002026
-0.001951 0.000422 0.002014
-0.001914 0.000436 0.002002
-0.001875 0.000452 0.001986
-0.001834 0.00047 0.001967
-0.001793 0.000487 0.001949
-0.001748 0.000508 0.001925
-0.0017 0.000532 0.001894
-0.001661 0.000548 0.00188
