0.002578 0.000238 0.000967
0.002552 0.000251 0.000939
0.00252 0.000268 0.00091
0.002487 0.000285 0.000882
0.002449 0.000304 0.000852
0.002405 0.000326 0.000822
0.002369 0.000344 0.000793
0.002352 0.000354 0.000766
0.002343 0.000359 0.00074
0.002339 0.000363 0.000715
0.00234 0.000364 0.00069
0.002345 0.000363 0.000666
0.002737 0.000656 0.001238
0.001447 0.000498 0.002632
0.002724 0.000544 0.001286
0.002757 0.000595 0.000501
0.002757 0.000493 0.001193
0.002756 0.00052 0.001193
0.002778 0.000172 0.000495
0.00283 0.000149 0.000476
0.002879 0.000128 0.000457
0.002921 0.000109 0.000438
0.002949 9.7e-05 0.000416
0.00296 9.4e-05 0.000393
0.002967 9.2e-05 0.000369
0.002972 9.1e-05 0.000344
0.002976 9.1e-05 0.00032
0.002977 9.1e-05 0.000296
0.002978 9.3e-05 0.000271
0.002976 9.5e-05 0.000246
0.002971 9.8e-05 0.00022
0.002949 0.00011 0.000193
0.002909 0.00013 0.000164
0.002431 0.000371 -0.000167
0.002435 0.00037 -0.000192
0.002442 0.000368 -0.000215
0.002454 0.000364 -0.000239
0.002473 0.000356 -0.000261
0.002506 0.000342 -0.000282
0.00255 0.000323 -0.000302
0.002593 0.000304 -0.000321
0.002578 0.000212 0.000964
0.002552 0.000225 0.000939
0.00252 0.000241 0.00091
0.002487 0.000257 0.000882
0.00245 0.000277 0.000852
0.002404 0.0003 0.000822
0.00237 0.000317 0.000793
0.002352 0.000327 0.000766
0.002343 0.000332 0.00074
0.002339 0.000335 0.000715
0.00234 0.000336 0.00069
0.002345 0.000335 0.000666
0.002674 0.000663 0.001345
0.002657 0.000672 0.001043
0.002684 0.000549 0.001349
0.002188 0.000409 0.002073
0.00272 0.000689 0.000507
0.002778 0.000145 0.000495
0.002831 0.000122 0.000476
0.002878 0.000101 0.000457
0.002919 8.3e-05 0.000437
0.002941 7.4e-05 0.000415
0.002949 7.2e-05 0.000391
0.002956 7e-05 0.000367
0.002961 6.9e-05 0.000343
0.002964 6.9e-05 0.000319
0.002967 6.9e-05 0.000294
0.002967 7e-05 0.000269
0.002966 7.2e-05 0.000244
0.002962 7.5e-05 0.000219
0.002946 8.5e-05 0.000192
0.002907 0.000104 0.000164
0.002431 0.000343 -0.000167
0.002435 0.000343 -0.000192
0.002442 0.000341 -0.000215
0.002454 0.000336 -0.000239
0.002473 0.000329 -0.000261
0.002505 0.000315 -0.000282
0.00255 0.000296 -0.000302
0.002594 0.000277 -0.000321
0.002575 0.000185 0.000967
0.002551 0.000198 0.000939
0.00252 0.000213 0.00091
0.002487 0.00023 0.000882
0.002449 0.00025 0.000852
0.002405 0.000272 0.000822
0.00237 0.00029 0.000793
0.002352 0.000299 0.000766
0.002343 0.000305 0.00074
0.002339 0.000308 0.000715
0.00234 0.000309 0.00069
0.002345 0.000308 0.000666
0.002692 0.000659 0.001326
0.002754 0.000731 0.000495
0.002713 0.000544 0.001308
0.002717 0.000495 0.001122
0.002638 0.000666 0.000526
0.002779 0.000118 0.000495
0.002831 9.4e-05 0.000476
0.002878 7.4e-05 0.000457
0.002913 5.9e-05 0.000437
0.002928 5.3e-05 0.000414
0.002936 5.1e-05 0.00039
0.002942 4.9e-05 0.000366
0.002947 4.8e-05 0.000341
0.002951 4.8e-05 0.000317
0.002953 4.8e-05 0.000293
0.002953 5e-05 0.000268
0.002953 5.1e-05 0.000243
0.00295 5.4e-05 0.000218
0.00294 6e-05 0.000192
0.002904 7.6e-05 0.000169
0.002431 0.000316 -0.000167
0.002435 0.000316 -0.000192
0.002442 0.000314 -0.000215
0.002455 0.000309 -0.000239
0.002473 0.000302 -0.000262
0.002505 0.000288 -0.000282
0.00255 0.000269 -0.000302
0.002594 0.000249 -0.000321
0.002576 0.000157 0.000967
0.002551 0.00017 0.000939
0.00252 0.000187 0.00091
0.002487 0.000203 0.000882
0.002449 0.000223 0.000852
0.002403 0.000246 0.000822
0.00237 0.000263 0.000793
0.002352 0.000272 0.000766
0.002343 0.000278 0.00074
0.002339 0.000281 0.000715
0.00234 0.000282 0.00069
0.002345 0.000281 0.000666
0.002705 0.000657 0.001305
0.002718 0.000744 0.000506
0.002742 0.00056 0.001159
0.002656 0.000618 0.001042
0.002779 9e-05 0.000495
0.002831 6.7e-05 0.000476
0.002875 4.8e-05 0.000457
0.002901 3.7e-05 0.000435
0.002913 3.3e-05 0.000412
0.002921 3.1e-05 0.000388
0.002926 3e-05 0.000364
0.00293 2.9e-05 0.000339
0.002934 2.9e-05 0.000315
0.002936 2.9e-05 0.00029
0.002937 3e-05 0.000266
0.002937 3.2e-05 0.000241
0.002935 3.4e-05 0.000216
0.002927 3.9e-05 0.00019
0.002431 0.000289 -0.000167
0.002435 0.000289 -0.000192
0.002442 0.000286 -0.000215
0.002455 0.000282 -0.000239
0.002473 0.000274 -0.000261
0.002504 0.000261 -0.000283
0.00255 0.000241 -0.000302
0.002594 0.000222 -0.000321
0.002575 0.000131 0.000967
0.002551 0.000143 0.000939
0.002519 0.000159 0.00091
0.002487 0.000176 0.000881
0.00245 0.000195 0.000852
0.002403 0.000218 0.000822
0.002369 0.000236 0.000793
0.002352 0.000245 0.000766
0.002343 0.000251 0.00074
0.002339 0.000254 0.000715
0.00234 0.000255 0.00069
0.002345 0.000254 0.000666
0.00268 0.000633 0.001348
0.002649 0.000589 0.001361
0.002688 0.000597 0.001083
0.00262 0.000559 0.001
0.00278 6.3e-05 0.000495
0.002829 4.1e-05 0.000476
0.002865 2.5e-05 0.000456
0.002883 1.8e-05 0.000433
0.002893 1.5e-05 0.000409
0.0029 1.3e-05 0.000385
0.002905 1.3e-05 0.000361
0.002909 1.2e-05 0.000337
0.002912 1.2e-05 0.000312
0.002914 1.2e-05 0.000288
0.002916 1.3e-05 0.000263
0.002916 1.4e-05 0.000238
0.002914 1.6e-05 0.000213
0.002909 2e-05 0.000188
0.002431 0.000262 -0.000167
0.002435 0.000262 -0.000192
0.002442 0.000259 -0.000215
0.002454 0.000255 -0.000239
0.002473 0.000247 -0.000262
0.002505 0.000234 -0.000282
0.00255 0.000214 -0.000302
0.002594 0.000195 -0.000321
0.002576 0.000103 0.000967
0.00255 0.000116 0.000939
0.002521 0.000132 0.00091
0.002487 0.000149 0.000882
0.002449 0.000168 0.000852
0.002404 0.000191 0.000822
0.002369 0.000208 0.000793
0.002352 0.000218 0.000766
0.002343 0.000224 0.00074
0.002339 0.000227 0.000715
0.00234 0.000228 0.00069
0.002345 0.000227 0.000666
0.002733 0.000626 0.001263
0.002744 0.000571 0.001241
0.002649 0.000562 0.001361
0.002445 0.000744 0.00055
0.00282 1.8e-05 0.000475
0.002844 8e-06 0.000453
0.002857 4e-06 0.00043
0.002864 1e-06 0.000406
0.002869 1e-06 0.000382
0.002873 0.0 0.000357
0.002876 0.0 0.000333
0.002879 0.0 0.000308
0.002882 0.0 0.000284
0.002884 1e-06 0.000259
0.002886 1e-06 0.000235
0.002886 2e-06 0.00021
0.002884 5e-06 0.000185
0.002874 1.2e-05 0.000159
0.002431 0.000235 -0.000167
0.002435 0.000234 -0.000192
0.002442 0.000232 -0.000216
0.002454 0.000228 -0.000239
0.002474 0.00022 -0.000262
0.002504 0.000207 -0.000283
0.00255 0.000187 -0.000302
0.002594 0.000168 -0.000321
0.002577 7.5e-05 0.000967
0.00255 9e-05 0.000939
0.002519 0.000105 0.00091
0.002486 0.000122 0.000881
0.002449 0.000141 0.000852
0.002405 0.000163 0.000822
0.002369 0.000181 0.000793
0.002351 0.000191 0.000766
0.002343 0.000197 0.00074
0.002339 0.0002 0.000715
0.002341 0.0002 0.00069
0.002345 0.000199 0.000666
0.002746 0.000661 0.001188
0.002621 0.000695 0.001001
0.002221 0.000526 0.002005
0.001979 0.000719 0.001476
0.002717 0.000468 0.001122
0.001981 0.00074 0.001504
0.002771 1.3e-05 0.000494
0.002798 1e-06 0.000472
0.002811 -4e-06 0.000449
0.002818 -6e-06 0.000425
0.002821 -5e-06 0.000401
0.002836 -6e-06 0.000278
0.002839 -5e-06 0.000254
0.002843 -6e-06 0.00023
0.002845 -6e-06 0.000205
0.002845 -4e-06 0.00018
0.002842 -1e-06 0.000155
0.002431 0.000207 -0.000167
0.002435 0.000207 -0.000192
0.002442 0.000205 -0.000215
0.002455 0.0002 -0.000239
0.002473 0.000193 -0.000262
0.002505 0.00018 -0.000283
0.00255 0.00016 -0.000302
0.002594 0.000141 -0.000322
0.002581 4.9e-05 0.000961
0.002551 6.2e-05 0.000938
0.002519 7.8e-05 0.00091
0.002487 9.5e-05 0.000881
0.002449 0.000114 0.000852
0.002404 0.000136 0.000822
0.002369 0.000154 0.000793
0.002351 0.000164 0.000766
0.002343 0.000169 0.00074
0.002339 0.000172 0.000715
0.002341 0.000173 0.00069
0.002345 0.000172 0.000666
0.002743 0.000658 0.001214
0.002689 0.000651 0.001083
0.002529 0.000551 0.001365
0.002619 0.000642 0.001
0.00217 0.000514 0.001835
0.002723 0.000571 0.001286
0.002744 -2e-06 0.000491
0.002752 -4e-06 0.000467
0.002755 -5e-06 0.000442
0.002761 -4e-06 0.000393
0.002764 -5e-06 0.000369
0.002777 -5e-06 0.000271
0.002779 -4e-06 0.000247
0.002783 -5e-06 0.000222
0.002785 -5e-06 0.000198
0.002788 -4e-06 0.000173
0.002791 -4e-06 0.000149
0.002792 -3e-06 0.000124
0.00278 4e-06 0.0001
0.002431 0.00018 -0.000167
0.002435 0.00018 -0.000192
0.002442 0.000178 -0.000216
0.002454 0.000173 -0.000239
0.002473 0.000166 -0.000262
0.002505 0.000152 -0.000283
0.002551 0.000132 -0.000302
0.002594 0.000113 -0.000322
0.001391 0.000676 0.002069
0.002551 3.5e-05 0.000937
0.002518 5.1e-05 0.00091
0.002488 6.7e-05 0.000881
0.00245 8.6e-05 0.000852
0.002404 0.000109 0.000822
0.00237 0.000127 0.000793
0.002351 0.000137 0.000766
0.002343 0.000142 0.00074
0.002339 0.000145 0.000715
0.00234 0.000146 0.00069
0.002345 0.000145 0.000666
0.002718 0.000656 0.001283
0.002712 0.000599 0.001308
0.000585 -1.7e-05 0.002094
0.002649 0.000508 0.001361
0.002734 0.000489 0.001263
0.002741 0.000533 0.001159
0.002718 0.000725 0.001203
0.002704 -9e-06 0.000461
0.002712 -8e-06 0.000387
0.002714 -8e-06 0.000363
0.002741 -9e-06 0.000168
0.002743 -9e-06 0.000143
0.002743 -8e-06 0.000118
0.002742 -4e-06 9.4e-05
0.002431 0.000153 -0.000168
0.002435 0.000153 -0.000192
0.002442 0.000151 -0.000215
0.002455 0.000146 -0.000239
0.002474 0.000138 -0.000262
0.002504 0.000125 -0.000283
0.00255 0.000105 -0.000302
0.002594 8.6e-05 -0.000322
0.002601 0.000636 0.00136
0.002548 8e-06 0.000937
0.002519 2.4e-05 0.00091
0.002488 4e-05 0.000882
0.002449 6e-05 0.000852
0.002369 0.0001 0.000793
0.002351 0.00011 0.000766
0.002342 0.000115 0.00074
0.002339 0.000118 0.000715
0.00234 0.000119 0.00069
0.002345 0.000118 0.000666
0.002728 0.000655 0.001261
0.002749 0.000628 0.001216
0.000562 -1.7e-05 0.002102
0.000632 0.00053 0.00256
0.002638 0.000639 0.000526
0.002111 -3.3e-05 -3.3e-05
0.002643 -6e-06 0.000429
0.002645 -6e-06 0.000404
0.002649 -6e-06 0.00038
0.002652 -6e-06 0.000355
0.002654 -6e-06 0.000331
0.002656 -5e-06 0.000306
0.002659 -5e-06 0.000282
0.002663 -6e-06 0.000257
0.002668 -7e-06 0.000233
0.00267 -6e-06 0.000209
0.002676 -7e-06 0.00016
0.002681 -7e-06 0.000136
0.002681 -6e-06 0.000111
0.002686 -7e-06 8.7e-05
0.002431 0.000126 -0.000168
0.002435 0.000126 -0.000192
0.002442 0.000124 -0.000215
0.002454 0.000119 -0.000239
0.002474 0.000111 -0.000262
0.002504 9.9e-05 -0.000283
0.00255 7.8e-05 -0.000302
0.002593 5.9e-05 -0.000322
0.002656 0.000536 0.001043
0.002708 0.000688 0.001279
0.002511 0.0 0.000909
0.002489 1.2e-05 0.000882
0.002451 3.1e-05 0.000852
0.002404 5.5e-05 0.000822
0.002368 7.3e-05 0.000793
0.002352 8.2e-05 0.000766
0.002343 8.8e-05 0.00074
0.002339 9.1e-05 0.000715
0.00234 9.2e-05 0.00069
0.002345 9.1e-05 0.000666
0.002219 0.00041 0.002035
0.002647 0.000645 0.00136
0.002755 0.000704 0.000495
0.002685 0.000467 0.00135
0.002681 0.000622 0.000517
0.002595 0.000656 0.000534
0.00211 -3.4e-05 -8e-06
0.002108 -3.4e-05 1.7e-05
0.002106 -3.5e-05 4.1e-05
0.002588 -8e-06 0.000422
0.002592 -8e-06 0.000398
0.002595 -8e-06 0.000373
0.002599 -8e-06 0.000349
0.002602 -9e-06 0.000325
0.002607 -1e-05 0.0003
0.002608 -9e-06 0.000276
0.002611 -9e-06 0.000251
0.002614 -8e-06 0.000227
0.002617 -9e-06 0.000202
0.002622 -8e-06 0.000153
0.002635 -8e-06 5.6e-05
0.002431 9.7e-05 -0.000143
0.002431 9.9e-05 -0.000168
0.002435 9.9e-05 -0.000192
0.002442 9.7e-05 -0.000215
0.002454 9.2e-05 -0.000239
0.002473 8.5e-05 -0.000262
0.002503 7.2e-05 -0.000283
0.002549 5.1e-05 -0.000302
0.002594 3.2e-05 -0.000322
0.002598 0.000474 0.001364
0.001986 0.0007 0.001429
0.002547 0.000676 0.00054
0.002471 -7e-06 0.000879
0.002454 3e-06 0.000852
0.002403 2.8e-05 0.000822
0.002367 4.6e-05 0.000792
0.002351 5.5e-05 0.000766
0.002342 6.1e-05 0.00074
0.002339 6.4e-05 0.000715
0.002697 0.000629 0.001328
0.00271 0.000627 0.001307
0.002722 0.000626 0.001285
0.002656 0.000699 0.001043
0.002649 0.00048 0.001361
0.002103 -3.5e-05 6.6e-05
0.002101 -3.6e-05 9e-05
0.0021 -3.6e-05 0.000115
0.002097 -3.6e-05 0.000139
0.002095 -3.7e-05 0.000164
0.002565 -1e-05 0.000171
0.002569 -1e-05 0.000147
0.002584 -1.2e-05 4.9e-05
0.002585 -1.1e-05 2.5e-05
0.002577 -6e-06 -1e-06
0.002432 6.8e-05 -0.000118
0.00243 7e-05 -0.000143
0.002431 7.2e-05 -0.000168
0.002435 7.1e-05 -0.000192
0.002442 6.9e-05 -0.000215
0.002454 6.5e-05 -0.000239
0.002473 5.7e-05 -0.000262
0.002501 4.5e-05 -0.000283
0.002092 -3.7e-05 0.000188
0.002088 0.000695 0.001321
0.002125 0.00056 0.001734
0.002421 -1e-05 0.000873
0.002423 -1e-05 0.000849
0.00237 1.8e-05 0.000793
0.00235 2.8e-05 0.000766
0.002342 3.4e-05 0.00074
0.002751 0.000599 0.001217
0.002754 0.000603 0.001192
0.002717 0.000632 0.001122
0.002682 0.000605 0.001348
0.002619 0.000723 0.001
0.00217 0.000677 0.001835
0.00209 -3.7e-05 0.000213
0.002594 0.000711 0.000534
0.002362 0.00074 0.000622
0.002375 0.000738 0.000601
0.002713 0.00049 0.001308
0.002687 0.000543 0.001083
0.002477 -7e-06 0.000359
0.00248 -7e-06 0.000335
0.002482 -6e-06 0.00031
0.002087 -3.7e-05 0.000237
0.002502 -6e-06 0.000139
0.002507 -7e-06 0.000115
0.00251 -7e-06 9e-05
0.002511 -6e-06 6.5e-05
0.002522 -8e-06 1.7e-05
0.002525 -9e-06 -7e-06
0.002432 4.1e-05 -0.000118
0.00243 4.4e-05 -0.000143
0.00243 4.5e-05 -0.000168
0.002435 4.4e-05 -0.000192
0.002443 4.2e-05 -0.000215
0.002455 3.8e-05 -0.000239
0.002473 3e-05 -0.000262
0.0025 1.9e-05 -0.000283
0.002084 -3.7e-05 0.000262
0.001425 0.000736 0.001988
0.002182 0.000657 0.002068
0.002744 0.000435 0.001241
0.002754 0.000435 0.001218
0.002364 -8e-06 0.000817
0.002365 -7e-06 0.000792
0.002351 1e-06 0.000766
0.00269 0.000724 0.001271
0.001447 0.000759 0.001974
0.002681 0.000649 0.000518
0.002595 0.000683 0.000534
0.002657 0.000563 0.001043
0.002619 0.000587 0.001
0.002414 0.000755 0.000564
0.002186 0.000657 0.001881
0.002638 0.000694 0.000526
0.002548 0.000729 0.000541
0.002341 0.000735 0.000693
0.002081 -3.7e-05 0.000286
0.002724 0.00049 0.001286
0.002702 0.000491 0.00133
0.002078 -3.7e-05 0.000311
0.002426 -1e-05 0.000353
0.002428 -1e-05 0.000328
0.002432 -1e-05 0.000304
0.002436 -1.1e-05 0.00028
0.002438 -1e-05 0.000255
0.002452 -1e-05 0.000133
0.002452 -9e-06 0.000108
0.002456 -9e-06 8.4e-05
0.002459 -9e-06 5.9e-05
0.002462 -9e-06 3.5e-05
0.002464 -9e-06 1e-05
0.002438 9e-06 -9.2e-05
0.002432 1.4e-05 -0.000118
0.00243 1.6e-05 -0.000143
0.002431 1.8e-05 -0.000168
0.002434 1.7e-05 -0.000192
0.002442 1.5e-05 -0.000215
0.002455 1e-05 -0.000238
0.002499 -8e-06 -0.000283
0.002074 -3.7e-05 0.000335
0.002071 -3.7e-05 0.00036
0.002063 0.000701 0.001333
0.002598 0.000501 0.001364
0.002025 0.00076 0.001365
0.002304 -1e-05 0.000859
0.002307 -1e-05 0.000835
0.002312 -1.1e-05 0.000811
0.002316 -1.1e-05 0.000786
0.002318 -1e-05 0.000762
0.001994 0.000729 0.001536
0.00272 0.000635 0.000509
0.00234 0.000763 0.000693
0.002346 0.000755 0.000723
0.002068 -3.7e-05 0.000384
0.002064 -3.6e-05 0.000408
0.00206 -3.6e-05 0.000433
0.002528 0.000688 0.001364
0.002365 -8e-06 0.000321
0.002369 -8e-06 0.000296
0.002373 -8e-06 0.000272
0.002374 -8e-06 0.000247
0.00238 -6e-06 0.000174
0.002384 -7e-06 0.000149
0.002389 -8e-06 0.000125
0.002391 -7e-06 0.000101
0.002397 -8e-06 7.6e-05
0.002401 -9e-06 5.2e-05
0.002405 -9e-06 2.8e-05
0.002409 -1e-05 3e-06
0.002411 -1e-05 -2.1e-05
0.002417 -1.1e-05 -4.5e-05
0.002418 -9e-06 -7e-05
0.002421 -1e-05 -9.4e-05
0.002422 -9e-06 -0.000119
0.002425 -9e-06 -0.000143
0.002429 -1e-05 -0.000168
0.002431 -9e-06 -0.000192
0.002436 -1e-05 -0.000217
0.002442 -1.1e-05 -0.000241
0.002056 -3.5e-05 0.000457
0.002052 -3.5e-05 0.000481
0.002241 -9e-06 0.000876
0.002244 -9e-06 0.000852
0.002245 -8e-06 0.000827
0.002248 -8e-06 0.000803
0.002252 -8e-06 0.000778
0.002253 -7e-06 0.000754
0.002048 -3.4e-05 0.000506
0.002044 -3.4e-05 0.00053
0.002648 0.000617 0.001361
0.002638 0.000721 0.000526
0.002596 0.000737 0.000538
0.001995 0.000701 0.001537
0.002741 0.000478 0.001159
0.002413 0.000728 0.000564
0.002294 -7e-06 0.000411
0.002298 -8e-06 0.000387
0.002547 0.000703 0.00054
0.002304 -9e-06 0.000338
0.002308 -8e-06 0.000314
0.00231 -8e-06 0.000289
0.002325 -7e-06 0.000167
0.002328 -8e-06 0.000143
0.002332 -8e-06 0.000118
0.002335 -8e-06 9.4e-05
0.002339 -9e-06 6.9e-05
0.002342 -8e-06 4.5e-05
0.002345 -8e-06 2.1e-05
0.002348 -8e-06 -4e-06
0.002349 -8e-06 -2.9e-05
0.002352 -8e-06 -5.3e-05
0.002355 -8e-06 -7.7e-05
0.002358 -7e-06 -0.000102
0.002361 -7e-06 -0.000126
0.002368 -7e-06 -0.0002
0.002373 -8e-06 -0.000224
0.002375 -8e-06 -0.000249
0.002391 -1e-05 -0.000321
0.002391 -9e-06 -0.000346
0.002444 0.000718 0.00055
0.00272 0.000608 0.000507
0.002181 -8e-06 0.000869
0.002185 -8e-06 0.000845
0.002187 -8e-06 0.00082
0.002189 -7e-06 0.000796
0.002192 -8e-06 0.000771
0.002199 -9e-06 0.000747
0.002201 -9e-06 0.000723
0.002375 0.000765 0.000601
0.002598 0.000528 0.001364
0.002196 0.000658 0.002048
0.002656 0.00059 0.001043
0.002723 0.000517 0.001286
0.002226 -1.1e-05 0.000552
0.002228 -1e-05 0.000528
0.002649 0.000453 0.001361
0.002696 0.000689 0.001301
0.002239 -8e-06 0.000405
0.002241 -8e-06 0.00038
0.002248 -1e-05 0.000356
0.002249 -9e-06 0.000332
0.002251 -1e-05 0.000307
0.002755 0.000676 0.000495
0.002282 -9e-06 8.7e-05
0.002283 -9e-06 6.3e-05
0.002287 -1e-05 3.8e-05
0.00229 -1e-05 1.4e-05
0.002293 -1e-05 -1.1e-05
0.002294 -9e-06 -3.5e-05
0.002312 -7e-06 -0.000207
0.002315 -7e-06 -0.000231
0.00232 -8e-06 -0.000255
0.002324 -9e-06 -0.00028
0.002326 -8e-06 -0.000304
0.002327 -7e-06 -0.000329
0.00233 -8e-06 -0.000353
0.002492 0.000698 0.000544
0.002123 -9e-06 0.000887
0.002128 -1e-05 0.000863
0.002133 -1.1e-05 0.000839
0.002133 -1e-05 0.000814
0.002138 -9e-06 0.000765
0.002141 -9e-06 0.00074
0.002142 -8e-06 0.000716
0.002146 -9e-06 0.000691
0.00215 -9e-06 0.000667
0.002155 -1e-05 0.000643
0.002158 -1e-05 0.000618
0.00216 -1e-05 0.000594
0.002162 -9e-06 0.000569
0.002166 -1e-05 0.000545
0.00217 -1e-05 0.00052
0.002171 -9e-06 0.000496
0.00268 0.000692 0.001321
0.000581 0.00062 0.002803
0.002182 -1e-05 0.000423
0.002183 -9e-06 0.000398
0.002187 -9e-06 0.000374
0.00219 -1e-05 0.000349
0.002193 -1e-05 0.000325
0.001981 0.000723 0.00145
0.002211 -1e-05 0.000178
0.002222 -1e-05 8e-05
0.002225 -9e-06 5.6e-05
0.002228 -9e-06 3.1e-05
0.00227 -1e-05 -0.000286
0.00227 -9e-06 -0.000311
0.002273 -9e-06 -0.000336
0.002275 -9e-06 -0.00036
0.002065 -9e-06 0.00088
0.002068 -9e-06 0.000856
0.00207 -9e-06 0.000831
0.002075 -9e-06 0.000807
0.002079 -1e-05 0.000782
0.002702 0.000464 0.00133
0.002086 -1e-05 0.000734
0.00209 -1.1e-05 0.000709
0.002094 -1.2e-05 0.000685
0.002098 -1.2e-05 0.000661
0.002101 -1.2e-05 0.000636
0.002105 -1.3e-05 0.000612
0.00211 -1.3e-05 0.000588
0.002114 -1.4e-05 0.000563
0.002116 -1.4e-05 0.000539
0.002121 -1.4e-05 0.000515
0.002125 -1.5e-05 0.00049
0.002129 -1.5e-05 0.000466
0.002132 -1.5e-05 0.000441
0.002135 -1.5e-05 0.000417
0.002138 -1.5e-05 0.000393
0.002142 -1.6e-05 0.000368
0.002145 -1.6e-05 0.000344
0.002147 -1.6e-05 0.000319
0.002151 -1.6e-05 0.000295
0.002154 -1.6e-05 0.00027
0.002157 -1.6e-05 0.000246
0.00216 -1.6e-05 0.000222
0.002164 -1.6e-05 0.000197
0.002166 -1.6e-05 0.000173
0.002169 -1.6e-05 0.000148
0.002171 -1.6e-05 0.000124
0.002174 -1.6e-05 9.9e-05
0.002175 -1.5e-05 7.4e-05
0.002178 -1.5e-05 5e-05
0.002207 -1e-05 -0.000269
0.002209 -9e-06 -0.000294
0.002213 -1e-05 -0.000318
0.002342 0.00073 0.000721
0.002209 0.00066 0.002027
0.002619 0.000614 0.001
0.002019 -1.3e-05 0.00085
0.002024 -1.4e-05 0.000825
0.002029 -1.5e-05 0.000801
0.002032 -1.5e-05 0.000777
0.002037 -1.6e-05 0.000752
0.002042 -1.7e-05 0.000728
0.002048 -1.8e-05 0.000704
0.002718 0.000688 0.001257
0.002733 0.00069 0.001209
0.002736 0.000694 0.001184
0.002741 0.000642 0.001159
0.002724 0.000598 0.001286
0.002222 0.000417 0.002005
0.002078 -2.3e-05 0.000534
0.002082 -2.3e-05 0.00051
0.002086 -2.4e-05 0.000486
0.00209 -2.4e-05 0.000461
0.002094 -2.5e-05 0.000437
0.002098 -2.5e-05 0.000412
0.002101 -2.5e-05 0.000388
0.002105 -2.6e-05 0.000364
0.002109 -2.6e-05 0.000339
0.002112 -2.6e-05 0.000315
0.002115 -2.6e-05 0.00029
0.002118 -2.6e-05 0.000266
0.00212 -2.6e-05 0.000242
0.002123 -2.6e-05 0.000217
0.002126 -2.6e-05 0.000193
0.002129 -2.6e-05 0.000168
0.002131 -2.5e-05 0.000144
0.002134 -2.5e-05 0.000119
0.002136 -2.5e-05 9.4e-05
0.002138 -2.4e-05 7e-05
0.00214 -2.4e-05 4.5e-05
0.002142 -2.3e-05 2.1e-05
0.002143 -2.3e-05 -4e-06
0.002145 -2.2e-05 -2.8e-05
0.002159 -1.5e-05 -0.000275
0.001999 0.000753 0.001539
0.002496 0.000751 0.000545
0.002443 0.000772 0.00055
0.002204 0.000517 0.002055
0.00272 0.000662 0.000509
0.002171 0.000519 0.002091
0.002713 0.000463 0.001308
0.001981 0.000713 0.001504
0.002734 0.000517 0.001263
0.002744 0.000516 0.001241
0.00262 0.000532 0.001
0.002362 0.000713 0.000622
0.002375 0.000711 0.000601
0.002391 0.000708 0.000581
0.002413 0.000702 0.000563
0.002442 0.000692 0.000549
0.002547 0.000648 0.00054
0.002594 0.000629 0.000534
0.002638 0.000612 0.000526
0.002682 0.000595 0.000518
0.002719 0.000581 0.000507
0.002757 0.000567 0.000502
0.002019 0.000657 0.001574
0.001995 0.000674 0.001537
0.001982 0.000685 0.001505
0.001978 0.000692 0.001476
0.001981 0.000696 0.00145
0.002169 0.000628 0.00209
0.002186 0.000628 0.002071
0.002201 0.000628 0.002052
0.002213 0.00063 0.00203
0.002186 0.00063 0.00188
0.0022 0.000449 0.001924
0.002186 0.000494 0.00188
0.002136 0.000521 0.002126
0.002169 0.000622 0.001835
0.002598 0.000447 0.001364
0.00265 0.000426 0.001361
0.002686 0.000413 0.00135
0.002702 0.000409 0.00133
0.002713 0.000409 0.001308
0.002724 0.000408 0.001286
0.002734 0.000408 0.001263
0.002745 0.000407 0.001241
0.002754 0.000408 0.001218
0.002757 0.000411 0.001193
0.002742 0.000424 0.001159
0.002717 0.000441 0.001122
0.002687 0.000461 0.001082
0.002655 0.000482 0.001042
0.002621 0.000505 0.001001
0.002362 0.000686 0.000622
0.002375 0.000684 0.000601
0.002391 0.000681 0.000581
0.002412 0.000674 0.000563
0.002443 0.000664 0.000549
0.002493 0.000644 0.000544
0.002546 0.000621 0.00054
0.002594 0.000602 0.000534
0.002639 0.000584 0.000526
0.002681 0.000568 0.000517
0.00272 0.000553 0.000507
0.002757 0.00054 0.000499
0.002018 0.00063 0.001573
0.001994 0.000647 0.001536
0.001981 0.000659 0.001504
0.001978 0.000665 0.001476
0.001981 0.000669 0.00145
0.001987 0.000671 0.001426
0.001425 0.000726 0.001987
0.001459 0.000702 0.002519
0.002088 0.000612 0.002147
0.001447 0.000644 0.002325
0.002168 0.000748 0.001323
0.002136 0.000494 0.002126
0.002148 0.000645 0.001785
0.002212 0.000622 0.001966
0.002599 0.00042 0.001365
0.00265 0.000399 0.001361
0.002686 0.000386 0.00135
0.002702 0.000382 0.00133
0.002713 0.000381 0.001308
0.002724 0.000381 0.001286
0.002734 0.000381 0.001263
0.002744 0.00038 0.001241
0.002754 0.000381 0.001218
0.002757 0.000384 0.001193
0.002742 0.000397 0.001159
0.002717 0.000414 0.001122
0.002688 0.000434 0.001083
0.002656 0.000455 0.001042
0.00262 0.000478 0.001
0.002352 0.000659 0.000644
0.002361 0.000659 0.000622
0.002374 0.000657 0.000601
0.002391 0.000653 0.000581
0.002412 0.000647 0.000563
0.002444 0.000636 0.00055
0.002493 0.000616 0.000544
0.002547 0.000594 0.00054
0.002594 0.000575 0.000534
0.002639 0.000557 0.000526
0.002681 0.000541 0.000517
0.00272 0.000526 0.000507
0.002756 0.000513 0.000496
0.002016 0.000604 0.001572
0.001993 0.00062 0.001536
0.001981 0.000632 0.001504
0.001978 0.000638 0.001476
0.00198 0.000642 0.00145
0.001987 0.000644 0.001426
0.001997 0.000643 0.001404
0.001459 0.000719 0.002475
0.001438 0.000668 0.002269
0.002171 0.000546 0.002091
0.002491 0.000592 0.001365
0.002167 0.000721 0.001322
0.00209 0.00053 0.002148
0.002201 0.000639 0.001924
0.0026 0.000392 0.001366
0.00265 0.000372 0.001361
0.002686 0.000358 0.00135
0.002702 0.000355 0.00133
0.002714 0.000354 0.001308
0.002724 0.000354 0.001286
0.002734 0.000353 0.001263
0.002745 0.000353 0.001241
0.002754 0.000353 0.001218
0.002757 0.000357 0.001193
0.002741 0.00037 0.001159
0.002716 0.000387 0.001122
0.002689 0.000406 0.001083
0.002656 0.000427 0.001042
0.00262 0.000451 0.001
0.002352 0.000631 0.000644
0.002361 0.000632 0.000621
0.002374 0.00063 0.0006
0.002391 0.000626 0.000581
0.002413 0.00062 0.000563
0.002443 0.000609 0.000549
0.002494 0.000589 0.000544
0.002546 0.000567 0.00054
0.002594 0.000548 0.000534
0.002638 0.00053 0.000526
0.002681 0.000514 0.000517
0.00272 0.000499 0.000507
0.002756 0.000486 0.000496
0.002015 0.000577 0.001572
0.001994 0.000593 0.001536
0.001979 0.000605 0.001503
0.001977 0.000611 0.001475
0.00198 0.000615 0.00145
0.001986 0.000616 0.001426
0.001997 0.000616 0.001403
0.002201 0.000666 0.001925
0.002115 0.000578 0.00214
0.002221 0.000554 0.002005
0.002275 0.000702 0.001348
0.002121 0.000766 0.001316
0.002106 0.000744 0.001687
0.0026 0.000365 0.001366
0.002649 0.000345 0.001361
0.002686 0.000331 0.00135
0.002702 0.000328 0.00133
0.002714 0.000327 0.001308
0.002724 0.000326 0.001286
0.002734 0.000326 0.001263
0.002744 0.000326 0.001241
0.002754 0.000326 0.001218
0.002757 0.00033 0.001193
0.002741 0.000343 0.001159
0.002716 0.00036 0.001122
0.002688 0.000379 0.001083
0.002657 0.0004 0.001043
0.00262 0.000424 0.001
0.002351 0.000604 0.000644
0.002361 0.000605 0.000621
0.002374 0.000603 0.0006
0.002391 0.000599 0.000581
0.002412 0.000593 0.000563
0.002444 0.000582 0.00055
0.002493 0.000562 0.000544
0.002546 0.00054 0.00054
0.00264 0.000502 0.000526
0.002682 0.000486 0.000517
0.002719 0.000472 0.000507
0.002014 0.000551 0.001571
0.001993 0.000566 0.001536
0.00198 0.000578 0.001503
0.001978 0.000584 0.001475
0.00198 0.000588 0.00145
0.001987 0.000589 0.001426
0.002171 0.000731 0.001836
0.002032 0.000456 0.002135
0.002412 0.000702 0.001364
0.002186 0.000603 0.00188
0.00212 0.000686 0.001315
0.002218 0.000519 0.002034
0.001109 0.00072 0.002592
0.002597 0.000339 0.001365
0.00265 0.000317 0.001361
0.002686 0.000304 0.00135
0.002702 0.0003 0.00133
0.002714 0.0003 0.001308
0.002724 0.000299 0.001286
0.002735 0.000299 0.001263
0.002745 0.000299 0.001241
0.002754 0.000299 0.001218
0.002757 0.000302 0.001193
0.002741 0.000315 0.001159
0.002715 0.000333 0.001121
0.002688 0.000352 0.001083
0.002657 0.000373 0.001043
0.00262 0.000397 0.001
0.002351 0.000577 0.000644
0.002361 0.000577 0.000621
0.002374 0.000576 0.0006
0.002391 0.000572 0.000581
0.002412 0.000566 0.000563
0.002445 0.000554 0.00055
0.002494 0.000534 0.000544
0.002546 0.000513 0.00054
0.002595 0.000493 0.000534
0.002639 0.000476 0.000526
0.002682 0.000459 0.000517
0.00272 0.000445 0.000507
0.002188 0.000464 0.002073
0.001983 0.00055 0.001502
0.001979 0.000557 0.001475
0.001981 0.00056 0.00145
0.001986 0.000562 0.001426
0.001997 0.000562 0.001403
0.002221 0.000608 0.002004
0.002089 0.000558 0.002148
0.002369 0.000691 0.001361
0.002186 0.000522 0.00188
0.002212 0.000487 0.001965
0.002135 0.000603 0.002125
0.002597 0.000312 0.001365
0.00265 0.00029 0.001361
0.002685 0.000277 0.00135
0.002702 0.000273 0.00133
0.002714 0.000272 0.001308
0.002724 0.000272 0.001286
0.002735 0.000272 0.001264
0.002745 0.000271 0.001241
0.002754 0.000272 0.001218
0.002757 0.000275 0.001192
0.002742 0.000288 0.001159
0.002716 0.000306 0.001121
0.002688 0.000325 0.001083
0.002657 0.000346 0.001043
0.002619 0.00037 0.000999
0.002351 0.00055 0.000644
0.002361 0.00055 0.000621
0.002373 0.000549 0.0006
0.00239 0.000545 0.00058
0.002413 0.000538 0.000563
0.002445 0.000527 0.00055
0.002496 0.000506 0.000545
0.002547 0.000485 0.00054
0.002596 0.000465 0.000534
0.002639 0.000448 0.000526
0.002682 0.000431 0.000518
0.00272 0.000417 0.000509
0.001999 0.000511 0.001534
0.001982 0.000523 0.001503
0.001978 0.00053 0.001475
0.00198 0.000533 0.00145
0.001987 0.000535 0.001426
0.001997 0.000534 0.001403
0.002601 0.00069 0.00136
0.000673 0.000611 0.002365
0.002324 0.000709 0.001356
0.002043 0.000731 0.001348
0.0022 0.000504 0.001923
0.002369 0.000746 0.001361
0.002596 0.000285 0.001364
0.002649 0.000263 0.001361
0.002685 0.00025 0.00135
0.002702 0.000246 0.00133
0.002714 0.000245 0.001308
0.002724 0.000245 0.001286
0.002735 0.000244 0.001263
0.002745 0.000244 0.001241
0.002753 0.000245 0.001218
0.002756 0.000248 0.001192
0.002741 0.000261 0.001159
0.002716 0.000279 0.001121
0.002688 0.000298 0.001083
0.002656 0.000319 0.001042
0.002619 0.000342 0.001
0.002351 0.000523 0.000644
0.002361 0.000523 0.000621
0.002374 0.000521 0.0006
0.002391 0.000518 0.00058
0.002413 0.000511 0.000563
0.002446 0.0005 0.00055
0.002494 0.00048 0.000544
0.002547 0.000458 0.00054
0.002596 0.000438 0.000534
0.00264 0.000421 0.000527
0.002683 0.000404 0.000519
0.00272 0.00039 0.00051
0.001996 0.000484 0.001535
0.001981 0.000496 0.001504
0.001978 0.000503 0.001475
0.00198 0.000506 0.00145
0.001986 0.000508 0.001426
0.001997 0.000507 0.001403
0.002528 0.000715 0.001364
0.002452 0.000688 0.001365
0.002411 0.000675 0.001364
0.002025 0.000733 0.001365
0.002452 0.000552 0.001365
0.002412 0.000566 0.001364
0.00217 0.000601 0.002091
0.002597 0.000258 0.001365
0.00265 0.000236 0.001361
0.002685 0.000223 0.001349
0.002702 0.000219 0.00133
0.002714 0.000218 0.001308
0.002724 0.000218 0.001286
0.002734 0.000218 0.001263
0.002744 0.000217 0.001241
0.002753 0.000218 0.001218
0.002756 0.000221 0.001192
0.002741 0.000234 0.001159
0.002716 0.000252 0.001121
0.002687 0.000271 0.001082
0.002656 0.000292 0.001042
0.002619 0.000315 0.001
0.00257 0.000342 0.000959
0.002351 0.000496 0.000644
0.002361 0.000496 0.000621
0.002374 0.000494 0.0006
0.00239 0.00049 0.00058
0.002413 0.000484 0.000563
0.002445 0.000473 0.00055
0.002495 0.000452 0.000545
0.002547 0.000431 0.00054
0.002596 0.000411 0.000534
0.00264 0.000393 0.000526
0.002682 0.000377 0.000518
0.002721 0.000363 0.000509
0.001993 0.000457 0.001536
0.00198 0.000469 0.001503
0.001977 0.000475 0.001475
0.00198 0.000479 0.00145
0.001986 0.000481 0.001426
0.001997 0.00048 0.001403
0.002564 0.000703 0.001362
0.002636 0.000624 0.001359
0.00212 0.000624 0.002133
0.002564 0.000594 0.001362
0.002636 0.000597 0.001357
0.002203 0.0006 0.002053
0.002599 0.00023 0.001365
0.00265 0.000208 0.001361
0.002684 0.000196 0.001349
0.002701 0.000193 0.001329
0.002713 0.000191 0.001308
0.002724 0.000191 0.001286
0.002734 0.00019 0.001263
0.002744 0.00019 0.00124
0.002752 0.000191 0.001217
0.002755 0.000195 0.001192
0.00274 0.000207 0.001159
0.002716 0.000224 0.001121
0.002655 0.000265 0.001042
0.002617 0.000289 0.000999
0.002571 0.000315 0.00096
0.002351 0.000468 0.000644
0.002361 0.000469 0.000621
0.002374 0.000467 0.0006
0.002391 0.000463 0.000581
0.002413 0.000457 0.000563
0.002446 0.000445 0.00055
0.002494 0.000425 0.000544
0.002547 0.000403 0.00054
0.002597 0.000383 0.000535
0.00264 0.000366 0.000526
0.002682 0.00035 0.000518
0.002721 0.000335 0.000507
0.001993 0.00043 0.001536
0.001981 0.000441 0.001504
0.001977 0.000448 0.001475
0.001979 0.000452 0.001449
0.001986 0.000453 0.001426
0.001997 0.000453 0.001403
0.001211 0.00059 0.002667
0.000581 0.000648 0.002802
0.002564 0.000621 0.001362
0.001464 0.000704 0.001956
0.000569 0.000712 0.002844
0.002564 0.000675 0.001362
0.002599 0.000202 0.001365
0.002649 0.000182 0.001361
0.002683 0.00017 0.001348
0.002699 0.000166 0.001328
0.002712 0.000165 0.001307
0.002723 0.000164 0.001285
0.002734 0.000164 0.001263
0.002742 0.000164 0.00124
0.00275 0.000165 0.001216
0.002753 0.000168 0.001191
0.002741 0.00018 0.001159
0.002716 0.000197 0.001121
0.002688 0.000216 0.001082
0.002655 0.000238 0.001042
0.002618 0.000262 0.000999
0.002352 0.000441 0.000644
0.002361 0.000441 0.000621
0.002374 0.00044 0.0006
0.002391 0.000436 0.00058
0.002413 0.00043 0.000563
0.002445 0.000418 0.00055
0.002495 0.000398 0.000545
0.002548 0.000376 0.000541
0.002597 0.000356 0.000534
0.002641 0.000339 0.000527
0.002682 0.000323 0.000518
0.002719 0.000309 0.000507
0.002019 0.000387 0.00157
0.001996 0.000403 0.001535
0.001981 0.000414 0.001504
0.001977 0.000421 0.001475
0.001979 0.000425 0.001449
0.001986 0.000427 0.001425
0.001997 0.000426 0.001403
0.002128 0.000748 0.001737
0.002528 0.00066 0.001365
0.002117 0.000523 0.002141
0.002169 0.000568 0.001834
0.002117 0.000496 0.002141
0.002212 0.000569 0.001965
0.0026 0.000175 0.001365
0.002649 0.000155 0.001361
0.00268 0.000144 0.001347
0.002696 0.000141 0.001327
0.002709 0.000139 0.001306
0.002721 0.000138 0.001284
0.002731 0.000138 0.001262
0.00274 0.000138 0.001239
0.002746 0.00014 0.001215
0.00275 0.000143 0.00119
0.002741 0.000152 0.001159
0.002715 0.00017 0.001121
0.002687 0.00019 0.001082
0.002655 0.000211 0.001042
0.002618 0.000234 0.000999
0.002352 0.000414 0.000644
0.002361 0.000414 0.000621
0.002374 0.000413 0.0006
0.00239 0.000409 0.00058
0.002414 0.000402 0.000563
0.002446 0.000391 0.00055
0.002496 0.00037 0.000545
0.002548 0.000349 0.000541
0.002597 0.000329 0.000534
0.002639 0.000312 0.000526
0.002683 0.000295 0.000518
0.00272 0.000282 0.000507
0.002758 0.000268 0.000501
0.002017 0.000359 0.001573
0.001993 0.000376 0.001536
0.001981 0.000387 0.001504
0.001977 0.000394 0.001475
0.00198 0.000398 0.001449
0.001986 0.000399 0.001425
0.001997 0.000399 0.001403
0.001388 0.000415 0.002676
0.002564 0.000648 0.001362
0.00249 0.000647 0.001366
0.001443 0.000734 0.001971
0.002131 0.000686 0.002105
0.0026 0.000147 0.001364
0.002648 0.000128 0.00136
0.002675 0.000119 0.001345
0.002691 0.000116 0.001325
0.002704 0.000114 0.001304
0.002716 0.000113 0.001282
0.002726 0.000113 0.00126
0.002734 0.000114 0.001236
0.002741 0.000115 0.001212
0.002745 0.000118 0.001187
0.00274 0.000126 0.001158
0.002716 0.000143 0.001121
0.002686 0.000163 0.001082
0.002655 0.000184 0.001042
0.002617 0.000208 0.000999
0.002352 0.000387 0.000644
0.002361 0.000387 0.000621
0.002374 0.000385 0.0006
0.002391 0.000381 0.000581
0.002414 0.000375 0.000563
0.002446 0.000364 0.00055
0.002496 0.000343 0.000545
0.002548 0.000322 0.000541
0.002596 0.000302 0.000534
0.00264 0.000285 0.000526
0.002682 0.000269 0.000517
0.00272 0.000254 0.000507
0.002757 0.000241 0.000496
0.002018 0.000331 0.001573
0.001993 0.000349 0.001536
0.001981 0.00036 0.001504
0.001978 0.000366 0.001475
0.00198 0.00037 0.001449
0.001987 0.000372 0.001426
0.001997 0.000371 0.001403
0.00249 0.000728 0.001365
0.002148 0.000672 0.001786
0.002452 0.00066 0.001365
0.001996 0.000704 0.001405
0.002369 0.000582 0.001361
0.0026 0.00012 0.001364
0.002646 0.000102 0.001359
0.002669 9.5e-05 0.001342
0.002684 9.3e-05 0.001322
0.002696 9.1e-05 0.0013
0.002708 9e-05 0.001279
0.002718 9e-05 0.001256
0.002727 9e-05 0.001233
0.002734 9.2e-05 0.001209
0.002738 9.4e-05 0.001184
0.002737 0.0001 0.001157
0.002715 0.000116 0.001121
0.002686 0.000136 0.001082
0.002655 0.000156 0.001042
0.002618 0.00018 0.000999
0.002352 0.00036 0.000644
0.002361 0.00036 0.000621
0.002374 0.000358 0.0006
0.002391 0.000354 0.000581
0.002414 0.000348 0.000563
0.002446 0.000336 0.00055
0.002496 0.000316 0.000545
0.002548 0.000294 0.000541
0.002597 0.000275 0.000534
0.00264 0.000258 0.000526
0.002683 0.000241 0.000518
0.00272 0.000227 0.000507
0.002756 0.000214 0.000496
0.002017 0.000305 0.001572
0.001993 0.000321 0.001536
0.00198 0.000333 0.001503
0.001977 0.000339 0.001475
0.00198 0.000343 0.001449
0.001986 0.000345 0.001426
0.001997 0.000344 0.001403
0.002213 0.00065 0.001966
0.002201 0.000612 0.001924
0.002601 0.000609 0.00136
0.0022 0.000558 0.001924
0.002148 0.000618 0.001785
0.002599 9.3e-05 0.001364
0.00264 7.8e-05 0.001357
0.002659 7.3e-05 0.001338
0.002673 7.1e-05 0.001317
0.002686 6.9e-05 0.001296
0.002697 6.8e-05 0.001274
0.002708 6.8e-05 0.001252
0.002717 6.8e-05 0.001229
0.002724 6.9e-05 0.001205
0.00273 7.2e-05 0.001181
0.00273 7.6e-05 0.001154
0.002715 8.9e-05 0.001121
0.002686 0.000108 0.001082
0.002654 0.00013 0.001041
0.002352 0.000332 0.000644
0.002361 0.000333 0.000621
0.002374 0.000331 0.0006
0.002391 0.000327 0.000581
0.002414 0.00032 0.000564
0.002446 0.000309 0.00055
0.002496 0.000289 0.000545
0.002548 0.000267 0.00054
0.002597 0.000248 0.000534
0.002642 0.00023 0.000527
0.002682 0.000214 0.000517
0.00272 0.0002 0.000507
0.002757 0.000186 0.000496
0.002016 0.000278 0.001572
0.001993 0.000294 0.001536
0.00198 0.000306 0.001503
0.001977 0.000312 0.001475
0.001979 0.000316 0.001449
0.001986 0.000318 0.001425
0.001997 0.000317 0.001403
0.00245 0.000743 0.001364
0.002491 0.000674 0.001365
0.002528 0.000633 0.001364
0.001458 0.000485 0.002517
0.002188 0.000518 0.002073
0.002204 0.000545 0.002055
0.002598 6.7e-05 0.001364
0.00263 5.6e-05 0.001352
0.002647 5.2e-05 0.001333
0.002661 5e-05 0.001312
0.002673 4.8e-05 0.001291
0.002685 4.8e-05 0.001269
0.002695 4.7e-05 0.001246
0.002704 4.8e-05 0.001223
0.002712 4.8e-05 0.0012
0.002718 5e-05 0.001176
0.002721 5.4e-05 0.00115
0.002713 6.3e-05 0.00112
0.002685 8.2e-05 0.001081
0.002656 0.000101 0.001042
0.002352 0.000305 0.000644
0.002361 0.000306 0.000621
0.002374 0.000304 0.0006
0.002391 0.0003 0.000581
0.002414 0.000293 0.000564
0.002446 0.000282 0.00055
0.002495 0.000262 0.000545
0.002548 0.00024 0.000541
0.002597 0.00022 0.000535
0.002641 0.000203 0.000526
0.002681 0.000187 0.000517
0.00272 0.000173 0.000507
0.002759 0.000159 0.000501
0.002016 0.000251 0.001572
0.001993 0.000267 0.001535
0.00198 0.000279 0.001503
0.001977 0.000285 0.001475
0.001979 0.000289 0.001449
0.001986 0.000291 0.001425
0.001997 0.00029 0.001403
0.00215 0.000725 0.001787
0.002369 0.000718 0.001361
0.002125 0.000668 0.001735
0.00212 0.00074 0.001316
0.001464 0.000731 0.001956
0.002276 0.000729 0.001348
0.002187 0.0006 0.002072
0.002591 4.3e-05 0.001362
0.002616 3.5e-05 0.001346
0.002633 3.2e-05 0.001327
0.002646 3e-05 0.001306
0.002658 2.9e-05 0.001284
0.002669 2.8e-05 0.001262
0.002679 2.8e-05 0.001239
0.002688 2.8e-05 0.001217
0.002697 2.9e-05 0.001193
0.002703 3.1e-05 0.001169
0.002707 3.4e-05 0.001144
0.002705 4e-05 0.001116
0.002683 5.6e-05 0.00108
0.002654 7.6e-05 0.001041
0.002352 0.000278 0.000644
0.002361 0.000278 0.000621
0.002374 0.000277 0.0006
0.002392 0.000273 0.000581
0.002414 0.000266 0.000564
0.002446 0.000255 0.000551
0.002495 0.000235 0.000544
0.002547 0.000213 0.00054
0.002597 0.000193 0.000535
0.002641 0.000176 0.000527
0.002682 0.00016 0.000517
0.002721 0.000145 0.000507
0.002758 0.000132 0.000502
0.002016 0.000223 0.001572
0.001993 0.00024 0.001536
0.00198 0.000252 0.001503
0.001977 0.000258 0.001475
0.001979 0.000262 0.001449
0.001986 0.000263 0.001425
0.001997 0.000263 0.001403
0.002219 0.000636 0.002003
0.002282 0.000752 0.001353
0.002226 0.000749 0.001339
0.002154 0.000492 0.002109
0.002324 0.000682 0.001356
0.002169 0.00065 0.001834
0.002538 3.8e-05 0.001364
0.002577 2.4e-05 0.001355
0.002598 1.7e-05 0.001339
0.002613 1.5e-05 0.001318
0.002626 1.3e-05 0.001297
0.002638 1.2e-05 0.001275
0.002649 1.1e-05 0.001253
0.002659 1.1e-05 0.001231
0.002668 1.1e-05 0.001208
0.002677 1.2e-05 0.001185
0.002684 1.3e-05 0.001161
0.002689 1.6e-05 0.001137
0.00269 2e-05 0.00111
0.002677 3.2e-05 0.001078
0.002352 0.000251 0.000644
0.002361 0.000251 0.000621
0.002374 0.000249 0.0006
0.002392 0.000245 0.000581
0.002414 0.000239 0.000564
0.002446 0.000227 0.00055
0.002496 0.000207 0.000545
0.002548 0.000186 0.00054
0.002597 0.000166 0.000535
0.002641 0.000149 0.000526
0.002683 0.000132 0.000518
0.002721 0.000118 0.000507
0.002756 0.000105 0.000495
0.002016 0.000196 0.001572
0.001994 0.000212 0.001536
0.00198 0.000224 0.001503
0.001977 0.000231 0.001475
0.001979 0.000235 0.001449
0.001986 0.000236 0.001425
0.001997 0.000236 0.001403
0.002187 0.000684 0.001881
0.00217 0.000573 0.002091
0.002218 0.000546 0.002034
0.002529 0.000524 0.001365
0.002277 0.00062 0.001349
0.002201 0.000585 0.001924
0.002529 1.6e-05 0.00136
0.002555 8e-06 0.001346
0.002573 3e-06 0.001328
0.002586 1e-06 0.001307
0.002597 1e-06 0.001285
0.002606 1e-06 0.001262
0.002616 1e-06 0.001239
0.002627 0.0 0.001217
0.002636 1e-06 0.001194
0.002646 0.0 0.001172
0.002655 1e-06 0.001149
0.002662 2e-06 0.001125
0.002667 5e-06 0.0011
0.002664 1.1e-05 0.001072
0.002647 2.5e-05 0.001038
0.002616 4.5e-05 0.000998
0.002352 0.000224 0.000644
0.002361 0.000224 0.000621
0.002374 0.000222 0.0006
0.002391 0.000218 0.000581
0.002414 0.000212 0.000563
0.002446 0.000201 0.00055
0.002496 0.00018 0.000545
0.002549 0.000158 0.000541
0.002597 0.000139 0.000534
0.002641 0.000121 0.000527
0.002684 0.000105 0.000518
0.002721 9.1e-05 0.000507
0.002756 7.8e-05 0.000495
0.001994 0.000185 0.001536
0.00198 0.000197 0.001503
0.001977 0.000204 0.001475
0.001979 0.000208 0.001449
0.001986 0.000209 0.001425
0.001996 0.000209 0.001403
0.00217 0.000704 0.001835
0.002153 0.000574 0.002108
0.002188 0.000545 0.002073
0.00217 0.000595 0.001835
0.002154 0.00052 0.002109
0.002601 0.000663 0.00136
0.002222 0.000643 0.001336
0.002325 0.0006 0.001357
0.002547 -6e-06 0.00129
0.002556 -6e-06 0.001267
0.002566 -6e-06 0.001245
0.002576 -6e-06 0.001222
0.002586 -6e-06 0.001199
0.002595 -6e-06 0.001177
0.002603 -5e-06 0.001153
0.002614 -5e-06 0.001131
0.002631 -4e-06 0.001085
0.002635 -2e-06 0.00106
0.002631 5e-06 0.001031
0.002611 2e-05 0.000996
0.002352 0.000196 0.000644
0.002362 0.000197 0.000621
0.002375 0.000195 0.0006
0.002392 0.000191 0.000581
0.002414 0.000184 0.000563
0.002446 0.000173 0.00055
0.002496 0.000153 0.000545
0.00255 0.000131 0.000541
0.002597 0.000112 0.000534
0.002642 9.3e-05 0.000527
0.002683 7.8e-05 0.000518
0.00272 6.4e-05 0.000507
0.002756 5.1e-05 0.000495
0.001994 0.000158 0.001536
0.00198 0.00017 0.001503
0.001977 0.000177 0.001475
0.001979 0.000181 0.001449
0.001986 0.000182 0.001425
0.001996 0.000181 0.001403
0.002132 0.000631 0.002123
0.001453 0.000649 0.002378
0.002153 0.000547 0.002109
0.002213 0.000541 0.001966
0.002154 0.000465 0.002109
0.002276 0.000647 0.001348
0.002009 0.00076 0.001383
0.001996 0.000758 0.001405
0.002511 -5e-06 0.001221
0.002522 -6e-06 0.001199
0.002531 -5e-06 0.001176
0.00254 -5e-06 0.001153
0.00255 -5e-06 0.00113
0.002559 -5e-06 0.001108
0.002578 -5e-06 0.001062
0.002588 -5e-06 0.00104
0.002596 -4e-06 0.001016
0.002594 2e-06 0.000988
0.002571 1.8e-05 0.000953
0.002035 -3.3e-05 0.000562
0.002352 0.000169 0.000644
0.002362 0.000169 0.000621
0.002374 0.000168 0.0006
0.002392 0.000164 0.000581
0.002414 0.000157 0.000563
0.002446 0.000146 0.00055
0.002496 0.000126 0.000545
0.002549 0.000104 0.000541
0.002597 8.4e-05 0.000534
0.002642 6.6e-05 0.000527
0.002683 5.1e-05 0.000518
0.002719 3.7e-05 0.000506
0.002754 2.4e-05 0.000494
0.001993 0.000131 0.001535
0.00198 0.000143 0.001503
0.001977 0.000149 0.001475
0.001979 0.000153 0.001449
0.001986 0.000155 0.001425
0.001996 0.000154 0.001403
0.002598 0.000719 0.001358
0.002216 0.000602 0.002032
0.002126 0.000695 0.001735
0.002063 0.000728 0.001333
0.002171 0.000465 0.002091
0.002136 0.000466 0.002126
0.002205 0.000463 0.002055
0.001989 0.000752 0.001431
0.001429 0.00076 0.001991
0.002276 0.000674 0.001348
0.002477 -1e-05 0.00118
0.002491 -8e-06 0.001132
0.002501 -8e-06 0.00111
0.002026 -3.4e-05 0.000585
0.00255 -8e-06 0.000996
0.002557 -6e-06 0.000973
0.002552 2e-06 0.000945
0.002352 0.000142 0.000644
0.002362 0.000142 0.000621
0.002375 0.000141 0.0006
0.002392 0.000137 0.000581
0.002414 0.00013 0.000563
0.002446 0.000119 0.00055
0.002497 9.8e-05 0.000545
0.00255 7.6e-05 0.000541
0.002596 5.8e-05 0.000534
0.002641 4e-05 0.000527
0.002682 2.4e-05 0.000517
0.002716 1e-05 0.000506
0.002017 8.7e-05 0.001572
0.001993 0.000104 0.001535
0.00198 0.000116 0.001503
0.001977 0.000122 0.001475
0.00198 0.000126 0.001449
0.001986 0.000127 0.001425
0.001997 0.000127 0.001403
0.002563 0.000731 0.001361
0.002114 0.000606 0.002139
0.002324 0.000736 0.001356
0.002528 0.000606 0.001364
0.002018 -3.5e-05 0.000608
0.00235 -7e-06 0.001313
0.00236 -8e-06 0.00129
0.002325 0.000654 0.001356
0.002221 0.000698 0.001335
0.001986 0.000727 0.001429
0.002423 -5e-06 0.00113
0.002433 -5e-06 0.001107
0.002443 -6e-06 0.001085
0.002453 -6e-06 0.001062
0.002464 -6e-06 0.00104
0.002473 -6e-06 0.001017
0.002482 -5e-06 0.000994
0.002494 -7e-06 0.000973
0.002505 -7e-06 0.00095
0.002513 -6e-06 0.000928
0.002352 0.000115 0.000644
0.002362 0.000115 0.000621
0.002374 0.000114 0.0006
0.002391 0.00011 0.000581
0.002414 0.000103 0.000563
0.002447 9.1e-05 0.00055
0.002494 7.2e-05 0.000544
0.002547 5e-05 0.00054
0.002597 3e-05 0.000534
0.002642 1.2e-05 0.000527
0.002674 1e-06 0.000514
0.002696 -6e-06 0.000496
0.002014 6.1e-05 0.001571
0.001993 7.7e-05 0.001535
0.00198 8.9e-05 0.001503
0.001977 9.5e-05 0.001475
0.001979 9.9e-05 0.001449
0.001986 0.0001 0.001425
0.001997 0.0001 0.001403
0.002011 9.7e-05 0.001382
0.002153 0.000601 0.002108
0.002221 0.000581 0.002005
0.002148 0.00059 0.001785
0.001392 0.000645 0.002669
0.001658 0.000641 0.001979
0.002297 -8e-06 0.00129
0.002307 -8e-06 0.001268
0.001457 0.000659 0.00256
0.002009 -3.5e-05 0.000631
0.002171 0.00041 0.002091
0.002153 0.000411 0.002108
0.002095 0.000614 0.001677
0.001997 0.000731 0.001405
0.002378 -1e-05 0.001111
0.002387 -9e-06 0.001088
0.002396 -9e-06 0.001065
0.002406 -9e-06 0.001042
0.002415 -9e-06 0.001019
0.002426 -9e-06 0.000997
0.002434 -9e-06 0.000974
0.002444 -8e-06 0.000951
0.002455 -9e-06 0.000929
0.002466 -1e-05 0.000907
0.00234 8.4e-05 0.000692
0.002344 8.7e-05 0.000667
0.002351 8.8e-05 0.000644
0.002361 8.8e-05 0.000621
0.002374 8.6e-05 0.0006
0.002391 8.3e-05 0.00058
0.002414 7.6e-05 0.000563
0.002446 6.5e-05 0.00055
0.002495 4.5e-05 0.000544
0.002549 2.2e-05 0.000541
0.002596 3e-06 0.000534
0.002623 -5e-06 0.000518
0.002635 -6e-06 0.000497
0.002647 -8e-06 0.000476
0.002656 -7e-06 0.000453
0.002015 3.4e-05 0.001571
0.001993 5e-05 0.001535
0.001979 6.2e-05 0.001502
0.001977 6.8e-05 0.001475
0.001979 7.2e-05 0.001449
0.001986 7.3e-05 0.001425
0.001996 7.3e-05 0.001403
0.002011 7e-05 0.001382
0.002151 0.000629 0.002107
0.002203 0.000572 0.002054
0.002117 0.000414 0.002141
0.002215 -9e-06 0.001336
0.00223 -1e-05 0.001315
0.001397 0.000688 0.002034
0.002001 -3.6e-05 0.000654
0.002305 -1e-05 0.001133
0.002313 -9e-06 0.00111
0.002341 -8e-06 0.001041
0.002353 -9e-06 0.001019
0.002363 -9e-06 0.000997
0.002382 -9e-06 0.000951
0.002391 -9e-06 0.000929
0.002399 -8e-06 0.000905
0.002339 5.2e-05 0.000719
0.00234 5.7e-05 0.000692
0.002344 6e-05 0.000667
0.002351 6.1e-05 0.000644
0.002361 6.1e-05 0.000621
0.002373 6e-05 0.000599
0.002391 5.5e-05 0.00058
0.002414 4.9e-05 0.000563
0.002446 3.8e-05 0.00055
0.002545 -3e-06 0.000539
0.002568 -1e-05 0.000522
0.002577 -9e-06 0.000499
0.002585 -8e-06 0.000475
0.002593 -8e-06 0.000452
0.002601 -7e-06 0.000429
0.001992 2.3e-05 0.001535
0.001979 3.5e-05 0.001502
0.001977 4.1e-05 0.001475
0.001979 4.5e-05 0.001449
0.001986 4.6e-05 0.001425
0.001996 4.6e-05 0.001403
0.00201 4.3e-05 0.001382
0.002451 0.000715 0.001365
0.002217 0.000574 0.002033
0.001454 0.000645 0.002599
0.002167 -1.1e-05 0.001315
0.002172 -9e-06 0.00129
0.00237 0.000609 0.001361
0.002089 0.000722 0.001322
0.002198 -8e-06 0.001221
0.002208 -8e-06 0.001199
0.001428 0.000633 0.002647
0.002169 0.000541 0.001834
0.002149 0.000563 0.001786
0.002256 -7e-06 0.001085
0.001992 -3.6e-05 0.000677
0.002274 -6e-06 0.001039
0.002284 -6e-06 0.001017
0.002294 -6e-06 0.000994
0.002303 -6e-06 0.000971
0.002313 -6e-06 0.000949
0.002323 -7e-06 0.000926
0.002333 -6e-06 0.000904
0.002344 -8e-06 0.000881
0.001983 -3.7e-05 0.0007
0.002339 2.5e-05 0.000719
0.002339 3e-05 0.000692
0.002343 3.3e-05 0.000667
0.002351 3.4e-05 0.000643
0.002361 3.4e-05 0.000621
0.002373 3.3e-05 0.000599
0.00239 2.9e-05 0.00058
0.002414 2.1e-05 0.000563
0.002452 7e-06 0.000553
0.002491 -7e-06 0.000542
0.002505 -1e-05 0.000522
0.002514 -9e-06 0.000499
0.002535 -1e-05 0.000454
0.002545 -1e-05 0.000431
0.002554 -1e-05 0.000409
0.001991 -4e-06 0.001534
0.001979 8e-06 0.001502
0.001977 1.4e-05 0.001474
0.002135 0.000575 0.002126
0.002187 0.000573 0.002072
0.001996 1.8e-05 0.001403
0.00201 1.6e-05 0.001382
0.002212 0.000514 0.001965
0.002221 0.000499 0.002005
0.002219 0.000491 0.002035
0.001974 -3.7e-05 0.000723
0.00211 -1e-05 0.001291
0.002118 -9e-06 0.001267
0.002128 -9e-06 0.001245
0.00212 0.000713 0.001315
0.002148 -9e-06 0.0012
0.002158 -9e-06 0.001177
0.002169 -1e-05 0.001155
0.002179 -1e-05 0.001133
0.002186 0.000576 0.00188
0.001965 -3.8e-05 0.000746
0.001956 -3.8e-05 0.000769
0.002228 -1e-05 0.00102
0.002238 -1e-05 0.000997
0.002248 -1.1e-05 0.000975
0.002258 -1.1e-05 0.000952
0.002269 -1.1e-05 0.00093
0.002277 -1e-05 0.000906
0.002287 -1.1e-05 0.000884
0.001946 -3.8e-05 0.000792
0.002341 -8e-06 0.000746
0.00234 -3e-06 0.000719
0.002342 1e-06 0.000693
0.002344 5e-06 0.000667
0.002351 7e-06 0.000643
0.002362 7e-06 0.000622
0.002377 5e-06 0.000602
0.002393 0.0 0.000581
0.002415 -6e-06 0.000564
0.002443 -1e-05 0.000522
0.002446 -7e-06 0.000497
0.002456 -7e-06 0.000474
