0.002333 0.000254 -0.001622
0.002291 0.00027 -0.001618
0.002248 0.000287 -0.001612
0.0022 0.000307 -0.001602
0.00215 0.000328 -0.00159
0.002096 0.000352 -0.001574
0.002037 0.000378 -0.001554
0.001984 0.000401 -0.00154
0.00195 0.000412 -0.001543
0.001924 0.000418 -0.001552
0.001902 0.000422 -0.001565
0.001883 0.000423 -0.001581
0.001867 0.000423 -0.0016
0.001853 0.000421 -0.001621
0.001842 0.000418 -0.001644
0.001835 0.000412 -0.001671
0.001835 0.000402 -0.001704
0.001885 0.00035 -0.001815
0.001911 0.000323 -0.001872
0.001931 0.0003 -0.001923
0.001947 0.00028 -0.00197
0.001959 0.000262 -0.002015
0.001971 0.000244 -0.002059
0.00198 0.000228 -0.0021
0.001989 0.000212 -0.002141
0.001996 0.000198 -0.00218
0.001998 0.000186 -0.002216
0.001988 0.000182 -0.00224
0.001973 0.000182 -0.002259
0.001955 0.000183 -0.002276
0.0023 0.000768 -0.000895
0.002833 0.00058 -0.000751
0.002499 0.000735 -0.000808
0.002761 0.00066 -0.00077
0.002898 0.00058 -0.00047
0.002549 0.000164 -0.001585
0.002534 0.000163 -0.001604
0.002516 0.000164 -0.001621
0.002489 0.000171 -0.00163
0.002452 0.000184 -0.001629
0.002413 0.000197 -0.001628
0.002375 0.000212 -0.001627
0.002333 0.000227 -0.001623
0.002291 0.000243 -0.001618
0.002247 0.000261 -0.001611
0.0022 0.00028 -0.001602
0.002149 0.000301 -0.001589
0.002096 0.000324 -0.001575
0.001984 0.000374 -0.00154
0.00195 0.000385 -0.001542
0.001923 0.000391 -0.001552
0.001901 0.000395 -0.001565
0.001883 0.000396 -0.001581
0.001867 0.000396 -0.0016
0.001853 0.000394 -0.001621
0.001842 0.000391 -0.001644
0.001835 0.000385 -0.001671
0.001835 0.000375 -0.001704
0.001886 0.000322 -0.001817
0.001909 0.000297 -0.001871
0.001931 0.000273 -0.001924
0.001946 0.000253 -0.00197
0.001959 0.000235 -0.002015
0.001972 0.000217 -0.002059
0.00198 0.000201 -0.0021
0.001989 0.000185 -0.002141
0.001995 0.000171 -0.00218
0.001997 0.00016 -0.002215
0.001987 0.000156 -0.002238
0.001971 0.000156 -0.002258
0.001954 0.000156 -0.002275
0.002571 0.000566 -0.001363
0.002558 0.000557 -0.001575
0.00264 0.000679 -0.000794
0.002596 0.000723 -0.0008
0.002594 0.000658 -0.001401
0.002547 0.000138 -0.001583
0.002531 0.000138 -0.001602
0.002514 0.000138 -0.001619
0.002488 0.000144 -0.00163
0.002451 0.000157 -0.00163
0.002414 0.00017 -0.001629
0.002374 0.000185 -0.001626
0.002334 0.0002 -0.001623
0.002291 0.000216 -0.001618
0.002246 0.000234 -0.001611
0.0022 0.000253 -0.001602
0.002149 0.000274 -0.001589
0.002095 0.000298 -0.001574
0.002035 0.000325 -0.001553
0.001984 0.000347 -0.00154
0.00195 0.000358 -0.001542
0.001923 0.000364 -0.001552
0.001901 0.000368 -0.001565
0.001882 0.000369 -0.001581
0.001866 0.000369 -0.0016
0.001853 0.000367 -0.001621
0.001842 0.000364 -0.001644
0.001835 0.000357 -0.001671
0.001835 0.000347 -0.001704
0.001932 0.000245 -0.001924
0.001946 0.000226 -0.00197
0.001959 0.000208 -0.002015
0.001972 0.000189 -0.00206
0.00198 0.000174 -0.0021
0.001989 0.000158 -0.002141
0.001995 0.000144 -0.00218
0.001995 0.000134 -0.002213
0.001983 0.000131 -0.002235
0.001968 0.00013 -0.002255
0.001951 0.000131 -0.002273
0.002596 0.000669 -0.0008
0.002593 0.000577 -0.001401
0.002879 0.000568 -0.000739
0.002869 0.000621 -0.000742
0.002573 0.000674 -0.001363
0.002543 0.000113 -0.001579
0.002527 0.000113 -0.001598
0.00251 0.000114 -0.001616
0.002486 0.000118 -0.001628
0.002451 0.00013 -0.00163
0.002413 0.000143 -0.001629
0.002374 0.000158 -0.001626
0.002334 0.000173 -0.001623
0.002291 0.000189 -0.001618
0.002246 0.000207 -0.001611
0.0022 0.000226 -0.001602
0.002149 0.000247 -0.001589
0.002095 0.00027 -0.001574
0.002035 0.000298 -0.001553
0.001984 0.00032 -0.00154
0.00195 0.000331 -0.001543
0.001923 0.000337 -0.001552
0.001901 0.000341 -0.001565
0.001882 0.000342 -0.001581
0.001866 0.000342 -0.0016
0.001853 0.00034 -0.001621
0.001842 0.000336 -0.001645
0.001835 0.00033 -0.001671
0.001835 0.00032 -0.001704
0.001887 0.000267 -0.001817
0.00191 0.000242 -0.001871
0.001933 0.000218 -0.001925
0.001946 0.000199 -0.00197
0.00196 0.00018 -0.002015
0.001972 0.000162 -0.002059
0.00198 0.000147 -0.0021
0.001989 0.000131 -0.002141
0.001995 0.000117 -0.00218
0.001991 0.000109 -0.002209
0.001978 0.000107 -0.002231
0.001963 0.000106 -0.00225
0.001946 0.000106 -0.002268
0.001928 0.000107 -0.002285
0.00136 -2.9e-05 -0.001608
0.002919 0.000726 -0.000573
0.002549 0.000611 -0.001325
0.002495 0.000677 -0.001244
0.002962 0.000723 0.000294
0.00293 0.000522 -0.000675
0.002536 9e-05 -0.001573
0.002521 9e-05 -0.001593
0.002504 9e-05 -0.00161
0.002483 9.3e-05 -0.001624
0.002451 0.000103 -0.001629
0.002413 0.000116 -0.001628
0.002374 0.00013 -0.001626
0.002333 0.000146 -0.001622
0.002291 0.000162 -0.001618
0.002246 0.00018 -0.00161
0.002199 0.000199 -0.001601
0.00215 0.000219 -0.00159
0.002095 0.000244 -0.001573
0.002035 0.000271 -0.001553
0.001983 0.000293 -0.00154
0.00195 0.000303 -0.001543
0.001923 0.00031 -0.001552
0.001901 0.000314 -0.001565
0.001882 0.000315 -0.001581
0.001866 0.000315 -0.0016
0.001853 0.000313 -0.001621
0.001842 0.000309 -0.001645
0.001835 0.000303 -0.001672
0.001835 0.000293 -0.001704
0.001886 0.00024 -0.001817
0.001911 0.000214 -0.001872
0.001933 0.000191 -0.001925
0.001946 0.000172 -0.00197
0.001959 0.000153 -0.002015
0.001971 0.000136 -0.002059
0.00198 0.00012 -0.0021
0.001989 0.000104 -0.002141
0.001993 9.1e-05 -0.002178
0.001985 8.6e-05 -0.002204
0.001971 8.4e-05 -0.002225
0.001956 8.3e-05 -0.002244
0.001939 8.4e-05 -0.002262
0.001921 8.4e-05 -0.002279
0.00272 0.000594 -0.000778
0.002494 0.00065 -0.001244
0.002798 0.000647 -0.000761
0.002798 0.000701 -0.000761
0.002606 0.000668 -0.001461
0.002528 6.9e-05 -0.001566
0.002512 6.8e-05 -0.001585
0.002496 6.8e-05 -0.001603
0.002476 7e-05 -0.001619
0.00245 7.6e-05 -0.001628
0.002412 8.9e-05 -0.001627
0.002373 0.000104 -0.001625
0.002333 0.000119 -0.001622
0.002291 0.000134 -0.001618
0.002247 0.000152 -0.001611
0.002198 0.000172 -0.0016
0.002149 0.000193 -0.001589
0.002094 0.000217 -0.001572
0.002035 0.000243 -0.001553
0.001983 0.000266 -0.001539
0.00195 0.000276 -0.001542
0.001923 0.000283 -0.001552
0.001902 0.000286 -0.001565
0.001883 0.000287 -0.001582
0.001866 0.000287 -0.0016
0.001853 0.000285 -0.001621
0.001842 0.000282 -0.001644
0.001836 0.000276 -0.001672
0.001835 0.000266 -0.001704
0.001887 0.000213 -0.001817
0.00191 0.000188 -0.001871
0.001932 0.000164 -0.001924
0.001946 0.000145 -0.00197
0.001959 0.000126 -0.002015
0.001971 0.000108 -0.002059
0.00198 9.3e-05 -0.0021
0.001988 7.7e-05 -0.002141
0.001988 6.7e-05 -0.002173
0.001977 6.4e-05 -0.002197
0.001963 6.2e-05 -0.002217
0.001947 6.2e-05 -0.002236
0.00193 6.2e-05 -0.002254
0.001912 6.3e-05 -0.002271
0.001377 -2.9e-05 -0.001591
0.001394 -2.9e-05 -0.001573
0.002427 0.000614 -0.001157
0.002427 0.000696 -0.001157
0.00293 0.000577 -0.000675
0.002589 0.000666 -0.001508
0.002599 0.000666 -0.001485
0.002822 0.000552 0.000141
0.002502 4.8e-05 -0.001575
0.002485 4.7e-05 -0.001594
0.002467 4.9e-05 -0.00161
0.002444 5.3e-05 -0.001623
0.002411 6.3e-05 -0.001627
0.002373 7.6e-05 -0.001626
0.002333 9.1e-05 -0.001622
0.002291 0.000107 -0.001618
0.002247 0.000125 -0.001611
0.002198 0.000145 -0.0016
0.002149 0.000166 -0.001589
0.002094 0.00019 -0.001573
0.001983 0.000239 -0.001539
0.00195 0.000249 -0.001542
0.001923 0.000255 -0.001552
0.001902 0.000259 -0.001565
0.001883 0.00026 -0.001582
0.001867 0.00026 -0.0016
0.001853 0.000258 -0.001621
0.001842 0.000255 -0.001645
0.001835 0.000249 -0.001672
0.001835 0.000239 -0.001704
0.001411 -3e-05 -0.001556
0.001885 0.000186 -0.001816
0.001909 0.000161 -0.001871
0.001932 0.000137 -0.001924
0.001947 0.000117 -0.001971
0.001959 9.9e-05 -0.002015
0.001971 8.1e-05 -0.002059
0.001979 6.6e-05 -0.002099
0.001985 5.2e-05 -0.002138
0.001979 4.5e-05 -0.002165
0.001967 4.3e-05 -0.002188
0.001951 4.2e-05 -0.002207
0.001935 4.2e-05 -0.002225
0.001918 4.2e-05 -0.002243
0.0019 4.3e-05 -0.002261
0.002571 0.000539 -0.001363
0.002833 0.000607 -0.000752
0.002573 0.000701 -0.001363
0.00255 0.000719 -0.001325
0.002604 0.000636 -0.001488
0.002549 0.000692 -0.001325
0.002681 0.000745 -0.000787
0.002472 2.9e-05 -0.001582
0.002454 2.9e-05 -0.001599
0.002434 3.2e-05 -0.001614
0.002407 3.8e-05 -0.001623
0.002372 5e-05 -0.001625
0.002333 6.4e-05 -0.001622
0.00229 8.1e-05 -0.001617
0.002246 9.8e-05 -0.00161
0.002197 0.000119 -0.001599
0.002148 0.000139 -0.001588
0.002094 0.000162 -0.001573
0.002034 0.00019 -0.001552
0.001982 0.000212 -0.001539
0.001949 0.000222 -0.001542
0.001923 0.000229 -0.001552
0.001901 0.000232 -0.001565
0.001883 0.000233 -0.001582
0.001867 0.000233 -0.0016
0.001853 0.000231 -0.001621
0.001842 0.000228 -0.001645
0.001835 0.000222 -0.001671
0.001835 0.000212 -0.001704
0.00191 0.000134 -0.001871
0.001931 0.00011 -0.001923
0.001946 9e-05 -0.00197
0.001959 7.2e-05 -0.002015
0.00197 5.5e-05 -0.002058
0.001977 4e-05 -0.002098
0.001976 3e-05 -0.00213
0.001967 2.6e-05 -0.002154
0.001953 2.4e-05 -0.002175
0.001937 2.4e-05 -0.002194
0.001921 2.4e-05 -0.002213
0.001904 2.4e-05 -0.00223
0.001886 2.5e-05 -0.002248
0.002426 0.000642 -0.001156
0.002722 0.000675 -0.000779
0.00253 1.7e-05 -0.001468
0.002516 1.6e-05 -0.001489
0.002833 0.000634 -0.000752
0.002427 0.000723 -0.001156
0.002464 0.000698 -0.001202
0.002549 0.000638 -0.001325
0.002581 0.000682 3.2e-05
0.00264 0.000706 -0.000794
0.002396 1.8e-05 -0.001613
0.002367 2.5e-05 -0.001621
0.002331 3.8e-05 -0.00162
0.00229 5.4e-05 -0.001617
0.002245 7.2e-05 -0.001609
0.002146 0.000113 -0.001587
0.002093 0.000136 -0.001572
0.002033 0.000163 -0.001551
0.001982 0.000185 -0.001539
0.001949 0.000195 -0.001542
0.001923 0.000202 -0.001551
0.001901 0.000205 -0.001565
0.001882 0.000206 -0.001581
0.001866 0.000206 -0.0016
0.001853 0.000204 -0.001621
0.001842 0.0002 -0.001645
0.001836 0.000194 -0.001672
0.001835 0.000184 -0.001704
0.001851 0.000164 -0.001752
0.001885 0.000132 -0.001816
0.00191 0.000107 -0.001871
0.001931 8.3e-05 -0.001923
0.001947 6.3e-05 -0.001971
0.001959 4.5e-05 -0.002015
0.001966 3e-05 -0.002055
0.001968 1.8e-05 -0.002089
0.001961 1.3e-05 -0.002116
0.001949 1e-05 -0.002139
0.001934 9e-06 -0.002159
0.001918 9e-06 -0.002177
0.001885 9e-06 -0.002213
0.001867 9e-06 -0.002231
0.00183 1.2e-05 -0.002264
0.001811 1.4e-05 -0.002279
0.00179 1.7e-05 -0.002294
0.002464 0.000616 -0.001202
0.002594 0.000549 -0.001401
0.002507 4e-06 -0.001448
0.002492 4e-06 -0.001467
0.002389 0.000754 -0.00081
0.002833 0.000498 -0.00075
0.002611 0.000481 -0.001436
0.002524 0.000547 -0.001285
0.002954 0.000575 -0.000554
0.002922 0.000606 -0.000698
0.002596 0.000696 -0.000801
0.002353 7e-06 -0.001608
0.002324 1.5e-05 -0.001615
0.002288 2.8e-05 -0.001615
0.002243 4.6e-05 -0.001608
0.002197 6.4e-05 -0.001599
0.002147 8.5e-05 -0.001587
0.002092 0.000109 -0.001571
0.002033 0.000136 -0.001551
0.001982 0.000158 -0.001538
0.001949 0.000168 -0.001542
0.001923 0.000174 -0.001551
0.001901 0.000178 -0.001565
0.001882 0.000179 -0.001581
0.001866 0.000179 -0.0016
0.001853 0.000177 -0.001621
0.001842 0.000173 -0.001645
0.001836 0.000167 -0.001672
0.001836 0.000156 -0.001705
0.001851 0.000137 -0.001752
0.001885 0.000105 -0.001815
0.00191 7.9e-05 -0.001872
0.001931 5.6e-05 -0.001924
0.001946 3.6e-05 -0.00197
0.001955 2e-05 -0.002012
0.001956 9e-06 -0.002045
0.001949 3e-06 -0.002072
0.001937 1e-06 -0.002094
0.001922 0.0 -0.002114
0.001906 0.0 -0.002133
0.001888 1e-06 -0.00215
0.001872 0.0 -0.002169
0.001855 0.0 -0.002186
0.001786 3e-06 -0.002257
0.001767 4e-06 -0.002273
0.001747 7e-06 -0.002288
0.001429 -3.1e-05 -0.001538
0.001446 -3.1e-05 -0.00152
0.0029 0.000474 -0.000729
0.002855 0.00062 0.00016
0.002682 0.000581 -0.000787
0.002548 0.000715 -0.000805
0.002322 -1e-06 -0.00158
0.002302 1e-06 -0.001595
0.002277 7e-06 -0.001606
0.00224 2e-05 -0.001605
0.002195 3.8e-05 -0.001598
0.002146 5.9e-05 -0.001586
0.002093 8.1e-05 -0.001572
0.002033 0.000109 -0.001551
0.001981 0.000131 -0.001538
0.001949 0.000141 -0.001542
0.001923 0.000147 -0.001551
0.001901 0.000151 -0.001565
0.001882 0.000152 -0.001581
0.001866 0.000152 -0.0016
0.001852 0.00015 -0.001621
0.001842 0.000146 -0.001645
0.001835 0.00014 -0.001672
0.001835 0.00013 -0.001705
0.001851 0.000109 -0.001752
0.001886 7.7e-05 -0.001817
0.00191 5.2e-05 -0.001871
0.001931 2.9e-05 -0.001923
0.001911 -1e-06 -0.002038
0.001896 -1e-06 -0.002058
0.001879 -1e-06 -0.002076
0.001862 -1e-06 -0.002094
0.001846 -1e-06 -0.002113
0.00183 -1e-06 -0.002131
0.001814 -1e-06 -0.00215
0.001766 -2e-06 -0.002206
0.00175 -2e-06 -0.002224
0.001731 -1e-06 -0.002241
0.001714 -1e-06 -0.002259
0.001695 2e-06 -0.002274
0.001463 -3.2e-05 -0.001503
0.001481 -3.2e-05 -0.001485
0.001497 -3.2e-05 -0.001467
0.002413 -2e-06 -0.001396
0.002538 0.000703 -0.001565
0.002573 0.000729 -0.001363
0.002827 0.000583 0.000526
0.002497 0.000709 -0.000808
0.002356 0.000711 -0.000822
0.00272 0.000567 -0.000778
0.002956 0.000728 0.000269
0.002285 -4e-06 -0.001547
0.002269 -4e-06 -0.001565
0.002251 -3e-06 -0.001582
0.002226 2e-06 -0.001593
0.002192 1.3e-05 -0.001595
0.002144 3.3e-05 -0.001585
0.001981 0.000104 -0.001538
0.001949 0.000114 -0.001542
0.001922 0.00012 -0.001551
0.001901 0.000123 -0.001565
0.001882 0.000125 -0.001581
0.001866 0.000125 -0.0016
0.001852 0.000123 -0.00162
0.001842 0.000119 -0.001644
0.001835 0.000113 -0.001672
0.001836 0.000102 -0.001705
0.001851 8.3e-05 -0.001752
0.001886 5e-05 -0.001817
0.00191 2.5e-05 -0.001871
0.001924 6e-06 -0.001917
0.001892 -5e-06 -0.001988
0.001877 -6e-06 -0.002007
0.001825 -5e-06 -0.002061
0.001808 -4e-06 -0.002078
0.001792 -4e-06 -0.002096
0.001774 -3e-06 -0.002114
0.001513 -3.2e-05 -0.001448
0.001723 -2e-06 -0.002167
0.001706 -2e-06 -0.002185
0.001672 -1e-06 -0.002221
0.001655 -1e-06 -0.002239
0.001531 -3.3e-05 -0.001431
0.002373 -4e-06 -0.001361
0.002359 -6e-06 -0.001381
0.002342 -5e-06 -0.001399
0.002325 -5e-06 -0.001416
0.002931 0.000562 -0.0005
0.002571 0.00061 -0.001554
0.002593 0.000495 -0.001401
0.002243 -5e-06 -0.001509
0.002223 -3e-06 -0.001524
0.002207 -3e-06 -0.001542
0.00219 -3e-06 -0.00156
0.00217 -0.0 -0.001575
0.00214 5e-06 -0.001582
0.00198 7.7e-05 -0.001537
0.001948 8.7e-05 -0.001541
0.001922 9.3e-05 -0.001551
0.001901 9.6e-05 -0.001565
0.001882 9.8e-05 -0.001581
0.001866 9.7e-05 -0.0016
0.001852 9.6e-05 -0.00162
0.001842 9.2e-05 -0.001644
0.001835 8.6e-05 -0.001672
0.001835 7.5e-05 -0.001705
0.00185 5.6e-05 -0.001752
0.001845 -2e-06 -0.001945
0.001829 -3e-06 -0.001965
0.001814 -4e-06 -0.001984
0.00178 -3e-06 -0.002019
0.001764 -4e-06 -0.002038
0.001748 -4e-06 -0.002057
0.001667 -4e-06 -0.00215
0.001547 -3.3e-05 -0.001412
0.001563 -3.3e-05 -0.001394
0.002548 0.000661 -0.000805
0.00236 -2e-06 -0.001282
0.002342 -2e-06 -0.001299
0.002797 0.000511 -0.000761
0.002293 -2e-06 -0.001354
0.002277 -2e-06 -0.001374
0.002261 -3e-06 -0.001392
0.002584 0.000609 -0.001533
0.002494 0.000623 -0.001244
0.002952 0.00055 -0.000529
0.002197 -3e-06 -0.001467
0.002181 -4e-06 -0.001486
0.002166 -4e-06 -0.001505
0.002149 -4e-06 -0.001523
0.002133 -5e-06 -0.001542
0.002116 -4e-06 -0.00156
0.002088 3e-06 -0.001568
0.00198 5e-05 -0.001537
0.001948 6e-05 -0.001541
0.001922 6.6e-05 -0.001551
0.0019 6.9e-05 -0.001565
0.001882 7.1e-05 -0.001581
0.001866 7e-05 -0.0016
0.001852 6.9e-05 -0.00162
0.001841 6.5e-05 -0.001644
0.001835 5.9e-05 -0.001672
0.001834 4.9e-05 -0.001704
0.001805 -5e-06 -0.00191
0.001787 -4e-06 -0.001927
0.001771 -5e-06 -0.001946
0.00158 -3.3e-05 -0.001376
0.001737 -3e-06 -0.001981
0.00172 -3e-06 -0.001998
0.001703 -3e-06 -0.002017
0.001596 -3.3e-05 -0.001357
0.001612 -3.3e-05 -0.001339
0.001535 -1e-06 -0.002197
0.00264 0.000625 -0.000794
0.002321 -5e-06 -0.001247
0.002306 -6e-06 -0.001267
0.002611 0.000535 -0.001437
0.002523 0.000602 -0.001285
0.002283 0.000765 -0.000978
0.002241 -6e-06 -0.001341
0.002224 -5e-06 -0.001359
0.00276 0.000525 -0.00077
0.002584 0.000473 -0.001533
0.002522 0.000706 -0.001585
0.002571 0.000512 -0.001363
0.002108 -6e-06 -0.001487
0.002091 -6e-06 -0.001505
0.002293 0.000722 -0.000901
0.001979 2.4e-05 -0.001536
0.001948 3.3e-05 -0.001541
0.001921 3.9e-05 -0.00155
0.0019 4.2e-05 -0.001564
0.001882 4.3e-05 -0.001581
0.001866 4.3e-05 -0.0016
0.001852 4.1e-05 -0.00162
0.001841 3.8e-05 -0.001644
0.001835 3.2e-05 -0.001671
0.001829 -6e-06 -0.001799
0.001814 -7e-06 -0.001818
0.001684 -8e-06 -0.001966
0.001666 -7e-06 -0.001984
0.001601 -7e-06 -0.002057
0.001584 -7e-06 -0.002075
0.001567 -7e-06 -0.002093
0.001549 -6e-06 -0.00211
0.001498 -4e-06 -0.002163
0.001476 3e-06 -0.00217
0.00276 0.000552 -0.00077
0.002595 0.000642 -0.0008
0.002617 0.000499 -0.001467
0.002228 -5e-06 -0.001263
0.00221 -4e-06 -0.001279
0.002193 -4e-06 -0.001298
0.002334 0.000744 -0.000839
0.002583 0.000527 -0.001533
0.002596 0.000526 -0.001511
0.001628 -3.2e-05 -0.00132
0.001645 -3.2e-05 -0.001301
0.002061 -3e-06 -0.001444
0.002044 -3e-06 -0.001462
0.002566 0.000743 -0.001442
0.00191 0.000749 -0.001564
0.002334 0.000717 -0.000839
0.001975 -3e-06 -0.001533
0.001947 6e-06 -0.00154
0.001922 1.2e-05 -0.001551
0.002285 0.00072 -0.000924
0.002682 0.000554 -0.000787
0.001866 1.6e-05 -0.0016
0.001852 1.4e-05 -0.001621
0.001842 1e-05 -0.001644
0.001836 4e-06 -0.001672
0.001835 -6e-06 -0.001705
0.001782 -3e-06 -0.001756
0.001766 -4e-06 -0.001775
0.001661 -3.2e-05 -0.001283
0.001677 -3.1e-05 -0.001264
0.001692 -3.1e-05 -0.001245
0.001708 -3.1e-05 -0.001226
0.001553 -5e-06 -0.002014
0.001536 -4e-06 -0.002033
0.001522 -6e-06 -0.002053
0.001504 -4e-06 -0.002069
0.001457 -6e-06 -0.002127
0.001437 -4e-06 -0.002142
0.00223 -3e-06 -0.001165
0.002214 -3e-06 -0.001184
0.002199 -4e-06 -0.001203
0.002184 -4e-06 -0.001223
0.002168 -4e-06 -0.001242
0.002151 -5e-06 -0.00126
0.002135 -5e-06 -0.001278
0.002548 0.000688 -0.000805
0.002366 0.00076 -0.000827
0.001723 -3e-05 -0.001207
0.00202 -5e-06 -0.001407
0.002002 -4e-06 -0.001424
0.001985 -3e-06 -0.001442
0.001968 -3e-06 -0.00146
0.001953 -4e-06 -0.00148
0.001938 -5e-06 -0.001499
0.00192 -4e-06 -0.001516
0.001739 -2.9e-05 -0.001188
0.001853 -3e-06 -0.001588
0.001836 -3e-06 -0.001606
0.001806 -5e-06 -0.001645
0.00179 -5e-06 -0.001664
0.001774 -5e-06 -0.001683
0.001757 -5e-06 -0.001701
0.00174 -5e-06 -0.001719
0.001723 -4e-06 -0.001737
0.001706 -4e-06 -0.001754
0.002898 0.000607 -0.00047
0.002388 0.0007 -0.00081
0.00151 -4e-06 -0.001976
0.001492 -4e-06 -0.001993
0.001476 -3e-06 -0.002011
0.001458 -3e-06 -0.002028
0.001443 -4e-06 -0.002048
0.001426 -4e-06 -0.002066
0.00141 -4e-06 -0.002084
0.001396 -5e-06 -0.002105
0.002192 -6e-06 -0.001131
0.002174 -5e-06 -0.001148
0.002156 -4e-06 -0.001165
0.002951 0.000578 -0.000528
0.002106 -5e-06 -0.001219
0.002089 -3e-06 -0.001238
0.002073 -3e-06 -0.001256
0.002509 0.000745 -0.001551
0.002571 0.000501 -0.001554
0.002578 0.000698 -0.001503
0.002005 -2e-06 -0.001328
0.001989 -3e-06 -0.001346
0.001973 -2e-06 -0.001365
0.001957 -3e-06 -0.001383
0.001942 -4e-06 -0.001403
0.001925 -3e-06 -0.001421
0.001908 -3e-06 -0.001439
0.001893 -4e-06 -0.001458
0.001876 -4e-06 -0.001476
0.002596 0.000615 -0.0008
0.002588 0.000699 -0.00148
0.002595 0.000701 -0.001456
0.001809 -3e-06 -0.001549
0.001794 -4e-06 -0.001568
0.001777 -3e-06 -0.001586
0.00176 -3e-06 -0.001604
0.001744 -3e-06 -0.001623
0.001728 -4e-06 -0.001641
0.001711 -3e-06 -0.001659
0.001694 -3e-06 -0.001677
0.001677 -3e-06 -0.001695
0.001661 -3e-06 -0.001714
0.001644 -3e-06 -0.001732
0.002441 0.000733 -0.000808
0.002682 0.000636 -0.000787
0.002868 0.000486 -0.00074
0.001417 -4e-06 -0.001991
0.001402 -5e-06 -0.002011
0.001386 -6e-06 -0.00203
0.001369 -5e-06 -0.002048
0.001355 -5e-06 -0.002067
0.002797 0.000538 -0.000761
0.002144 -3e-06 -0.001088
0.002128 -3e-06 -0.001107
0.002113 -4e-06 -0.001127
0.002096 -4e-06 -0.001144
0.002079 -3e-06 -0.001162
0.002063 -4e-06 -0.001181
0.002048 -5e-06 -0.0012
0.002033 -5e-06 -0.00122
0.002016 -5e-06 -0.001238
0.002495 0.000747 -0.001572
0.001985 -6e-06 -0.001276
0.001968 -6e-06 -0.001294
0.001951 -6e-06 -0.001312
0.001935 -6e-06 -0.001331
0.001918 -6e-06 -0.001349
0.001901 -5e-06 -0.001366
0.002549 0.000529 -0.001325
0.001868 -5e-06 -0.001403
0.00185 -5e-06 -0.00142
0.002931 0.00059 -0.0005
0.002548 0.000634 -0.000805
0.002641 0.000597 -0.000795
0.002597 0.000705 -0.001429
0.002566 0.000699 -0.001524
0.002554 0.0007 -0.001546
0.001735 -4e-06 -0.001548
0.00172 -5e-06 -0.001568
0.001702 -4e-06 -0.001585
0.001653 -5e-06 -0.00164
0.00154 -6e-06 -0.001771
0.001507 -6e-06 -0.001807
0.00149 -5e-06 -0.001825
0.002832 0.000526 -0.00075
0.001438 -4e-06 -0.001878
0.001422 -4e-06 -0.001896
0.001338 -3e-06 -0.001987
0.001321 -3e-06 -0.002005
0.002682 0.000608 -0.000787
0.002464 0.000644 -0.001202
0.00207 -4e-06 -0.001088
0.002054 -5e-06 -0.001107
0.002038 -5e-06 -0.001125
0.002022 -5e-06 -0.001144
0.001939 -5e-06 -0.001235
0.001922 -4e-06 -0.001253
0.001905 -4e-06 -0.001271
0.001891 -5e-06 -0.001291
0.001873 -5e-06 -0.001308
0.002607 0.000608 -0.001489
0.002614 0.000609 -0.001465
0.002573 0.00062 -0.001363
0.00272 0.00054 -0.000778
0.002558 0.000529 -0.001575
0.002715 0.000706 8.5e-05
0.001678 -6e-06 -0.00153
0.001662 -5e-06 -0.001549
0.001562 -5e-06 -0.001658
0.001544 -5e-06 -0.001675
0.001528 -5e-06 -0.001694
0.001495 -5e-06 -0.00173
0.001477 -4e-06 -0.001747
0.001461 -4e-06 -0.001766
0.001447 -5e-06 -0.001786
0.001396 -5e-06 -0.00184
0.00138 -5e-06 -0.001858
0.001363 -5e-06 -0.001877
0.002076 -5e-06 -0.000994
0.00206 -5e-06 -0.001012
0.002044 -5e-06 -0.001031
0.002029 -6e-06 -0.001051
0.002012 -6e-06 -0.001068
0.001996 -6e-06 -0.001087
0.001978 -5e-06 -0.001104
0.002571 0.000474 -0.001554
0.002596 0.000472 -0.001512
0.002496 0.000567 -0.001245
0.002608 0.000471 -0.00149
0.002617 0.000472 -0.001467
0.001879 -5e-06 -0.001214
0.001863 -5e-06 -0.001233
0.001829 -4e-06 -0.001269
0.001814 -5e-06 -0.001288
0.001798 -6e-06 -0.001307
0.001781 -6e-06 -0.001325
0.002612 0.000589 -0.001437
0.002594 0.000522 -0.001401
0.002611 0.000507 -0.001437
0.002377 0.000673 -0.001105
0.002524 0.000574 -0.001285
0.002549 0.000556 -0.001325
0.001617 -6e-06 -0.001509
0.001535 -6e-06 -0.0016
0.001519 -6e-06 -0.001619
0.001502 -6e-06 -0.001637
0.001485 -5e-06 -0.001655
0.00147 -6e-06 -0.001674
0.001453 -6e-06 -0.001692
0.001337 -5e-06 -0.00182
0.001321 -6e-06 -0.001839
0.002307 0.00074 -0.000871
0.002017 -5e-06 -0.000974
0.002 -5e-06 -0.000992
0.001984 -5e-06 -0.00101
0.001968 -5e-06 -0.001029
0.001953 -6e-06 -0.001048
0.002606 0.000673 -0.001434
0.002593 0.000685 -0.001401
0.002597 0.00075 -0.000801
0.00255 0.000664 -0.001325
0.002611 0.000616 -0.001436
0.001857 -8e-06 -0.001161
0.001842 -9e-06 -0.001181
0.001826 -9e-06 -0.001199
0.00181 -9e-06 -0.001219
0.002951 0.00052 -0.000578
0.001779 -1.1e-05 -0.001257
0.001763 -1.1e-05 -0.001275
0.001746 -1.1e-05 -0.001294
0.00173 -1.1e-05 -0.001312
0.002523 0.000711 -0.001285
0.002924 0.000578 -0.000699
0.002584 0.000734 3.2e-05
0.001666 -1.2e-05 -0.001387
0.002589 0.000715 -0.001398
0.00257 0.000746 -0.001417
0.001617 -1.2e-05 -0.001442
0.0016 -1.2e-05 -0.00146
0.001584 -1.2e-05 -0.001478
0.001567 -1.1e-05 -0.001497
0.00155 -1.1e-05 -0.001515
0.001533 -1.1e-05 -0.001533
0.001516 -1.1e-05 -0.00155
0.001501 -1.1e-05 -0.001569
0.001483 -1.1e-05 -0.001587
0.001466 -1e-05 -0.001605
0.001449 -1e-05 -0.001623
0.001433 -1e-05 -0.001641
0.001416 -9e-06 -0.001659
0.002283 0.000738 -0.000978
0.002611 0.000638 -0.001464
0.001964 -9e-06 -0.000959
0.001949 -1e-05 -0.000979
0.001934 -1.1e-05 -0.000998
0.001918 -1.1e-05 -0.001017
0.002682 0.000717 -0.000787
0.00264 0.000733 -0.000794
0.002523 0.000684 -0.001285
0.002596 0.000608 -0.001511
0.002594 0.000631 -0.001401
0.002488 0.00072 -2.8e-05
0.002524 0.000738 -0.001285
0.002959 0.000607 0.000467
0.001781 -1.8e-05 -0.001192
0.001765 -1.8e-05 -0.001211
0.00175 -1.9e-05 -0.00123
0.001734 -1.9e-05 -0.001249
0.001718 -2e-05 -0.001268
0.001702 -2e-05 -0.001287
0.001686 -2.1e-05 -0.001305
0.00167 -2.1e-05 -0.001324
0.001654 -2.1e-05 -0.001343
0.001638 -2.1e-05 -0.001362
0.001621 -2.1e-05 -0.00138
0.001605 -2.1e-05 -0.001398
0.001588 -2.1e-05 -0.001416
0.001572 -2.1e-05 -0.001435
0.001556 -2.1e-05 -0.001453
0.001539 -2.1e-05 -0.001472
0.001522 -2.1e-05 -0.001489
0.001505 -2.1e-05 -0.001507
0.001488 -2e-05 -0.001525
0.001471 -2e-05 -0.001543
0.001455 -2e-05 -0.001561
0.001437 -1.9e-05 -0.001579
0.00142 -1.9e-05 -0.001597
0.001403 -1.8e-05 -0.001614
0.001385 -1.8e-05 -0.001631
0.001368 -1.7e-05 -0.001649
0.002898 0.000526 -0.00047
0.00276 0.000579 -0.00077
0.002868 0.00054 -0.000742
0.002549 0.000583 -0.001325
0.002292 0.000754 -0.001011
0.002596 0.000587 -0.000801
0.002548 0.000607 -0.000805
0.002499 0.000627 -0.000809
0.00244 0.000652 -0.000807
0.002388 0.000673 -0.00081
0.002356 0.000684 -0.000822
0.002334 0.00069 -0.000838
0.002316 0.000694 -0.000858
0.002303 0.000695 -0.000878
0.002292 0.000695 -0.0009
0.002285 0.000693 -0.000924
0.002753 0.000744 0.000104
0.00293 0.000604 -0.000675
0.002863 0.000544 -0.000439
0.002427 0.000587 -0.001157
0.002465 0.000562 -0.001202
0.002496 0.00054 -0.001245
0.002524 0.00052 -0.001285
0.002549 0.000502 -0.001325
0.002571 0.000485 -0.001363
0.002593 0.000468 -0.001401
0.002611 0.000453 -0.001437
0.002617 0.000445 -0.001467
0.002608 0.000444 -0.00149
0.002596 0.000444 -0.001512
0.002584 0.000445 -0.001533
0.002571 0.000447 -0.001554
0.001886 0.000729 -0.00158
0.002474 0.000752 -6.3e-05
0.002924 0.000551 -0.000699
0.0029 0.000447 -0.000728
0.002868 0.000458 -0.00074
0.002833 0.000471 -0.000751
0.002797 0.000484 -0.000761
0.00276 0.000497 -0.00077
0.002721 0.000512 -0.000779
0.002682 0.000527 -0.000787
0.002641 0.000543 -0.000795
0.002596 0.00056 -0.0008
0.002547 0.00058 -0.000804
0.002498 0.0006 -0.000808
0.002439 0.000625 -0.000807
0.002388 0.000646 -0.00081
0.002356 0.000657 -0.000822
0.002333 0.000663 -0.000838
0.002316 0.000667 -0.000857
0.002303 0.000668 -0.000878
0.002292 0.000668 -0.0009
0.002284 0.000666 -0.000924
0.002928 0.000632 -0.000674
0.002737 0.00069 -0.000343
0.002825 0.000564 -0.000408
0.00238 0.000589 -0.001107
0.002428 0.000559 -0.001157
0.002465 0.000534 -0.001202
0.002497 0.000513 -0.001245
0.002524 0.000493 -0.001285
0.002549 0.000475 -0.001325
0.002571 0.000458 -0.001363
0.002593 0.000441 -0.001401
0.002612 0.000426 -0.001437
0.002617 0.000418 -0.001467
0.002608 0.000416 -0.00149
0.002596 0.000417 -0.001512
0.002584 0.000418 -0.001533
0.002571 0.000419 -0.001554
0.002879 0.00054 -0.000739
0.002941 0.000548 -0.000627
0.002899 0.00042 -0.000728
0.002868 0.000431 -0.00074
0.002833 0.000444 -0.000751
0.002798 0.000456 -0.000761
0.002761 0.00047 -0.000771
0.002721 0.000485 -0.000779
0.002682 0.000499 -0.000788
0.002639 0.000516 -0.000794
0.002595 0.000533 -0.0008
0.002546 0.000553 -0.000804
0.002498 0.000573 -0.000808
0.002439 0.000598 -0.000807
0.002388 0.000618 -0.00081
0.002356 0.00063 -0.000822
0.002333 0.000636 -0.000838
0.002316 0.00064 -0.000857
0.002302 0.000641 -0.000878
0.002292 0.000641 -0.0009
0.002944 0.000659 -0.000577
0.002949 0.00063 -0.000578
0.002781 0.000668 -0.000375
0.002631 0.00066 4.9e-05
0.002379 0.000563 -0.001106
0.002428 0.000532 -0.001157
0.002466 0.000507 -0.001203
0.002496 0.000486 -0.001245
0.002524 0.000466 -0.001285
0.002549 0.000447 -0.001325
0.002572 0.00043 -0.001363
0.002594 0.000413 -0.001401
0.002611 0.000399 -0.001437
0.002617 0.00039 -0.001467
0.002608 0.000389 -0.00149
0.002596 0.00039 -0.001511
0.002583 0.000392 -0.001533
0.00257 0.000393 -0.001554
0.002936 0.000467 -0.000651
0.002673 0.000696 6.7e-05
0.002899 0.000393 -0.000728
0.002868 0.000404 -0.00074
0.002832 0.000417 -0.00075
0.002798 0.000429 -0.000761
0.002761 0.000443 -0.000771
0.002721 0.000458 -0.000779
0.002682 0.000473 -0.000787
0.00264 0.000489 -0.000795
0.002595 0.000506 -0.0008
0.002546 0.000526 -0.000804
0.002498 0.000546 -0.000808
0.002439 0.000571 -0.000807
0.002388 0.000591 -0.00081
0.002356 0.000602 -0.000822
0.002334 0.000609 -0.000839
0.002316 0.000613 -0.000857
0.002302 0.000614 -0.000878
0.002292 0.000614 -0.0009
0.002937 0.000659 -0.000626
0.002822 0.000715 0.000142
0.002824 0.000646 -0.000407
0.002289 0.000737 -0.001018
0.00238 0.000535 -0.001107
0.002426 0.000506 -0.001156
0.002466 0.00048 -0.001203
0.002496 0.000459 -0.001245
0.002524 0.000439 -0.001285
0.00255 0.00042 -0.001325
0.002572 0.000403 -0.001363
0.002594 0.000386 -0.001401
0.002611 0.000372 -0.001437
0.002617 0.000363 -0.001467
0.002608 0.000362 -0.00149
0.002596 0.000363 -0.001512
0.002584 0.000364 -0.001533
0.002571 0.000365 -0.001554
0.002903 0.00073 0.000188
0.002631 0.000714 4.9e-05
0.0029 0.000366 -0.000729
0.002867 0.000377 -0.00074
0.002832 0.00039 -0.00075
0.002797 0.000402 -0.000761
0.00276 0.000416 -0.00077
0.002721 0.000431 -0.000779
0.002681 0.000446 -0.000787
0.00264 0.000461 -0.000795
0.002595 0.000479 -0.0008
0.002546 0.000499 -0.000804
0.002498 0.000519 -0.000808
0.002388 0.000564 -0.00081
0.002355 0.000576 -0.000822
0.002333 0.000582 -0.000838
0.002316 0.000585 -0.000857
0.002302 0.000587 -0.000878
0.002292 0.000586 -0.0009
0.002942 0.000664 -0.000527
0.002919 0.000634 -0.000698
0.002684 0.000717 -0.000309
0.002714 0.000624 8.5e-05
0.002426 0.000479 -0.001156
0.002465 0.000453 -0.001203
0.002496 0.000432 -0.001244
0.002524 0.000411 -0.001286
0.002551 0.000392 -0.001326
0.002571 0.000376 -0.001363
0.002594 0.000359 -0.001401
0.002611 0.000344 -0.001437
0.002617 0.000336 -0.001467
0.002608 0.000335 -0.00149
0.002596 0.000336 -0.001512
0.002584 0.000337 -0.001533
0.002571 0.000338 -0.001554
0.002312 0.000764 -0.000872
0.002929 0.00055 -0.000675
0.0029 0.000339 -0.000729
0.002867 0.00035 -0.00074
0.002832 0.000362 -0.00075
0.002797 0.000375 -0.000761
0.002761 0.000388 -0.000771
0.002721 0.000403 -0.000779
0.002682 0.000418 -0.000787
0.002639 0.000435 -0.000794
0.002595 0.000452 -0.0008
0.002547 0.000471 -0.000804
0.002497 0.000492 -0.000808
0.002388 0.000537 -0.00081
0.002355 0.000548 -0.000822
0.002333 0.000555 -0.000838
0.002315 0.000558 -0.000857
0.002302 0.00056 -0.000878
0.002291 0.000559 -0.0009
0.002899 0.000688 -0.00047
0.002906 0.000638 -0.00072
0.002715 0.000733 8.5e-05
0.002581 0.000709 3.2e-05
0.002382 0.00048 -0.001108
0.002426 0.000452 -0.001156
0.002465 0.000426 -0.001203
0.002496 0.000404 -0.001245
0.002524 0.000384 -0.001285
0.00255 0.000366 -0.001325
0.002572 0.000349 -0.001363
0.002594 0.000332 -0.001401
0.002611 0.000317 -0.001437
0.002617 0.000309 -0.001467
0.002608 0.000308 -0.00149
0.002596 0.000309 -0.001512
0.002584 0.00031 -0.001533
0.002571 0.000311 -0.001554
0.002541 0.00069 0.000963
0.002935 0.000549 -0.000651
0.002899 0.000312 -0.000728
0.002867 0.000323 -0.00074
0.002833 0.000335 -0.000751
0.002797 0.000348 -0.000761
0.002761 0.000361 -0.000771
0.002722 0.000376 -0.000779
0.002681 0.000391 -0.000787
0.002639 0.000408 -0.000794
0.002595 0.000425 -0.0008
0.002547 0.000444 -0.000804
0.002497 0.000465 -0.000808
0.002387 0.00051 -0.00081
0.002356 0.000521 -0.000822
0.002333 0.000528 -0.000838
0.002315 0.000531 -0.000857
0.002302 0.000533 -0.000878
0.002292 0.000532 -0.0009
0.002865 0.000711 -0.000739
0.002863 0.00068 -0.000439
0.002789 0.000702 0.000121
0.002936 0.000522 -0.000651
0.00238 0.000454 -0.001107
0.002425 0.000425 -0.001156
0.002465 0.000398 -0.001203
0.002496 0.000377 -0.001245
0.002524 0.000357 -0.001286
0.00255 0.000338 -0.001325
0.002572 0.000321 -0.001364
0.002594 0.000305 -0.001401
0.002612 0.000289 -0.001438
0.002616 0.000282 -0.001467
0.002607 0.000281 -0.00149
0.002596 0.000281 -0.001512
0.002584 0.000282 -0.001533
0.002571 0.000283 -0.001554
0.002558 0.000285 -0.001576
0.002742 0.000626 0.00124
0.002912 0.000554 -0.000721
0.002899 0.000284 -0.000728
0.002866 0.000296 -0.00074
0.002833 0.000308 -0.000751
0.002797 0.000321 -0.000761
0.002761 0.000334 -0.000771
0.002722 0.000349 -0.000779
0.002682 0.000364 -0.000787
0.00264 0.00038 -0.000795
0.002595 0.000397 -0.0008
0.002546 0.000417 -0.000804
0.002496 0.000438 -0.000807
0.002387 0.000483 -0.000809
0.002356 0.000494 -0.000822
0.002333 0.0005 -0.000838
0.002315 0.000504 -0.000857
0.002302 0.000505 -0.000878
0.002292 0.000505 -0.0009
0.002888 0.000701 -0.000718
0.002783 0.000721 -0.000376
0.002879 0.000622 -0.000739
0.002925 0.000469 -0.000699
0.002382 0.000425 -0.001108
0.002426 0.000397 -0.001157
0.002466 0.000371 -0.001203
0.002496 0.00035 -0.001245
0.002524 0.00033 -0.001286
0.00255 0.000311 -0.001326
0.002574 0.000293 -0.001364
0.002594 0.000277 -0.001401
0.002613 0.000262 -0.001438
0.002617 0.000255 -0.001467
0.002608 0.000254 -0.00149
0.002596 0.000254 -0.001512
0.002583 0.000255 -0.001533
0.002571 0.000256 -0.001554
0.002558 0.000257 -0.001576
0.002672 0.000615 6.7e-05
0.002954 0.000548 -0.000554
0.0029 0.000257 -0.000729
0.002867 0.000269 -0.00074
0.002833 0.00028 -0.000751
0.002797 0.000294 -0.000761
0.00276 0.000307 -0.000771
0.002722 0.000321 -0.000779
0.002682 0.000337 -0.000787
0.002638 0.000354 -0.000794
0.002594 0.000371 -0.0008
0.002546 0.00039 -0.000804
0.002496 0.000411 -0.000807
0.002437 0.000436 -0.000806
0.002387 0.000456 -0.00081
0.002356 0.000467 -0.000822
0.002333 0.000473 -0.000839
0.002315 0.000477 -0.000857
0.002302 0.000478 -0.000878
0.002292 0.000478 -0.0009
0.002913 0.000693 -0.000672
0.002741 0.000743 -0.000344
0.002951 0.000602 -0.000578
0.002941 0.000494 -0.000627
0.002382 0.000398 -0.001108
0.002426 0.00037 -0.001156
0.002466 0.000344 -0.001203
0.002496 0.000323 -0.001245
0.002525 0.000302 -0.001286
0.00255 0.000284 -0.001325
0.002573 0.000266 -0.001364
0.002593 0.00025 -0.001401
0.002612 0.000235 -0.001437
0.002616 0.000228 -0.001467
0.002608 0.000226 -0.00149
0.002596 0.000227 -0.001512
0.002584 0.000228 -0.001533
0.002571 0.000229 -0.001554
0.002558 0.00023 -0.001576
0.002325 0.000733 -0.000849
0.002946 0.000548 -0.000602
0.002899 0.00023 -0.000728
0.002867 0.000241 -0.00074
0.002832 0.000254 -0.000751
0.002798 0.000266 -0.000761
0.00276 0.00028 -0.000771
0.002722 0.000294 -0.00078
0.002682 0.00031 -0.000787
0.002639 0.000326 -0.000794
0.002594 0.000344 -0.0008
0.002546 0.000363 -0.000804
0.002496 0.000384 -0.000807
0.002438 0.000408 -0.000807
0.002387 0.000429 -0.00081
0.002355 0.00044 -0.000822
0.002333 0.000446 -0.000839
0.002316 0.00045 -0.000857
0.002302 0.000451 -0.000878
0.002292 0.00045 -0.0009
0.002467 0.00076 -0.000138
0.002947 0.000634 -0.000528
0.002931 0.000617 -0.0005
0.002931 0.000481 -0.0005
0.002382 0.000371 -0.001108
0.002426 0.000343 -0.001156
0.002465 0.000317 -0.001203
0.002497 0.000295 -0.001245
0.002525 0.000275 -0.001286
0.002551 0.000256 -0.001326
0.002574 0.000239 -0.001364
0.002594 0.000223 -0.001401
0.002612 0.000208 -0.001437
0.002615 0.000201 -0.001466
0.002607 0.0002 -0.00149
0.002596 0.0002 -0.001512
0.002584 0.000201 -0.001533
0.002571 0.000202 -0.001554
0.002558 0.000203 -0.001576
0.002913 0.000472 -0.000721
0.00295 0.000547 -0.000578
0.002899 0.000203 -0.000728
0.002867 0.000214 -0.00074
0.002832 0.000227 -0.00075
0.002798 0.000239 -0.000761
0.00276 0.000253 -0.000771
0.002722 0.000267 -0.00078
0.002682 0.000282 -0.000788
0.00264 0.000299 -0.000794
0.002594 0.000317 -0.0008
0.002547 0.000336 -0.000804
0.002495 0.000357 -0.000807
0.002439 0.00038 -0.000807
0.002386 0.000402 -0.000809
0.002355 0.000413 -0.000822
0.002333 0.000419 -0.000838
0.002315 0.000422 -0.000857
0.002302 0.000424 -0.000878
0.002292 0.000423 -0.0009
0.002863 0.000707 -0.000439
0.00295 0.000631 -0.000553
0.00291 0.00061 -0.000721
0.002953 0.000468 -0.000529
0.002381 0.000344 -0.001108
0.002426 0.000315 -0.001157
0.002465 0.00029 -0.001203
0.002497 0.000268 -0.001245
0.002525 0.000248 -0.001286
0.002551 0.000229 -0.001326
0.002574 0.000212 -0.001364
0.002595 0.000195 -0.001402
0.002611 0.000181 -0.001437
0.002613 0.000175 -0.001465
0.002606 0.000173 -0.001489
0.002595 0.000173 -0.001511
0.002583 0.000174 -0.001533
0.00257 0.000175 -0.001554
0.002557 0.000176 -0.001575
0.002532 0.000676 1.5e-05
0.002863 0.000598 -0.000439
0.002898 0.000176 -0.000728
0.002867 0.000187 -0.00074
0.002833 0.000199 -0.000751
0.002797 0.000212 -0.000761
0.00276 0.000225 -0.000771
0.002723 0.000239 -0.00078
0.002683 0.000255 -0.000788
0.002639 0.000272 -0.000794
0.002594 0.000289 -0.0008
0.002546 0.000309 -0.000804
0.002496 0.000329 -0.000807
0.002438 0.000354 -0.000807
0.002386 0.000375 -0.000809
0.002355 0.000386 -0.000821
0.002333 0.000392 -0.000838
0.002315 0.000395 -0.000857
0.002302 0.000397 -0.000878
0.002292 0.000396 -0.000901
0.002942 0.000658 -0.000602
0.002935 0.000631 -0.00065
0.002754 0.000716 0.000103
0.002488 0.000693 -2.8e-05
0.00238 0.000318 -0.001107
0.002425 0.000289 -0.001156
0.002466 0.000262 -0.001203
0.002496 0.000241 -0.001245
0.002525 0.000221 -0.001286
0.00255 0.000202 -0.001326
0.002573 0.000185 -0.001364
0.002594 0.000168 -0.001401
0.002611 0.000154 -0.001437
0.002611 0.000149 -0.001464
0.002603 0.000147 -0.001488
0.002593 0.000147 -0.00151
0.002581 0.000148 -0.001532
0.002568 0.000149 -0.001553
0.002555 0.00015 -0.001574
0.002987 0.000626 0.000372
0.002824 0.000618 -0.000407
0.002897 0.00015 -0.000727
0.002866 0.00016 -0.00074
0.002833 0.000172 -0.000751
0.002797 0.000185 -0.000761
0.002761 0.000198 -0.000771
0.002722 0.000213 -0.000779
0.002683 0.000227 -0.000788
0.002637 0.000245 -0.000794
0.002594 0.000262 -0.0008
0.002546 0.000282 -0.000804
0.002495 0.000303 -0.000807
0.002437 0.000327 -0.000807
0.002386 0.000348 -0.000809
0.002355 0.000359 -0.000821
0.002332 0.000365 -0.000838
0.002315 0.000368 -0.000857
0.002302 0.000369 -0.000878
0.002292 0.000369 -0.0009
0.002928 0.000673 -0.000499
0.002945 0.00063 -0.000602
0.002823 0.000688 0.000142
0.002824 0.000537 -0.000408
0.002379 0.000291 -0.001106
0.002428 0.00026 -0.001157
0.002465 0.000235 -0.001203
0.002496 0.000214 -0.001245
0.002524 0.000194 -0.001286
0.00255 0.000175 -0.001326
0.002574 0.000157 -0.001365
0.002594 0.000141 -0.001401
0.002609 0.000128 -0.001436
0.002606 0.000124 -0.001462
0.002598 0.000123 -0.001485
0.002589 0.000122 -0.001508
0.002577 0.000122 -0.00153
0.002565 0.000123 -0.001552
0.002551 0.000125 -0.001572
0.002505 0.000741 -5e-06
0.002636 0.000739 4.8e-05
0.002894 0.000124 -0.000725
0.002866 0.000133 -0.00074
0.002833 0.000145 -0.000751
0.002796 0.000158 -0.000761
0.00276 0.000171 -0.000771
0.002721 0.000186 -0.000779
0.002683 0.0002 -0.000788
0.002637 0.000218 -0.000794
0.002595 0.000235 -0.0008
0.002547 0.000254 -0.000804
0.002495 0.000275 -0.000807
0.002437 0.0003 -0.000807
0.002386 0.000321 -0.000809
0.002355 0.000331 -0.000822
0.002332 0.000337 -0.000838
0.002315 0.000341 -0.000857
0.002302 0.000342 -0.000878
0.002292 0.000342 -0.0009
0.002921 0.000692 -0.000648
0.002824 0.0007 -0.000407
0.002942 0.000602 -0.000627
0.002863 0.000517 -0.000439
0.002466 0.000208 -0.001203
0.002497 0.000187 -0.001245
0.002525 0.000167 -0.001286
0.002551 0.000147 -0.001326
0.002574 0.00013 -0.001365
0.002594 0.000114 -0.001401
0.002604 0.000103 -0.001434
0.002599 0.0001 -0.001459
0.002591 9.9e-05 -0.001482
0.002582 9.8e-05 -0.001505
0.002571 9.9e-05 -0.001527
0.002558 0.0001 -0.001548
0.002545 0.000101 -0.001569
0.002533 0.000702 1.5e-05
0.002736 0.000664 -0.000343
0.002888 0.0001 -0.000723
0.002866 0.000106 -0.00074
0.002833 0.000118 -0.000751
0.002795 0.000131 -0.00076
0.00276 0.000144 -0.000771
0.002721 0.000159 -0.000779
0.002682 0.000174 -0.000788
0.002638 0.000191 -0.000794
0.002595 0.000207 -0.0008
0.002546 0.000227 -0.000804
0.002496 0.000248 -0.000807
0.002437 0.000272 -0.000807
0.002385 0.000294 -0.000809
0.002355 0.000304 -0.000821
0.002332 0.00031 -0.000838
0.002315 0.000314 -0.000857
0.002302 0.000315 -0.000878
0.002292 0.000315 -0.0009
0.002934 0.000691 -0.000575
0.0029 0.000668 -0.000719
0.002824 0.000673 -0.000407
0.002826 0.000509 -0.000408
0.002383 0.000234 -0.001109
0.002466 0.000181 -0.001203
0.002497 0.000159 -0.001245
0.002524 0.000139 -0.001286
0.002552 0.00012 -0.001327
0.002574 0.000103 -0.001365
0.002592 8.8e-05 -0.001401
0.002597 8e-05 -0.00143
0.002591 7.8e-05 -0.001455
0.002582 7.7e-05 -0.001478
0.002572 7.6e-05 -0.0015
0.002561 7.6e-05 -0.001523
0.002549 7.7e-05 -0.001544
0.002536 7.9e-05 -0.001565
0.002782 0.000558 -0.000376
0.002781 0.00064 -0.000375
0.00288 7.7e-05 -0.000719
0.002862 8.1e-05 -0.000738
0.002832 9.1e-05 -0.000751
0.002796 0.000104 -0.00076
0.00276 0.000117 -0.00077
0.002721 0.000131 -0.000779
0.002682 0.000146 -0.000788
0.002637 0.000164 -0.000793
0.002595 0.00018 -0.0008
0.002546 0.0002 -0.000804
0.002496 0.000221 -0.000807
0.002437 0.000246 -0.000806
0.002385 0.000267 -0.000809
0.002354 0.000277 -0.000821
0.002332 0.000283 -0.000838
0.002315 0.000287 -0.000857
0.002302 0.000288 -0.000878
0.002292 0.000287 -0.000901
0.00292 0.000703 -0.000498
0.002923 0.000662 -0.000673
0.002863 0.000652 -0.000439
0.002953 0.000496 -0.000529
0.002382 0.000208 -0.001108
0.002428 0.000178 -0.001158
0.002465 0.000154 -0.001203
0.002496 0.000132 -0.001245
0.002525 0.000112 -0.001286
0.002551 9.3e-05 -0.001326
0.002573 7.6e-05 -0.001364
0.002587 6.3e-05 -0.001398
0.002586 5.8e-05 -0.001425
0.00258 5.6e-05 -0.001449
0.002571 5.5e-05 -0.001472
0.00256 5.5e-05 -0.001495
0.002549 5.5e-05 -0.001517
0.002537 5.6e-05 -0.001538
0.002524 5.8e-05 -0.001559
0.002936 0.000494 -0.000651
0.002854 0.000648 0.000162
0.00287 5.5e-05 -0.000714
0.002854 5.8e-05 -0.000734
0.00283 6.4e-05 -0.00075
0.002795 7.7e-05 -0.00076
0.002759 9e-05 -0.00077
0.002721 0.000104 -0.000779
0.002682 0.000119 -0.000788
0.002637 0.000137 -0.000793
0.002594 0.000154 -0.0008
0.002547 0.000172 -0.000805
0.002496 0.000193 -0.000807
0.002436 0.000219 -0.000806
0.002385 0.000239 -0.000809
0.002354 0.00025 -0.000821
0.002332 0.000256 -0.000838
0.002315 0.00026 -0.000857
0.002302 0.000261 -0.000878
0.002292 0.00026 -0.000901
0.002932 0.00069 -0.0006
0.002466 0.000759 -0.000113
0.002898 0.000634 -0.00047
0.002673 0.000674 -0.000311
0.002427 0.000152 -0.001157
0.002464 0.000127 -0.001202
0.002496 0.000105 -0.001245
0.002524 8.5e-05 -0.001286
0.00255 6.6e-05 -0.001326
0.00257 5.1e-05 -0.001363
0.002576 4.2e-05 -0.001393
0.002573 3.8e-05 -0.001419
0.002565 3.6e-05 -0.001442
0.002556 3.6e-05 -0.001465
0.002546 3.5e-05 -0.001488
0.002534 3.6e-05 -0.00151
0.002522 3.7e-05 -0.001531
0.002509 3.8e-05 -0.001552
0.002495 4e-05 -0.001573
0.002736 0.00061 -0.000343
0.002788 0.000648 0.000123
0.002856 3.5e-05 -0.000707
0.002842 3.6e-05 -0.000728
0.002823 4.1e-05 -0.000746
0.002794 5.1e-05 -0.00076
0.002759 6.3e-05 -0.00077
0.002721 7.7e-05 -0.000779
0.002682 9.2e-05 -0.000788
0.002594 0.000127 -0.0008
0.002546 0.000146 -0.000804
0.002497 0.000165 -0.000808
0.002435 0.000192 -0.000806
0.002385 0.000212 -0.000809
0.002354 0.000223 -0.000821
0.002332 0.000229 -0.000838
0.002315 0.000232 -0.000857
0.002301 0.000234 -0.000878
0.002291 0.000233 -0.0009
0.002935 0.000692 -0.000551
0.002914 0.000664 -0.000697
0.002737 0.000718 -0.000343
0.002855 0.000593 0.000159
0.002427 0.000125 -0.001157
0.002466 9.9e-05 -0.001203
0.002497 7.8e-05 -0.001246
0.002522 5.9e-05 -0.001285
0.002548 4e-05 -0.001325
0.00256 2.9e-05 -0.001358
0.00256 2.3e-05 -0.001385
0.002555 2e-05 -0.00141
0.002547 1.9e-05 -0.001434
0.002537 1.8e-05 -0.001456
0.002515 1.9e-05 -0.0015
0.002503 1.9e-05 -0.001522
0.00249 2.1e-05 -0.001543
0.002477 2.2e-05 -0.001564
0.002462 2.4e-05 -0.001584
0.002446 2.8e-05 -0.001603
0.002631 0.000687 4.9e-05
0.002682 0.000691 -0.000309
0.002837 1.8e-05 -0.000698
0.002825 1.8e-05 -0.00072
0.002809 2.1e-05 -0.00074
0.002787 2.7e-05 -0.000757
0.002758 3.7e-05 -0.00077
0.002721 5e-05 -0.000779
0.002681 6.5e-05 -0.000787
0.002639 8.1e-05 -0.000795
0.002593 9.9e-05 -0.0008
0.002545 0.000119 -0.000804
0.002495 0.00014 -0.000807
0.002435 0.000165 -0.000806
0.002385 0.000185 -0.000809
0.002354 0.000196 -0.000821
0.002332 0.000202 -0.000838
0.002314 0.000205 -0.000857
0.002301 0.000207 -0.000878
0.002291 0.000206 -0.0009
0.002932 0.000696 -0.000525
0.002874 0.000678 -0.000739
0.002782 0.000694 -0.000375
0.002932 0.000535 -0.0005
0.001756 -2.9e-05 -0.001162
0.002465 7.2e-05 -0.001203
0.002496 5.1e-05 -0.001245
0.00252 3.3e-05 -0.001284
0.002538 1.8e-05 -0.00132
0.002541 1.1e-05 -0.001349
0.002538 7e-06 -0.001375
0.002531 5e-06 -0.001399
0.002521 5e-06 -0.001421
0.002489 5e-06 -0.001488
0.002478 6e-06 -0.00151
0.002465 6e-06 -0.001531
0.002453 7e-06 -0.001552
0.002439 9e-06 -0.001573
0.002424 1.1e-05 -0.001593
0.002404 1.7e-05 -0.00161
0.002919 0.000727 -0.000548
0.002821 4e-06 -0.000663
0.002811 4e-06 -0.000686
0.002799 4e-06 -0.000708
0.002786 6e-06 -0.000729
0.00277 9e-06 -0.000748
0.002747 1.5e-05 -0.000765
0.002718 2.5e-05 -0.000778
0.00268 3.9e-05 -0.000787
0.002639 5.4e-05 -0.000794
0.002594 7.2e-05 -0.0008
0.002544 9.2e-05 -0.000803
0.002495 0.000112 -0.000807
0.002435 0.000138 -0.000806
0.002384 0.000159 -0.000808
0.002354 0.000169 -0.000821
0.002332 0.000175 -0.000838
0.002314 0.000178 -0.000857
0.002301 0.00018 -0.000878
0.002291 0.000179 -0.0009
0.002927 0.000691 -0.000624
0.002855 0.000728 0.000162
0.002947 0.000602 -0.000603
0.002954 0.00052 -0.000554
0.001768 -3e-05 -0.001141
0.001779 -3e-05 -0.001119
0.002466 4.5e-05 -0.001203
0.002493 2.5e-05 -0.001244
0.00251 1.1e-05 -0.001279
0.002515 3e-06 -0.001309
0.00251 -0.0 -0.001334
0.002501 -1e-06 -0.001357
0.002491 -1e-06 -0.001379
0.002481 -1e-06 -0.001402
0.002462 -3e-06 -0.001447
0.002449 -2e-06 -0.001469
0.002439 -2e-06 -0.001491
0.002428 -1e-06 -0.001513
0.002416 -1e-06 -0.001535
0.002405 -1e-06 -0.001557
0.002392 0.0 -0.001578
0.002376 3e-06 -0.001597
0.002941 0.000521 -0.000627
0.002779 -1e-06 -0.000643
0.002767 -1e-06 -0.000665
0.002757 -1e-06 -0.000687
0.002746 -1e-06 -0.000709
0.002733 0.0 -0.000731
0.002721 2e-06 -0.000752
0.002701 6e-06 -0.00077
0.002674 1.5e-05 -0.000784
0.002637 2.8e-05 -0.000794
0.002593 4.6e-05 -0.0008
0.002544 6.5e-05 -0.000803
0.002495 8.5e-05 -0.000807
0.002437 0.00011 -0.000806
0.002383 0.000132 -0.000808
0.002354 0.000141 -0.000821
0.002332 0.000148 -0.000838
0.002314 0.000151 -0.000857
0.002301 0.000152 -0.000878
0.002291 0.000152 -0.0009
0.002945 0.000661 -0.000552
0.002941 0.00063 -0.000626
0.002678 0.000748 6.6e-05
0.002504 0.000687 -5e-06
0.001791 -3.1e-05 -0.001097
0.002464 1.9e-05 -0.001202
0.00248 5e-06 -0.001237
0.002481 -1e-06 -0.001265
0.002471 -1e-06 -0.001288
0.00246 -1e-06 -0.00131
0.00245 -2e-06 -0.001332
0.002438 -1e-06 -0.001354
0.002427 -1e-06 -0.001376
0.002406 -1e-06 -0.001421
0.002396 -1e-06 -0.001443
0.002385 -1e-06 -0.001465
0.002372 -0.0 -0.001486
0.002364 -1e-06 -0.001509
0.002353 -1e-06 -0.001532
0.002343 -1e-06 -0.001554
0.002332 -1e-06 -0.001576
0.002727 -2e-06 -0.000618
0.002717 -2e-06 -0.000641
0.002696 -2e-06 -0.000685
0.002687 -3e-06 -0.000708
0.002676 -3e-06 -0.00073
0.002665 -3e-06 -0.000753
0.00265 -1e-06 -0.000773
0.002626 7e-06 -0.000788
0.002592 1.9e-05 -0.000799
0.002494 5.8e-05 -0.000807
0.002437 8.2e-05 -0.000807
0.002383 0.000105 -0.000808
0.002354 0.000114 -0.000821
0.002332 0.00012 -0.000838
0.002315 0.000124 -0.000857
0.002301 0.000125 -0.000878
0.002292 0.000124 -0.000901
0.002827 0.000726 -0.000408
0.00293 0.000644 -0.0005
0.002854 0.000674 0.000162
0.002714 0.000597 8.5e-05
0.002382 4.5e-05 -0.001108
0.002426 1.7e-05 -0.001157
0.002445 1e-06 -0.001193
0.002444 -4e-06 -0.00122
0.002435 -5e-06 -0.001243
0.002424 -5e-06 -0.001265
0.002414 -5e-06 -0.001288
0.002403 -5e-06 -0.00131
0.002392 -4e-06 -0.001332
0.002341 -5e-06 -0.001444
0.002329 -5e-06 -0.001466
0.002318 -4e-06 -0.001487
0.002307 -5e-06 -0.00151
0.002298 -4e-06 -0.001533
0.001803 -3.1e-05 -0.001076
0.002974 0.000601 0.000444
0.002784 0.000575 0.000536
0.00228 0.000747 -0.000942
0.00265 -5e-06 -0.000663
0.00264 -6e-06 -0.000685
0.002628 -5e-06 -0.000707
0.002617 -5e-06 -0.000729
0.002604 -4e-06 -0.00075
0.002591 -2e-06 -0.000771
0.002574 1e-06 -0.000791
0.002991 0.00063 0.000273
0.002495 3.1e-05 -0.000807
0.002434 5.7e-05 -0.000805
0.002383 7.8e-05 -0.000808
0.002354 8.7e-05 -0.000821
0.002333 9.3e-05 -0.000839
0.002315 9.7e-05 -0.000857
0.002301 9.8e-05 -0.000878
0.002292 9.7e-05 -0.000901
0.002877 0.00065 -0.000739
0.002899 0.000661 -0.00047
0.002936 0.000603 -0.000651
0.002941 0.000466 -0.000627
0.002407 -1e-06 -0.001148
0.002401 -3e-06 -0.001172
0.002391 -4e-06 -0.001195
0.002376 -1e-06 -0.001215
0.002369 -3e-06 -0.001239
0.002357 -3e-06 -0.00126
0.002334 -2e-06 -0.001304
0.002324 -2e-06 -0.001327
0.002313 -2e-06 -0.001349
0.002285 -4e-06 -0.001417
0.002274 -3e-06 -0.001439
