0.001433 0.000682 0.002634
0.000644 0.00073 0.002596
0.001144 0.00062 0.002622
0.001246 0.000627 0.002697
0.001213 0.000641 0.002675
0.000459 0.000503 0.002983
0.000434 0.000505 0.002987
0.00053 0.000502 0.002963
0.000459 0.00053 0.002983
0.000561 0.000525 0.002901
0.000483 0.000257 0.002979
0.000794 0.000524 0.002339
0.00082 0.00052 0.002339
-0.000951 0.000733 0.002314
-0.001294 0.000609 0.002612
-0.001324 0.000625 0.00263
-0.000951 0.000706 0.002313
-0.001094 0.000598 0.002453
-0.000551 0.000467 0.002966
-0.000508 -3e-06 0.002843
-0.000484 -4e-06 0.002844
-0.000459 -4e-06 0.002844
-0.000434 -4e-06 0.002844
-0.00041 -4e-06 0.002843
-0.000385 -3e-06 0.002842
-0.00036 0.0 0.002835
-0.000336 7e-06 0.00282
-0.000311 1.9e-05 0.002795
-0.000287 3.6e-05 0.002759
-0.000262 5.6e-05 0.002715
-0.000237 7.7e-05 0.002671
-0.000213 0.000101 0.002619
-0.000164 0.000151 0.002511
-0.000139 0.000162 0.002488
-0.000114 0.000169 0.002474
-9e-05 0.000172 0.002467
-6.5e-05 0.000174 0.002463
-4e-05 0.000174 0.002463
-1.6e-05 0.000172 0.002467
9e-06 0.000168 0.002475
3.3e-05 0.000162 0.002488
5.8e-05 0.000152 0.002509
8.3e-05 0.000135 0.002546
0.000107 0.000102 0.002617
0.000157 5.1e-05 0.002726
0.000181 3.2e-05 0.002768
0.000206 1.4e-05 0.002805
0.000231 4e-06 0.002827
0.000255 -2e-06 0.002841
0.000562 0.000335 0.002901
0.000575 0.00035 0.002863
0.000917 0.000533 0.0024
0.001245 0.00052 0.002692
0.001179 0.000603 0.002648
0.001245 0.000574 0.002694
0.000917 0.000697 0.0024
0.000601 0.000435 0.002784
0.001277 0.000371 0.002711
0.001076 0.000463 0.00257
0.000526 -2e-06 0.002844
0.000551 1e-06 0.002838
0.001304 0.000529 0.002715
0.001076 0.00049 0.00257
-0.000872 0.00072 0.002307
-0.001263 0.000621 0.002594
-0.000607 -6e-06 0.002791
-0.000582 -7e-06 0.002793
-0.000533 -7e-06 0.002792
-0.000508 -7e-06 0.002792
-0.000484 -6e-06 0.00279
-0.000459 -7e-06 0.002791
-0.000434 -7e-06 0.002793
-0.00041 -6e-06 0.00279
-0.000385 -7e-06 0.002792
-0.00036 -7e-06 0.002792
-0.000336 -5e-06 0.002787
-0.000311 0.0 0.002776
-0.000287 1.1e-05 0.002753
-0.000262 2.9e-05 0.002715
-0.001325 0.000462 0.002629
-0.000164 0.000124 0.002511
-0.000139 0.000135 0.002488
-0.000114 0.000141 0.002475
-9e-05 0.000145 0.002467
-6.5e-05 0.000146 0.002464
-4e-05 0.000146 0.002464
-1.6e-05 0.000144 0.002467
9e-06 0.000141 0.002475
3.3e-05 0.000135 0.002488
5.8e-05 0.000125 0.002509
-0.001356 0.00045 0.002647
0.000157 2.4e-05 0.002727
0.000181 8e-06 0.002761
0.000206 -2e-06 0.002783
0.000231 -5e-06 0.00279
0.000255 -6e-06 0.002791
0.00028 -6e-06 0.002791
0.00056 0.000717 0.002897
0.000354 -7e-06 0.002792
0.001212 0.000588 0.002672
0.00043 0.000673 0.002976
0.001276 0.000562 0.002711
0.000722 0.000661 0.002359
0.000502 -7e-06 0.002794
0.000526 -7e-06 0.002793
0.000551 -6e-06 0.002793
0.000575 -2e-06 0.002787
0.000508 0.000419 0.002974
-0.001386 0.000439 0.002661
-0.000607 -6e-06 0.002731
-0.000583 -6e-06 0.002731
-0.000558 -6e-06 0.002731
-0.000533 -7e-06 0.002733
-0.000508 -6e-06 0.002731
-0.000484 -6e-06 0.002732
-0.000459 -7e-06 0.002733
-0.000434 -6e-06 0.002732
-0.000409 -7e-06 0.002733
-0.000385 -7e-06 0.002734
-0.000311 -8e-06 0.002736
-0.000287 -4e-06 0.002728
-0.000261 4e-06 0.002708
-0.000237 2.1e-05 0.002673
-0.000213 4.6e-05 0.002621
-0.000164 9.7e-05 0.002511
-0.000139 0.000108 0.002488
-0.000114 0.000114 0.002474
-9e-05 0.000117 0.002467
-6.5e-05 0.000119 0.002464
-4e-05 0.000119 0.002464
-1.6e-05 0.000117 0.002468
9e-06 0.000114 0.002475
3.4e-05 0.000108 0.002488
5.8e-05 9.8e-05 0.002509
-0.001511 0.000627 0.002606
0.000108 4.8e-05 0.002617
0.000132 1.8e-05 0.002681
0.000157 1e-06 0.002717
0.000181 -7e-06 0.002734
0.000206 -9e-06 0.00274
0.000231 -8e-06 0.002737
0.000255 -8e-06 0.002737
0.00028 -8e-06 0.002737
-0.001913 0.000709 0.002
0.000329 -7e-06 0.002736
0.000354 -8e-06 0.002737
0.00065 0.000431 0.002534
0.000403 -7e-06 0.002733
0.000428 -7e-06 0.002734
0.000452 -7e-06 0.002734
0.000477 -7e-06 0.002734
0.000502 -6e-06 0.002732
0.000526 -6e-06 0.002732
0.000551 -6e-06 0.002733
0.001212 0.00067 0.002671
0.001276 0.000535 0.002711
0.001145 0.000374 0.002624
-0.001061 0.000749 0.002428
-0.001095 0.000732 0.002456
-0.000607 -9e-06 0.002678
-0.000582 -1e-05 0.002681
-0.000558 -1e-05 0.002682
-0.000533 -9e-06 0.002682
-0.000484 -9e-06 0.002681
-0.000459 -9e-06 0.002679
-0.000434 -9e-06 0.00268
-0.001566 0.000515 0.002509
-0.000311 -8e-06 0.002679
-0.000287 -7e-06 0.002676
-0.000262 -6e-06 0.002673
-0.000237 -1e-06 0.00266
-0.000164 7e-05 0.002511
-0.000139 8.1e-05 0.002488
-0.000114 8.7e-05 0.002474
-9e-05 9e-05 0.002467
-6.5e-05 9.2e-05 0.002464
-4e-05 9.2e-05 0.002464
-1.6e-05 9e-05 0.002468
9e-06 8.7e-05 0.002475
3.4e-05 8.1e-05 0.002488
5.8e-05 7.1e-05 0.002508
0.000108 1.9e-05 0.002619
0.000132 -3e-06 0.002667
0.000157 -8e-06 0.002678
0.000181 -1.1e-05 0.002684
0.000206 -9e-06 0.00268
0.000255 -9e-06 0.002681
0.00028 -1e-05 0.002683
-0.000526 0.000442 0.00297
0.000652 0.000462 0.002462
0.000624 0.000417 0.002696
0.000428 -9e-06 0.00268
0.000452 -1e-05 0.002683
0.000477 -1.3e-05 0.002689
0.000502 -1.3e-05 0.00269
0.000526 -1.3e-05 0.002689
0.000551 -8e-06 0.002684
0.000769 0.000607 0.002343
0.000634 0.0006 0.002647
0.000483 0.000393 0.002979
-0.00142 0.000661 0.002647
-0.001129 0.000714 0.002486
-0.000607 -8e-06 0.002619
-0.000582 -8e-06 0.002619
-0.000558 -8e-06 0.00262
-0.000533 -9e-06 0.00262
-0.000508 -8e-06 0.002618
-0.000434 -7e-06 0.002617
-0.00041 -7e-06 0.002616
-0.000526 0.000469 0.00297
-0.001229 0.00053 0.002565
-0.000645 0.000468 0.002936
-0.000661 0.000481 0.002903
-0.000287 -7e-06 0.002617
-0.000262 -7e-06 0.002617
-0.000237 -7e-06 0.002616
-0.000214 -5e-06 0.00261
-0.000164 4.3e-05 0.002509
-0.000139 5.4e-05 0.002487
-0.000114 6e-05 0.002474
-9e-05 6.3e-05 0.002466
-6.5e-05 6.5e-05 0.002464
-4e-05 6.4e-05 0.002464
-1.6e-05 6.3e-05 0.002467
9e-06 6e-05 0.002474
3.4e-05 5.4e-05 0.002487
5.8e-05 4.4e-05 0.002507
8.3e-05 2.4e-05 0.002551
0.000132 -9e-06 0.002622
0.000157 -8e-06 0.002621
0.000181 -7e-06 0.002618
0.000206 -6e-06 0.002616
-0.000551 0.00044 0.002966
0.000305 -8e-06 0.002618
0.000329 -8e-06 0.002619
0.000562 0.000308 0.002901
0.000575 0.000322 0.002864
0.000428 -7e-06 0.002618
0.000452 -7e-06 0.002619
0.001373 0.000287 0.002687
0.001179 0.000576 0.002649
0.000722 0.000498 0.002358
-0.000701 0.000558 0.002779
-0.001129 0.000688 0.002485
-0.001294 0.000719 0.00261
-0.000582 -8e-06 0.00256
-0.000558 -7e-06 0.002559
-0.000533 -8e-06 0.00256
-0.000508 -8e-06 0.002561
-0.000484 -9e-06 0.002562
-0.000459 -1e-05 0.002563
-0.000434 -1e-05 0.002564
-0.00041 -1e-05 0.002565
-0.000385 -1e-05 0.002565
-0.000361 -1.1e-05 0.002566
-0.000336 -1.1e-05 0.002567
-0.000311 -1.1e-05 0.002568
-0.000661 0.000617 0.002903
-0.001567 0.000532 0.002465
-0.001952 0.000694 0.002015
-0.000675 0.000496 0.002864
-0.000163 1.5e-05 0.002511
-0.000139 2.7e-05 0.002487
-0.000114 3.3e-05 0.002474
-9e-05 3.6e-05 0.002466
-6.5e-05 3.8e-05 0.002463
-4e-05 3.7e-05 0.002464
-1.6e-05 3.6e-05 0.002467
9e-06 3.3e-05 0.002473
3.4e-05 2.7e-05 0.002486
5.8e-05 1.7e-05 0.002508
8.3e-05 -3e-06 0.002552
-0.000575 0.000439 0.002961
0.000132 -1.3e-05 0.002572
0.000157 -1e-05 0.002567
0.000542 0.000709 0.002922
0.00028 -1e-05 0.002567
0.000305 -1.1e-05 0.002569
0.000329 -1.1e-05 0.002569
0.000354 -1.1e-05 0.002568
0.000643 0.000541 0.002594
0.000917 0.00056 0.002401
0.000428 -9e-06 0.002565
0.000452 -9e-06 0.002564
-0.000599 0.000438 0.002956
-0.000623 0.000438 0.00295
-0.000645 0.000441 0.002936
0.000551 -7e-06 0.00256
0.000576 -7e-06 0.00256
0.001319 0.000704 0.002683
0.001328 0.000311 0.002709
-0.000656 -1e-05 0.002508
-0.000632 -1.2e-05 0.002511
-0.000607 -1.2e-05 0.002511
-0.000582 -1.1e-05 0.002509
-0.000558 -1.1e-05 0.002508
-0.000533 -1.1e-05 0.002508
-0.000508 -1.1e-05 0.002508
-0.000484 -1e-05 0.002507
-0.000459 -1e-05 0.002507
-0.000434 -9e-06 0.002505
-0.00041 -8e-06 0.002503
-0.000385 -9e-06 0.002505
-0.000361 -9e-06 0.002504
-0.000336 -9e-06 0.002505
-0.000311 -9e-06 0.002505
-0.000644 0.000606 0.002933
-0.000689 0.00054 0.002823
-0.000896 0.000744 0.002308
-0.001163 0.000616 0.002514
-0.000164 -7e-06 0.002499
-0.000139 -0.0 0.002486
-0.000114 6e-06 0.002473
-9e-05 9e-06 0.002466
-6.7e-05 1.1e-05 0.002462
-4e-05 1.1e-05 0.002463
-1.6e-05 9e-06 0.002466
9e-06 6e-06 0.002473
3.4e-05 -1e-06 0.002489
0.000157 -1.2e-05 0.002513
0.000181 -1.1e-05 0.002509
0.000206 -7e-06 0.002501
0.000255 -9e-06 0.002506
0.00028 -8e-06 0.002504
0.000305 -9e-06 0.002505
0.000329 -1e-05 0.002508
0.000354 -9e-06 0.002506
0.001365 0.000706 0.002664
0.000561 0.000389 0.002901
0.00082 0.000574 0.002339
0.000848 0.000567 0.002346
-0.000661 0.000453 0.002904
0.000551 -1e-05 0.002508
0.000576 -1e-05 0.002508
0.001209 0.000728 0.002663
0.00135 0.000312 0.002698
-0.000656 -1e-05 0.002449
-0.000632 -1.2e-05 0.002452
-0.000607 -9e-06 0.002447
-0.000582 -9e-06 0.002445
-0.000558 -9e-06 0.002445
-0.000764 0.000702 0.002378
-0.000484 -8e-06 0.002444
-0.000459 -9e-06 0.002445
-0.000434 -9e-06 0.002446
-0.00041 -8e-06 0.002445
-0.000385 -1e-05 0.002448
-0.000361 -1e-05 0.002449
-0.000336 -9e-06 0.002448
-0.000782 0.00071 0.002353
-0.001058 0.000618 0.002418
-0.000262 -1e-05 0.002449
-0.000237 -1e-05 0.002448
-0.000213 -1.1e-05 0.00245
-0.000188 -1.1e-05 0.002451
-0.000139 -1.1e-05 0.002451
-0.000114 -1.1e-05 0.002451
-9e-05 -1e-05 0.002449
-6.5e-05 -9e-06 0.002447
-1.6e-05 -1.2e-05 0.002453
9e-06 -1.4e-05 0.002458
3.4e-05 -1.4e-05 0.002458
8.3e-05 -1e-05 0.00245
0.000107 -1.1e-05 0.002451
0.000132 -1e-05 0.002449
0.000206 -1e-05 0.00245
0.000231 -1e-05 0.00245
0.000255 -1e-05 0.002452
0.00028 -8e-06 0.00245
0.000305 -9e-06 0.002451
0.000329 -9e-06 0.00245
0.000354 -1e-05 0.002449
0.000378 -8e-06 0.002445
0.000624 0.000526 0.002694
0.000613 0.000507 0.00274
-0.000675 0.000469 0.002864
-0.000689 0.000485 0.002824
0.000551 -8e-06 0.002446
0.000576 -8e-06 0.002446
0.0006 -9e-06 0.002448
-0.000656 -9e-06 0.002386
-0.000632 -9e-06 0.002387
-0.000607 -1e-05 0.002391
-0.000582 -1.1e-05 0.002391
-0.000558 -1.1e-05 0.002392
-0.000661 0.000508 0.002904
-0.000675 0.000523 0.002864
-0.000459 -9e-06 0.002388
-0.000434 -9e-06 0.002385
-0.00041 -9e-06 0.002389
-0.000702 0.000504 0.002779
-0.001512 0.000599 0.002607
-0.000262 -8e-06 0.002387
-0.000237 -8e-06 0.002386
-0.000213 -8e-06 0.002387
-0.000188 -9e-06 0.002389
-0.000164 -8e-06 0.002386
-0.000139 -9e-06 0.002388
-0.000658 0.000704 0.002892
-6.5e-05 -7e-06 0.002385
-4e-05 -8e-06 0.002386
-1.6e-05 -7e-06 0.002385
9e-06 -9e-06 0.002388
5.8e-05 -8e-06 0.002387
8.3e-05 -8e-06 0.002387
0.000107 -9e-06 0.002388
0.000132 -9e-06 0.002388
0.000157 -7e-06 0.002385
-0.000713 0.000523 0.002732
0.001277 0.000452 0.002713
0.001246 0.000464 0.002696
-0.000725 0.000543 0.002684
0.000378 -9e-06 0.00239
-0.000735 0.000566 0.00263
0.000601 0.00049 0.002783
0.000643 0.000406 0.002592
0.000589 0.00031 0.002825
0.000576 -1e-05 0.002392
0.0006 -9e-06 0.00239
-0.000742 0.000593 0.002567
-0.000575 0.000521 0.002961
-0.000848 0.00072 0.002313
-0.000702 0.000531 0.00278
-0.000582 -9e-06 0.00233
-0.000558 -9e-06 0.00233
-0.000533 -9e-06 0.002328
-0.000713 0.000578 0.002732
-0.001229 0.000584 0.002566
-0.000459 -9e-06 0.00233
-0.000435 -1e-05 0.002332
-0.00041 -1e-05 0.002332
-0.000385 -9e-06 0.002331
-0.001129 0.000606 0.002485
-0.000623 0.000492 0.002949
-0.001565 0.000633 0.002416
-0.001562 0.000681 0.002365
-0.000237 -9e-06 0.002331
-0.000638 0.000696 0.002914
-0.000164 -9e-06 0.00233
-0.000139 -9e-06 0.002329
-0.000114 -8e-06 0.002328
-9e-05 -8e-06 0.002329
-6.5e-05 -9e-06 0.00233
-4e-05 -9e-06 0.00233
-1.6e-05 -9e-06 0.00233
9e-06 -9e-06 0.00233
3.4e-05 -8e-06 0.002329
5.8e-05 -9e-06 0.00233
8.3e-05 -9e-06 0.00233
0.000107 -9e-06 0.00233
-0.000749 0.00066 0.002415
0.001001 0.000423 0.0025
0.000961 0.000448 0.002456
-0.000764 0.000675 0.002378
-0.000782 0.000684 0.002352
-0.000803 0.000689 0.002335
0.001304 0.000338 0.002716
0.000722 0.000525 0.002359
0.000701 0.000523 0.002372
-0.001565 0.000715 0.002416
-0.000848 0.000693 0.002313
0.000551 -9e-06 0.00233
0.000576 -8e-06 0.002328
0.0006 -9e-06 0.002332
-0.000872 0.000693 0.002307
-0.000689 0.000513 0.002823
-0.001566 0.000678 0.002509
-0.000558 -9e-06 0.002272
-0.000533 -9e-06 0.002271
-0.000508 -8e-06 0.002268
-0.000484 -9e-06 0.002272
-0.000459 -9e-06 0.002271
-0.000435 -9e-06 0.002271
-0.00041 -9e-06 0.002271
-0.000385 -9e-06 0.002271
-0.000688 0.000731 0.002822
-0.000551 0.000522 0.002966
-0.000526 0.000523 0.00297
-0.000237 -8e-06 0.00227
-0.000213 -9e-06 0.002271
-0.000188 -9e-06 0.002271
-0.000164 -9e-06 0.002272
-0.000139 -9e-06 0.002271
-0.000114 -9e-06 0.002272
-9e-05 -9e-06 0.002272
-6.5e-05 -8e-06 0.00227
-4e-05 -7e-06 0.002268
-1.6e-05 -9e-06 0.002272
9e-06 -9e-06 0.002273
3.4e-05 -8e-06 0.002271
5.8e-05 -9e-06 0.002273
8.3e-05 -9e-06 0.002272
0.000107 -9e-06 0.002272
-0.000896 0.000691 0.002304
-0.000923 0.000686 0.002306
-0.000951 0.000679 0.002313
0.001328 0.000338 0.002708
0.001277 0.000344 0.002711
0.000378 -1e-05 0.002274
0.000403 -9e-06 0.002272
0.001039 0.000483 0.002536
0.001245 0.000384 0.002692
0.000561 0.000362 0.0029
0.000575 -8e-06 0.002271
0.000483 0.000366 0.002979
0.000508 0.000364 0.002974
-0.001325 0.000489 0.002629
-0.001355 0.000477 0.002648
-0.000533 -9e-06 0.002213
-0.000508 -1.1e-05 0.002216
-0.000484 -1e-05 0.002214
-0.000459 -9e-06 0.002213
-0.000435 -1e-05 0.002215
-0.00041 -9e-06 0.002213
-0.000385 -1e-05 0.002214
-0.000361 -9e-06 0.002214
-0.000617 0.000693 0.002927
-0.000623 0.000519 0.002949
-0.001197 0.000572 0.002541
-0.000262 -1.1e-05 0.002214
-0.000237 -1e-05 0.002216
-0.000213 -1.1e-05 0.002217
-0.000188 -1.1e-05 0.002217
-0.000164 -1e-05 0.002216
-0.000139 -1.1e-05 0.002217
-0.000114 -1.1e-05 0.002218
-9e-05 -1.1e-05 0.002218
-6.5e-05 -1.1e-05 0.002217
-4e-05 -1.1e-05 0.002219
-0.000922 0.000713 0.002307
3.4e-05 -1.2e-05 0.002219
5.8e-05 -1.1e-05 0.002218
8.3e-05 -1.1e-05 0.002218
0.000681 0.000652 0.002392
0.000459 0.000422 0.002983
0.000434 0.000424 0.002986
0.001076 0.000354 0.002569
0.001304 0.000257 0.002715
0.000575 0.000295 0.002864
0.000745 0.000499 0.002349
0.000848 0.000513 0.002346
0.000879 0.000502 0.002361
0.000635 0.000383 0.002647
0.000378 -9e-06 0.002214
0.000403 -9e-06 0.002214
0.000428 -1e-05 0.002215
0.001039 0.000673 0.002536
0.000547 0.000349 0.002936
0.000769 0.000661 0.002343
0.000508 0.000392 0.002974
0.001076 0.000435 0.00257
0.000547 0.000376 0.002935
0.00053 0.000366 0.002964
-0.000551 0.000495 0.002966
-0.000575 0.000493 0.002961
-0.000725 0.000598 0.002683
-0.001324 0.000597 0.002631
-0.000533 -1.1e-05 0.002158
-0.000508 -1e-05 0.002157
-0.000484 -1.1e-05 0.002159
-0.000459 -1.2e-05 0.002161
-0.000435 -1.2e-05 0.002162
-0.00041 -1.3e-05 0.002163
-0.000385 -1.4e-05 0.002165
-0.000361 -1.4e-05 0.002166
-0.000336 -1.4e-05 0.002166
-0.001756 0.000746 0.001937
-0.000287 -1.5e-05 0.002168
-0.000262 -1.6e-05 0.002169
-0.000237 -1.6e-05 0.00217
-0.000213 -1.7e-05 0.002171
-0.000188 -1.7e-05 0.002171
-0.000164 -1.7e-05 0.002172
-0.000139 -1.7e-05 0.002172
-0.000114 -1.7e-05 0.002173
-9e-05 -1.8e-05 0.002174
-6.5e-05 -1.8e-05 0.002175
-0.000643 0.000634 0.00293
-0.000982 0.000693 0.002333
-0.000896 0.000718 0.002305
0.001304 0.000284 0.002716
5.8e-05 -1.8e-05 0.002174
8.3e-05 -1.8e-05 0.002174
0.000107 -1.8e-05 0.002174
0.000132 -1.8e-05 0.002173
0.000157 -1.8e-05 0.002173
0.000181 -1.7e-05 0.002173
0.001002 0.000746 0.002505
0.000529 0.000584 0.002962
0.000483 0.000583 0.002978
0.000459 0.000585 0.002983
0.001277 0.000507 0.002711
0.000624 0.000363 0.002695
0.001179 0.000711 0.00265
0.001387 0.000708 0.002651
0.000649 0.000675 0.002534
0.001326 0.00064 0.002703
0.001349 0.000641 0.002694
0.000434 0.00056 0.002986
0.001372 0.000586 0.002686
0.000848 0.00073 0.002346
0.001039 0.000456 0.002536
0.00111 0.000419 0.002597
0.000589 0.000392 0.002825
0.000643 0.000487 0.002593
3.7e-05 -2.2e-05 0.00216
-0.000599 0.000492 0.002956
-0.000575 0.000466 0.002961
-0.001129 0.000633 0.002485
-0.001355 0.000586 0.002647
-0.000675 0.000686 0.002865
-0.000508 -1.8e-05 0.002116
-0.000484 -1.9e-05 0.002117
-0.000459 -2e-05 0.00212
-0.000435 -2.1e-05 0.002121
-0.00041 -2.1e-05 0.002123
-0.000385 -2.2e-05 0.002124
-0.000361 -2.3e-05 0.002126
-0.000336 -2.3e-05 0.002128
-0.000311 -2.4e-05 0.002129
-0.000287 -2.5e-05 0.00213
-0.000262 -2.5e-05 0.002131
-0.000237 -2.6e-05 0.002133
-0.000213 -2.6e-05 0.002133
-0.000188 -2.7e-05 0.002134
-0.000164 -2.7e-05 0.002135
-0.000139 -2.7e-05 0.002136
-0.000114 -2.8e-05 0.002137
-9e-05 -2.8e-05 0.002137
-6.5e-05 -2.8e-05 0.002138
-4e-05 -2.8e-05 0.002138
-1.6e-05 -2.8e-05 0.002138
9e-06 -2.8e-05 0.002138
3.4e-05 -2.8e-05 0.002138
5.8e-05 -2.8e-05 0.002137
8.3e-05 -2.8e-05 0.002138
0.000107 -2.8e-05 0.002137
0.000132 -2.7e-05 0.002136
0.000157 -2.7e-05 0.002136
0.000181 -2.6e-05 0.002134
0.000206 -2.6e-05 0.002134
0.000231 -2.6e-05 0.002133
0.000255 -2.5e-05 0.002132
0.00028 -2.5e-05 0.002131
0.000305 -2.4e-05 0.002129
0.000329 -2.4e-05 0.002128
0.001146 0.000726 0.002628
0.00065 0.000728 0.002537
0.000562 0.000552 0.002901
0.00135 0.000557 0.002698
0.001328 0.000556 0.002708
0.000483 0.000556 0.002979
0.00135 0.000584 0.002697
0.000458 0.000558 0.002982
0.000878 0.000719 0.002362
0.001178 0.000495 0.002647
0.00135 0.000448 0.002698
0.000601 0.000463 0.002784
-0.001747 0.0007 0.001923
-0.000526 0.000496 0.00297
-0.000599 0.000465 0.002956
-0.000803 0.000716 0.002335
-0.001094 0.000652 0.002453
-0.001163 0.000562 0.002514
-0.001355 0.000531 0.002648
-0.000735 0.000621 0.002629
-0.000982 0.000666 0.002334
-0.001196 0.000545 0.00254
-0.001293 0.000502 0.002609
-0.001531 0.000628 0.002591
-0.000713 0.000551 0.002731
-0.000674 0.000715 0.002861
-0.000311 -3.5e-05 0.002094
-0.000623 0.000465 0.00295
-0.000262 -3.7e-05 0.002098
-0.000237 -3.8e-05 0.002099
-0.000213 -3.8e-05 0.002099
-0.000188 -3.8e-05 0.0021
-0.000164 -3.9e-05 0.002102
-0.000139 -3.9e-05 0.002103
-0.000114 -3.9e-05 0.002103
-9e-05 -4e-05 0.002104
-6.5e-05 -3.9e-05 0.002104
-4e-05 -4e-05 0.002104
-1.6e-05 -4e-05 0.002104
9e-06 -3.9e-05 0.002104
3.4e-05 -3.9e-05 0.002104
5.8e-05 -3.9e-05 0.002104
8.3e-05 -3.9e-05 0.002103
0.000107 -3.9e-05 0.002103
0.000132 -3.9e-05 0.002103
0.000157 -3.9e-05 0.002102
0.000181 -3.8e-05 0.002101
0.000206 -3.7e-05 0.0021
0.000231 -3.7e-05 0.002098
0.000255 -3.6e-05 0.002098
0.00028 -3.6e-05 0.002096
0.000304 -3.5e-05 0.002095
0.000329 -3.4e-05 0.002094
0.001373 0.000423 0.002687
0.00135 0.000421 0.002698
0.001328 0.000419 0.002709
0.001178 0.000468 0.002647
0.001212 0.000453 0.002671
0.00082 0.000655 0.00234
0.000643 0.000568 0.002595
0.000634 0.000546 0.002647
0.00053 0.00042 0.002964
0.001145 0.000511 0.002623
0.001328 0.000447 0.002709
0.001373 0.00045 0.002687
-0.000848 0.000666 0.002313
-0.000825 0.000664 0.002322
-0.000803 0.000662 0.002334
-0.000782 0.000657 0.002352
-0.000764 0.000648 0.002378
-0.000749 0.000633 0.002415
-0.000743 0.000565 0.002568
-0.000735 0.000539 0.002629
-0.000725 0.000516 0.002683
-0.000714 0.000496 0.002733
-0.000702 0.000476 0.00278
-0.000689 0.000458 0.002824
-0.000675 0.000442 0.002864
-0.000661 0.000426 0.002903
-0.000645 0.000414 0.002936
-0.000623 0.00041 0.00295
-0.000599 0.000411 0.002956
-0.000575 0.000412 0.002961
-0.000551 0.000413 0.002966
-0.000526 0.000414 0.00297
-0.00137 0.000506 0.002656
-0.001837 0.000739 0.001972
-0.002286 0.000718 0.001841
-0.001386 0.000412 0.002662
-0.001355 0.000423 0.002647
-0.001325 0.000435 0.002629
-0.001293 0.000448 0.002609
-0.001262 0.000461 0.002588
-0.001229 0.000476 0.002565
-0.001196 0.000491 0.002541
-0.001163 0.000507 0.002515
-0.001129 0.000524 0.002486
-0.001094 0.000544 0.002453
-0.001058 0.000565 0.002416
-0.001021 0.000587 0.002377
-0.000982 0.000611 0.002334
-0.00095 0.000625 0.002313
-0.000923 0.000632 0.002305
-0.000896 0.000637 0.002303
-0.000871 0.000639 0.002306
-0.000848 0.000638 0.002313
-0.000825 0.000637 0.002322
-0.000803 0.000634 0.002334
-0.000782 0.000629 0.002352
-0.000764 0.000621 0.002377
-0.000725 0.000489 0.002684
-0.000714 0.000468 0.002733
-0.000702 0.000449 0.00278
-0.000689 0.000431 0.002824
-0.000675 0.000415 0.002864
-0.000661 0.000399 0.002904
-0.000645 0.000387 0.002936
-0.000623 0.000383 0.00295
-0.000599 0.000384 0.002956
-0.000575 0.000385 0.002961
-0.00055 0.000386 0.002965
-0.000526 0.000387 0.00297
-0.001564 0.000553 0.002552
-0.0018 0.000753 0.00196
-0.002023 0.000695 0.002037
-0.001386 0.000385 0.002662
-0.001355 0.000396 0.002646
-0.001325 0.000408 0.002628
-0.001293 0.00042 0.002609
-0.001261 0.000435 0.002587
-0.001229 0.000449 0.002565
-0.001196 0.000464 0.00254
-0.001163 0.00048 0.002515
-0.001129 0.000497 0.002485
-0.001094 0.000516 0.002453
-0.001057 0.000538 0.002416
-0.001021 0.000559 0.002378
-0.000982 0.000585 0.002333
-0.00095 0.000598 0.002313
-0.000922 0.000605 0.002305
-0.000896 0.000609 0.002303
-0.000872 0.000611 0.002306
-0.000848 0.000611 0.002313
-0.000825 0.00061 0.002322
-0.000803 0.000607 0.002334
-0.000782 0.000602 0.002352
-0.000764 0.000593 0.002378
-0.000749 0.00058 0.002412
-0.000714 0.000441 0.002733
-0.000702 0.000422 0.00278
-0.000689 0.000404 0.002824
-0.000675 0.000388 0.002863
-0.000661 0.000372 0.002903
-0.000645 0.000359 0.002936
-0.000623 0.000356 0.00295
-0.000599 0.000357 0.002955
-0.000575 0.000358 0.00296
-0.00055 0.000359 0.002965
-0.002059 0.000573 0.002045
1.3e-05 -2e-05 0.002165
-0.001557 0.000704 0.002311
-0.001385 0.000358 0.002662
-0.001355 0.000368 0.002647
-0.001325 0.000381 0.002628
-0.001293 0.000393 0.002609
-0.001261 0.000408 0.002586
-0.001229 0.000422 0.002564
-0.001196 0.000436 0.002541
-0.001163 0.000453 0.002515
-0.001129 0.00047 0.002486
-0.001094 0.00049 0.002452
-0.001058 0.00051 0.002416
-0.00102 0.000533 0.002377
-0.000982 0.000558 0.002333
-0.00095 0.000571 0.002312
-0.000922 0.000578 0.002305
-0.000896 0.000582 0.002303
-0.000871 0.000584 0.002306
-0.000848 0.000584 0.002313
-0.000825 0.000583 0.002322
-0.000803 0.00058 0.002334
-0.000782 0.000575 0.002352
-0.000764 0.000566 0.002379
-0.00075 0.000551 0.002416
-0.000726 0.000433 0.002686
-0.000714 0.000414 0.002733
-0.000702 0.000394 0.00278
-0.000689 0.000376 0.002824
-0.000675 0.000361 0.002864
-0.000661 0.000344 0.002904
-0.000645 0.000332 0.002936
-0.000623 0.000329 0.00295
-0.000599 0.00033 0.002956
-0.000575 0.000331 0.002961
-0.00055 0.000332 0.002965
-0.001491 0.000491 0.00262
-0.00271 0.000697 0.001234
-0.001567 0.000641 0.002465
-0.001385 0.000331 0.002661
-0.001355 0.000341 0.002647
-0.001324 0.000354 0.002628
-0.001293 0.000366 0.00261
-0.001261 0.00038 0.002587
-0.001229 0.000395 0.002564
-0.001197 0.000409 0.002541
-0.001163 0.000425 0.002514
-0.001129 0.000443 0.002485
-0.001094 0.000462 0.002453
-0.001058 0.000483 0.002417
-0.00102 0.000506 0.002376
-0.000982 0.000531 0.002332
-0.00095 0.000544 0.002312
-0.000922 0.000551 0.002305
-0.000896 0.000555 0.002303
-0.000871 0.000557 0.002306
-0.000848 0.000557 0.002312
-0.000825 0.000556 0.002322
-0.000802 0.000553 0.002334
-0.000782 0.000547 0.002353
-0.000764 0.000538 0.002379
-0.000725 0.000407 0.002685
-0.000714 0.000387 0.002734
-0.000702 0.000368 0.00278
-0.000689 0.000349 0.002824
-0.000675 0.000333 0.002864
-0.000661 0.000317 0.002904
-0.000645 0.000305 0.002936
-0.000623 0.000302 0.00295
-0.000599 0.000302 0.002956
-0.000575 0.000303 0.002961
-0.000551 0.000304 0.002966
-0.000526 0.000306 0.00297
-0.001913 0.000628 0.002
-0.001562 0.000654 0.002365
-0.001563 0.000608 0.00255
-0.001567 0.000695 0.002465
-0.001355 0.000314 0.002647
-0.001324 0.000326 0.002629
-0.001293 0.000339 0.002609
-0.001261 0.000353 0.002588
-0.001229 0.000367 0.002565
-0.001196 0.000382 0.00254
-0.001163 0.000399 0.002514
-0.001129 0.000416 0.002486
-0.001094 0.000435 0.002453
-0.001058 0.000456 0.002417
-0.000982 0.000503 0.002333
-0.00095 0.000517 0.002312
-0.000922 0.000524 0.002305
-0.000896 0.000528 0.002303
-0.000871 0.00053 0.002306
-0.000848 0.00053 0.002313
-0.000825 0.000529 0.002322
-0.000802 0.000526 0.002334
-0.000782 0.00052 0.002353
-0.000764 0.000511 0.002379
-0.000725 0.000379 0.002685
-0.000714 0.000359 0.002734
-0.000702 0.00034 0.00278
-0.000689 0.000322 0.002825
-0.000675 0.000306 0.002864
-0.000661 0.00029 0.002905
-0.000644 0.000278 0.002936
-0.000623 0.000275 0.00295
-0.000599 0.000275 0.002956
-0.000575 0.000276 0.002961
-0.000551 0.000277 0.002966
-0.000526 0.000278 0.002971
-0.001951 0.000613 0.002013
-0.001567 0.000614 0.002465
-0.001551 0.000601 0.002576
-0.001395 0.000664 0.002653
-0.001354 0.000287 0.002648
-0.001323 0.000299 0.002629
-0.001293 0.000312 0.00261
-0.001261 0.000326 0.002587
-0.001229 0.00034 0.002564
-0.001196 0.000355 0.002541
-0.001163 0.000371 0.002514
-0.001129 0.000388 0.002486
-0.001094 0.000408 0.002453
-0.001058 0.000429 0.002417
-0.000982 0.000476 0.002332
-0.00095 0.000489 0.002313
-0.000922 0.000496 0.002305
-0.000896 0.000501 0.002303
-0.000871 0.000503 0.002306
-0.000848 0.000503 0.002313
-0.000825 0.000501 0.002322
-0.000802 0.000499 0.002334
-0.000782 0.000493 0.002352
-0.000764 0.000484 0.002379
-0.00075 0.000468 0.002418
-0.000735 0.000376 0.002629
-0.000725 0.000352 0.002685
-0.000714 0.000332 0.002734
-0.000702 0.000313 0.002781
-0.000689 0.000295 0.002825
-0.000675 0.000279 0.002864
-0.000661 0.000263 0.002904
-0.000644 0.000251 0.002935
-0.000623 0.000248 0.00295
-0.000599 0.000248 0.002956
-0.000575 0.000249 0.002962
-0.000551 0.00025 0.002966
-0.000526 0.000251 0.002971
-0.000502 0.000252 0.002975
-0.001426 0.000575 0.002655
-0.001557 0.000677 0.002311
-0.001566 0.00066 0.002417
-0.00156 0.000665 0.002545
-0.001354 0.00026 0.002648
-0.001323 0.000272 0.002631
-0.001293 0.000284 0.002611
-0.001262 0.000298 0.002589
-0.001196 0.000328 0.00254
-0.001163 0.000344 0.002514
-0.001129 0.000361 0.002486
-0.001093 0.000381 0.002452
-0.001058 0.000401 0.002417
-0.00102 0.000425 0.002376
-0.000982 0.000449 0.002332
-0.00095 0.000462 0.002313
-0.000922 0.000469 0.002304
-0.000896 0.000474 0.002303
-0.000871 0.000475 0.002306
-0.000848 0.000476 0.002313
-0.000825 0.000474 0.002322
-0.000802 0.000471 0.002334
-0.000782 0.000466 0.002353
-0.000764 0.000457 0.002378
-0.000726 0.000325 0.002686
-0.000714 0.000305 0.002733
-0.000702 0.000286 0.002781
-0.000689 0.000267 0.002825
-0.000675 0.000252 0.002864
-0.000661 0.000236 0.002904
-0.000644 0.000224 0.002935
-0.000623 0.000221 0.002949
-0.000599 0.000221 0.002956
-0.000575 0.000221 0.002961
-0.00055 0.000223 0.002966
-0.000526 0.000224 0.00297
-0.000502 0.000225 0.002975
-0.000345 -3.6e-05 0.002085
-0.001703 0.000747 0.001899
-0.001773 0.000759 0.001963
-0.001468 0.000628 0.002631
-0.001385 0.000222 0.002661
-0.001354 0.000233 0.002647
-0.001323 0.000245 0.002631
-0.001291 0.000257 0.002616
-0.001263 0.000268 0.002593
-0.001229 0.000285 0.002566
-0.001196 0.000301 0.002539
-0.001163 0.000316 0.002515
-0.001129 0.000334 0.002485
-0.001093 0.000354 0.002452
-0.001058 0.000374 0.002417
-0.00102 0.000398 0.002375
-0.000981 0.000422 0.002331
-0.00095 0.000435 0.002313
-0.000922 0.000442 0.002305
-0.000896 0.000447 0.002303
-0.000871 0.000448 0.002306
-0.000848 0.000448 0.002313
-0.000825 0.000447 0.002322
-0.000802 0.000444 0.002334
-0.000782 0.000439 0.002353
-0.000764 0.00043 0.002378
-0.000369 -3.7e-05 0.00208
-0.000743 0.000348 0.002569
-0.000726 0.000297 0.002687
-0.000714 0.000277 0.002734
-0.000702 0.000259 0.00278
-0.000689 0.00024 0.002825
-0.000675 0.000225 0.002864
-0.000661 0.000208 0.002904
-0.000644 0.000197 0.002934
-0.000622 0.000194 0.002948
-0.000599 0.000194 0.002956
-0.000575 0.000194 0.002961
-0.000551 0.000195 0.002966
-0.000526 0.000197 0.00297
-0.001402 0.000577 0.002662
-0.001873 0.000726 0.001983
-0.001423 0.000631 0.002651
-0.001385 0.000195 0.00266
-0.001355 0.000206 0.002647
-0.001324 0.000218 0.002629
-0.001292 0.00023 0.002613
-0.001229 0.000258 0.002566
-0.001196 0.000274 0.002539
-0.001163 0.00029 0.002514
-0.001129 0.000307 0.002486
-0.001093 0.000327 0.002452
-0.001058 0.000347 0.002417
-0.00102 0.000371 0.002375
-0.000982 0.000395 0.002332
-0.00095 0.000408 0.002312
-0.000922 0.000415 0.002305
-0.000896 0.000419 0.002303
-0.000871 0.000421 0.002306
-0.000848 0.000421 0.002312
-0.000825 0.00042 0.002322
-0.000802 0.000417 0.002335
-0.000782 0.000412 0.002353
-0.000764 0.000403 0.002378
-0.000743 0.00032 0.00257
-0.000735 0.000294 0.002631
-0.000726 0.00027 0.002687
-0.000714 0.000251 0.002733
-0.000702 0.000231 0.00278
-0.000689 0.000213 0.002825
-0.000675 0.000198 0.002864
-0.000661 0.000181 0.002904
-0.000644 0.000171 0.002933
-0.000622 0.000168 0.002946
-0.000598 0.000167 0.002955
-0.000575 0.000168 0.002961
-0.00055 0.000169 0.002965
-0.000526 0.00017 0.00297
-0.001533 0.000544 0.002595
-0.002058 0.000655 0.002048
-0.001446 0.000629 0.002642
-0.001385 0.000169 0.002659
-0.001355 0.000178 0.002647
-0.001324 0.00019 0.002628
-0.001293 0.000203 0.002609
-0.000393 -3.8e-05 0.002074
-0.00123 0.000229 0.00257
-0.001196 0.000247 0.002539
-0.001163 0.000263 0.002513
-0.001129 0.00028 0.002486
-0.001094 0.000299 0.002452
-0.001058 0.00032 0.002417
-0.001019 0.000344 0.002374
-0.000981 0.000368 0.002332
-0.00095 0.000381 0.002312
-0.000922 0.000388 0.002305
-0.000896 0.000392 0.002303
-0.000871 0.000394 0.002306
-0.000848 0.000394 0.002313
-0.000825 0.000393 0.002322
-0.000802 0.00039 0.002335
-0.000782 0.000384 0.002353
-0.000764 0.000376 0.002378
-0.000743 0.000292 0.002571
-0.000735 0.000267 0.002631
-0.000726 0.000243 0.002686
-0.000714 0.000224 0.002733
-0.000702 0.000204 0.00278
-0.000689 0.000187 0.002824
-0.000675 0.00017 0.002865
-0.000661 0.000154 0.002904
-0.000643 0.000145 0.002931
-0.000621 0.000142 0.002943
-0.000598 0.000141 0.002952
-0.000574 0.000141 0.002958
-0.00055 0.000142 0.002964
-0.000525 0.000144 0.002968
-0.001426 0.00052 0.002656
-0.001988 0.000681 0.002025
-0.001549 0.00063 0.002574
-0.001384 0.000142 0.002658
-0.001355 0.000151 0.002646
-0.001324 0.000163 0.002628
-0.001293 0.000176 0.002608
-0.001129 0.000253 0.002485
-0.001094 0.000272 0.002453
-0.001058 0.000293 0.002417
-0.001019 0.000317 0.002373
-0.000981 0.000341 0.002331
-0.00095 0.000354 0.002312
-0.000922 0.000361 0.002305
-0.000896 0.000365 0.002303
-0.000871 0.000367 0.002306
-0.000847 0.000367 0.002312
-0.000824 0.000366 0.002322
-0.000802 0.000363 0.002335
-0.000782 0.000357 0.002353
-0.000764 0.000348 0.002378
-0.000743 0.000266 0.00257
-0.000735 0.000239 0.002631
-0.000726 0.000215 0.002687
-0.000714 0.000196 0.002733
-0.000702 0.000177 0.00278
-0.000689 0.000159 0.002825
-0.000675 0.000143 0.002864
-0.00066 0.000127 0.002903
-0.000642 0.000119 0.002927
-0.000619 0.000117 0.002938
-0.000596 0.000116 0.002947
-0.000573 0.000116 0.002954
-0.000548 0.000117 0.002959
-0.000524 0.000119 0.002963
-0.000417 -3.8e-05 0.002068
-0.001988 0.000571 0.002026
-0.001568 0.000734 0.0019
-0.001562 0.000636 0.002549
-0.001383 0.000117 0.002654
-0.001355 0.000124 0.002646
-0.001324 0.000136 0.002628
-0.001293 0.000149 0.002608
-0.001262 0.000162 0.002589
-0.00123 0.000175 0.002568
-0.00044 -3.8e-05 0.002062
-0.001128 0.000227 0.002483
-0.001093 0.000245 0.002452
-0.001057 0.000266 0.002416
-0.000981 0.000315 0.00233
-0.00095 0.000326 0.002312
-0.000922 0.000334 0.002305
-0.000896 0.000338 0.002303
-0.000871 0.00034 0.002306
-0.000848 0.00034 0.002313
-0.000825 0.000338 0.002322
-0.000802 0.000335 0.002335
-0.000782 0.00033 0.002352
-0.000764 0.000321 0.002378
-0.000464 -3.9e-05 0.002055
-0.000488 -3.9e-05 0.002049
-0.000743 0.000237 0.002572
-0.000735 0.000212 0.002632
-0.000726 0.000188 0.002687
-0.000713 0.00017 0.002733
-0.000702 0.00015 0.00278
-0.000689 0.000132 0.002825
-0.000675 0.000116 0.002864
-0.00066 0.000101 0.002901
-0.00064 9.5e-05 0.002921
-0.000617 9.4e-05 0.002931
-0.000594 9.3e-05 0.00294
-0.00057 9.3e-05 0.002947
-0.000546 9.3e-05 0.002952
-0.000522 9.5e-05 0.002956
-0.000512 -3.9e-05 0.002042
-0.001873 0.000644 0.001983
-0.001448 0.000601 0.002644
-0.001566 0.000687 0.002417
-0.001381 9.3e-05 0.002648
-0.001354 9.8e-05 0.002643
-0.001324 0.000109 0.002628
-0.001293 0.000122 0.002608
-0.001262 0.000135 0.002589
-0.001231 0.000147 0.002571
-0.001128 0.000199 0.002484
-0.001093 0.000218 0.002452
-0.001057 0.000239 0.002416
-0.001019 0.000263 0.002374
-0.000981 0.000287 0.002331
-0.00095 0.000299 0.002312
-0.000922 0.000307 0.002305
-0.000896 0.000311 0.002303
-0.000871 0.000313 0.002306
-0.000847 0.000312 0.002313
-0.000825 0.000311 0.002322
-0.000802 0.000308 0.002335
-0.000782 0.000303 0.002352
-0.000764 0.000294 0.002379
-0.000743 0.000211 0.002571
-0.000735 0.000186 0.00263
-0.000726 0.000161 0.002687
-0.000714 0.000142 0.002733
-0.000701 0.000123 0.00278
-0.000689 0.000105 0.002825
-0.000675 8.9e-05 0.002864
-0.000658 7.7e-05 0.002896
-0.000637 7.2e-05 0.002911
-0.000614 7.1e-05 0.002921
-0.000591 7e-05 0.002929
-0.000567 7.1e-05 0.002936
-0.000543 7.1e-05 0.002942
-0.00137 0.00056 0.002656
-0.001469 0.0006 0.002632
-0.002059 0.000709 0.002045
-0.001379 7e-05 0.002639
-0.001353 7.3e-05 0.002639
-0.001324 8.2e-05 0.002628
-0.001292 9.5e-05 0.002608
-0.001261 0.000108 0.002589
-0.00123 0.000121 0.002568
-0.001197 0.000137 0.002542
-0.001163 0.000153 0.002515
-0.001128 0.000172 0.002484
-0.001093 0.000191 0.002452
-0.001057 0.000211 0.002417
-0.001019 0.000236 0.002373
-0.000981 0.00026 0.002331
-0.00095 0.000272 0.002312
-0.000922 0.00028 0.002305
-0.000896 0.000283 0.002303
-0.000871 0.000285 0.002306
-0.000847 0.000285 0.002313
-0.000825 0.000284 0.002322
-0.000802 0.000281 0.002335
-0.000782 0.000276 0.002353
-0.000764 0.000266 0.002379
-0.00075 0.000251 0.002418
-0.000743 0.000184 0.00257
-0.000735 0.000158 0.002631
-0.000726 0.000134 0.002688
-0.000713 0.000115 0.002733
-0.000702 9.6e-05 0.00278
-0.000689 7.8e-05 0.002824
-0.000674 6.2e-05 0.002862
-0.000656 5.4e-05 0.002887
-0.000634 5.1e-05 0.002899
-0.000611 5e-05 0.002909
-0.000587 5e-05 0.002916
-0.000564 5e-05 0.002923
-0.000539 5.1e-05 0.002928
-0.000515 5.2e-05 0.002933
-0.001564 0.000581 0.002551
-0.001491 0.000599 0.00262
-0.001444 0.000658 0.002638
-0.001375 4.8e-05 0.002627
-0.001351 5e-05 0.002631
-0.001323 5.6e-05 0.002625
-0.001292 6.7e-05 0.002609
-0.00126 8.1e-05 0.002588
-0.001229 9.5e-05 0.002566
-0.001196 0.00011 0.002541
-0.001163 0.000126 0.002516
-0.001129 0.000144 0.002485
-0.001093 0.000164 0.002452
-0.001057 0.000184 0.002416
-0.001019 0.000209 0.002373
-0.000981 0.000233 0.002331
-0.00095 0.000245 0.002312
-0.000922 0.000252 0.002304
-0.000896 0.000256 0.002303
-0.000871 0.000258 0.002306
-0.000848 0.000258 0.002313
-0.000825 0.000257 0.002322
-0.000803 0.000254 0.002335
-0.000782 0.000248 0.002353
-0.000764 0.00024 0.002378
-0.00075 0.000224 0.002418
-0.000743 0.000157 0.002569
-0.000735 0.000131 0.00263
-0.000726 0.000107 0.002687
-0.000713 8.9e-05 0.002732
-0.000701 6.8e-05 0.00278
-0.000688 5.1e-05 0.002823
-0.000672 3.9e-05 0.002855
-0.000651 3.3e-05 0.002873
-0.000629 3.1e-05 0.002884
-0.000606 3e-05 0.002893
-0.000583 3e-05 0.002901
-0.000559 3e-05 0.002907
-0.000535 3.1e-05 0.002913
-0.00051 3.2e-05 0.002917
0.001039 -2.1e-05 0.001896
-0.001566 0.000651 0.00251
-0.001394 2.9e-05 0.002604
-0.001371 2.9e-05 0.002612
-0.001347 3e-05 0.002616
-0.001321 3.3e-05 0.002616
-0.001292 4.2e-05 0.002606
-0.00126 5.4e-05 0.002588
-0.001228 6.9e-05 0.002563
-0.001196 8.4e-05 0.00254
-0.001163 9.9e-05 0.002516
-0.001128 0.000117 0.002484
-0.001093 0.000137 0.002451
-0.001057 0.000157 0.002416
-0.001019 0.000181 0.002374
-0.000981 0.000205 0.002331
-0.00095 0.000218 0.002311
-0.000922 0.000225 0.002304
-0.000896 0.000229 0.002303
-0.000871 0.000231 0.002306
-0.000847 0.000231 0.002313
-0.000824 0.00023 0.002322
-0.000802 0.000227 0.002335
-0.000782 0.000221 0.002353
-0.000764 0.000213 0.002378
-0.00075 0.000197 0.002417
-0.000535 -3.9e-05 0.002036
-0.000725 8e-05 0.002687
-0.000713 6.1e-05 0.002732
-0.000701 4.1e-05 0.00278
-0.000686 2.7e-05 0.002817
-0.000668 1.9e-05 0.00284
-0.000646 1.5e-05 0.002854
-0.000624 1.3e-05 0.002865
-0.0006 1.3e-05 0.002873
-0.000577 1.3e-05 0.002881
-0.000553 1.3e-05 0.002887
-0.000529 1.3e-05 0.002893
-0.000505 1.5e-05 0.002898
-0.001434 1.5e-05 0.002566
-0.001412 1.2e-05 0.002576
-0.001388 1.2e-05 0.002584
-0.001365 1.2e-05 0.002591
-0.001341 1.2e-05 0.002597
-0.001316 1.4e-05 0.002599
-0.001289 1.9e-05 0.002596
-0.00126 2.9e-05 0.002584
-0.001229 4.1e-05 0.002565
-0.001196 5.7e-05 0.00254
-0.001163 7.2e-05 0.002514
-0.001128 9.1e-05 0.002483
-0.001093 0.000109 0.002451
-0.001057 0.00013 0.002417
-0.001019 0.000154 0.002373
-0.000981 0.000178 0.00233
-0.00095 0.000191 0.002312
-0.000922 0.000198 0.002304
-0.000896 0.000202 0.002303
-0.000871 0.000204 0.002306
-0.000847 0.000204 0.002313
-0.000824 0.000202 0.002322
-0.000802 0.0002 0.002335
-0.000782 0.000194 0.002353
-0.000764 0.000186 0.002378
-0.000749 0.000171 0.002416
-0.000559 -3.9e-05 0.00203
-0.000699 1.8e-05 0.002773
-0.000682 8e-06 0.0028
-0.000661 3e-06 0.002817
-0.000638 1e-06 0.002828
-0.000616 -1e-06 0.002838
-0.000592 -1e-06 0.002846
-0.000569 -1e-06 0.002853
-0.000545 -0.0 0.002859
-0.000521 0.0 0.002865
-0.001426 -0.0 0.002538
-0.001403 -1e-06 0.002548
-0.00138 -1e-06 0.002554
-0.001356 -1e-06 0.002561
-0.001332 -1e-06 0.002568
-0.001309 -1e-06 0.002574
-0.001283 2e-06 0.002575
-0.001256 8e-06 0.002571
-0.001227 1.6e-05 0.00256
-0.001196 2.9e-05 0.00254
-0.001162 4.6e-05 0.002513
-0.001128 6.3e-05 0.002484
-0.001093 8.2e-05 0.002452
-0.001057 0.000103 0.002415
-0.00098 0.000152 0.002329
-0.00095 0.000164 0.002311
-0.000922 0.000171 0.002305
-0.000896 0.000175 0.002303
-0.000871 0.000177 0.002306
-0.000847 0.000177 0.002313
-0.000824 0.000175 0.002322
-0.000802 0.000172 0.002335
-0.000782 0.000167 0.002353
-0.000764 0.000159 0.002378
-0.000735 4.8e-05 0.002632
-0.000725 2.7e-05 0.002684
-0.000711 1e-05 0.002725
-0.000693 0.0 0.002752
-0.000673 -5e-06 0.002769
-0.00065 -6e-06 0.00278
-0.000581 -6e-06 0.0028
-0.000555 -6e-06 0.002807
-0.000532 -5e-06 0.002815
-0.001413 -5e-06 0.002492
-0.00139 -6e-06 0.002501
-0.001367 -7e-06 0.00251
-0.001344 -8e-06 0.002519
-0.00132 -8e-06 0.002527
-0.001296 -7e-06 0.002531
-0.001272 -6e-06 0.002536
-0.001248 -5e-06 0.002541
-0.001221 -1e-06 0.00254
-0.001193 7e-06 0.00253
-0.001162 1.9e-05 0.002511
-0.001128 3.6e-05 0.002484
-0.001093 5.6e-05 0.00245
-0.001057 7.6e-05 0.002416
-0.00098 0.000125 0.002329
-0.00095 0.000137 0.002311
-0.000922 0.000144 0.002304
-0.000896 0.000148 0.002303
-0.000871 0.000149 0.002306
-0.000847 0.000149 0.002313
-0.000824 0.000148 0.002322
-0.000802 0.000145 0.002335
-0.000782 0.00014 0.002353
-0.000764 0.000131 0.002378
-0.000749 0.000116 0.002416
-0.000735 2.2e-05 0.00263
-0.000722 5e-06 0.002674
-0.000703 -4e-06 0.002698
-0.00068 -5e-06 0.002708
-0.000657 -6e-06 0.002715
-0.000583 -3.9e-05 0.002023
-0.000607 -4e-05 0.002016
-0.001398 -7e-06 0.002441
-0.001374 -7e-06 0.002448
-0.00135 -7e-06 0.002453
-0.001327 -7e-06 0.002461
-0.001303 -7e-06 0.002468
-0.00128 -7e-06 0.002476
-0.001256 -7e-06 0.002481
-0.001232 -6e-06 0.002487
-0.001208 -6e-06 0.002494
-0.001184 -6e-06 0.0025
-0.001157 -1e-06 0.002496
-0.001127 1e-05 0.002481
-0.001094 2.7e-05 0.002453
-0.001057 4.9e-05 0.002415
-0.000981 9.7e-05 0.002329
-0.00095 0.00011 0.002311
-0.000922 0.000116 0.002304
-0.000896 0.00012 0.002303
-0.000871 0.000122 0.002306
-0.000847 0.000122 0.002313
-0.000824 0.000121 0.002322
-0.000802 0.000118 0.002335
-0.000782 0.000113 0.002353
-0.000764 0.000104 0.002379
-0.00075 8.8e-05 0.002418
-0.000731 0.0 0.002619
-0.000713 -8e-06 0.002643
-0.00069 -9e-06 0.002653
-0.000667 -1e-05 0.002661
-0.00063 -4e-05 0.002009
-0.000654 -4e-05 0.002002
-0.000677 -3.9e-05 0.001994
-0.000429 -7e-06 0.002725
-0.000701 -3.9e-05 0.001987
-0.001382 -8e-06 0.002387
-0.001358 -8e-06 0.002394
-0.001335 -9e-06 0.002402
-0.001312 -1e-05 0.002411
-0.001289 -1.1e-05 0.00242
-0.001193 -9e-06 0.002443
-0.00117 -9e-06 0.002451
-0.001146 -8e-06 0.002456
-0.00112 -5e-06 0.002456
-0.001091 3e-06 0.002446
-0.001058 2e-05 0.002419
-0.00098 7.1e-05 0.002328
-0.000949 8.2e-05 0.002311
-0.000922 9e-05 0.002303
-0.000896 9.3e-05 0.002303
-0.000871 9.5e-05 0.002306
-0.000847 9.5e-05 0.002313
-0.000825 9.3e-05 0.002323
-0.000802 9.1e-05 0.002335
-0.000782 8.5e-05 0.002353
-0.000764 7.6e-05 0.002379
-0.000749 6.2e-05 0.002416
-0.00074 -2e-06 0.002561
-0.000721 -9e-06 0.002582
-0.000697 -9e-06 0.002589
-0.000673 -8e-06 0.002595
-0.00065 -8e-06 0.002602
-0.000626 -8e-06 0.002608
-0.000414 -9e-06 0.002673
-0.000391 -1e-05 0.002683
-0.000366 -9e-06 0.002687
-0.001318 -8e-06 0.002344
-0.001295 -8e-06 0.002352
-0.001247 -7e-06 0.002364
-0.001224 -8e-06 0.002372
-0.001988 0.000599 0.002025
-0.001176 -7e-06 0.002383
-0.001153 -7e-06 0.002391
-0.001105 -7e-06 0.002405
-0.001081 -6e-06 0.00241
-0.001054 -1e-06 0.002407
-0.00098 4.3e-05 0.002328
-0.00095 5.5e-05 0.002311
-0.000922 6.2e-05 0.002303
-0.000896 6.6e-05 0.002302
-0.000871 6.8e-05 0.002306
-0.000847 6.8e-05 0.002313
-0.000824 6.6e-05 0.002322
-0.000802 6.4e-05 0.002335
-0.000781 5.8e-05 0.002352
-0.000764 4.9e-05 0.002379
-0.000728 -8e-06 0.002518
-0.000704 -8e-06 0.002525
-0.00068 -8e-06 0.002531
-0.000656 -7e-06 0.002537
-0.000633 -8e-06 0.002545
-0.000609 -8e-06 0.002552
-0.000396 -7e-06 0.002613
-0.000372 -6e-06 0.002618
-0.000348 -6e-06 0.002624
-0.000325 -7e-06 0.002633
-0.001349 -8e-06 0.002274
-0.001326 -8e-06 0.002281
-0.001302 -8e-06 0.002288
-0.001255 -8e-06 0.002302
-0.001231 -8e-06 0.002309
-0.00166 0.000737 0.001882
-0.002024 0.000586 0.002036
-0.002172 0.000443 0.002069
-0.001491 0.000545 0.00262
-0.001114 -1e-05 0.002348
-0.001091 -1e-05 0.002356
-0.001068 -1.1e-05 0.002364
-0.001491 0.000726 0.002574
-0.000981 1.5e-05 0.002331
-0.000949 2.8e-05 0.002311
-0.000921 3.6e-05 0.002303
-0.000895 3.9e-05 0.002302
-0.000871 4.1e-05 0.002306
-0.000847 4.1e-05 0.002313
-0.000824 3.9e-05 0.002322
-0.002091 0.000699 0.00205
-0.001503 0.000688 0.002593
-0.001482 0.000688 0.002606
-0.000737 -1.2e-05 0.002463
-0.000714 -1.2e-05 0.00247
-0.00031 -9e-06 0.002582
-0.000286 -9e-06 0.002588
-0.000262 -9e-06 0.002595
-0.000239 -9e-06 0.002603
-0.000724 -3.9e-05 0.001979
-0.001335 -1.1e-05 0.002225
-0.001311 -1.1e-05 0.002232
-0.001264 -1.1e-05 0.002246
-0.00124 -1.1e-05 0.002253
-0.001216 -1.1e-05 0.002259
-0.001193 -1.1e-05 0.002266
-0.002442 0.000613 0.001267
-0.001074 -1e-05 0.002298
-0.002058 0.000682 0.002046
-0.002023 0.00064 0.002036
-0.001512 0.000545 0.002607
-0.001491 0.000572 0.00262
-0.00095 1e-06 0.002312
-0.000921 8e-06 0.002303
-0.000896 1.2e-05 0.002302
-0.000871 1.4e-05 0.002306
-0.000847 1.4e-05 0.002313
-0.000824 1.2e-05 0.002322
-0.001488 0.000656 0.002616
-0.00228 0.000464 0.001967
-0.000745 -1.3e-05 0.002402
-0.00072 -1.1e-05 0.002405
-0.000554 -9e-06 0.00245
-0.000531 -9e-06 0.002456
-0.000294 -1e-05 0.002528
-0.000271 -1e-05 0.002535
-0.000247 -1.1e-05 0.002544
-0.000224 -1.1e-05 0.00255
-0.0002 -1e-05 0.002556
-0.000748 -3.8e-05 0.001972
-0.001247 -1e-05 0.002188
-0.001223 -9e-06 0.002193
-0.001199 -9e-06 0.002199
-0.001175 -9e-06 0.002206
-0.001151 -9e-06 0.002212
-0.000771 -3.8e-05 0.001964
-0.001081 -1e-05 0.002235
-0.001058 -1e-05 0.002242
-0.001564 0.000708 0.002505
-0.001794 0.000731 0.00195
-0.001522 0.00069 0.002577
-0.000964 -1e-05 0.002272
-0.00094 -1e-05 0.002278
-0.000916 -9e-06 0.002284
-0.000892 -9e-06 0.00229
-0.000868 -9e-06 0.002296
-0.000844 -8e-06 0.002302
-0.000821 -1e-05 0.002312
-0.000799 -1.1e-05 0.002322
-0.001485 0.000725 0.002024
-0.000728 -1.1e-05 0.002342
-0.000704 -1.1e-05 0.002349
-0.00068 -1.1e-05 0.002356
-0.000633 -9e-06 0.002369
-0.000538 -1.1e-05 0.002398
-0.000515 -1.1e-05 0.002404
-0.000491 -1.1e-05 0.002411
-0.000301 -1e-05 0.002463
-0.000277 -1e-05 0.002469
-0.000253 -8e-06 0.002476
-0.00023 -9e-06 0.002484
-0.000206 -8e-06 0.00249
-0.000182 -8e-06 0.002496
-0.000795 -3.8e-05 0.001956
-0.001562 0.000573 0.002365
-0.001524 0.000749 0.001939
-0.001469 0.000518 0.002632
-0.001557 0.00073 0.002312
-0.001952 0.000667 0.002014
-0.000818 -3.7e-05 0.001948
-0.001402 0.00055 0.002664
-0.001065 -9e-06 0.002178
-0.001041 -9e-06 0.002185
-0.001017 -9e-06 0.002192
-0.000947 -9e-06 0.002213
-0.000923 -9e-06 0.00222
-0.000899 -9e-06 0.002226
-0.000876 -9e-06 0.002235
-0.000852 -9e-06 0.002241
-0.000828 -9e-06 0.002247
-0.000804 -8e-06 0.002253
-0.000781 -1e-05 0.002263
-0.001533 0.000572 0.002594
-0.000841 -3.7e-05 0.00194
-0.000662 -8e-06 0.002295
-0.000639 -8e-06 0.002302
-0.000615 -9e-06 0.002309
-0.000591 -9e-06 0.002315
-0.000521 -9e-06 0.002336
-0.000497 -8e-06 0.002343
-0.000474 -9e-06 0.002352
-0.000308 -9e-06 0.0024
-0.000285 -9e-06 0.002407
-0.000864 -3.6e-05 0.001931
-0.001402 0.000495 0.002664
-0.001557 0.000594 0.002312
-0.001542 0.000752 0.001922
-0.001875 0.000697 0.001985
-0.001791 0.000679 0.001946
-0.001533 0.000517 0.002595
-0.001552 0.000518 0.002579
-0.001791 0.000707 0.001946
-0.001072 -1e-05 0.002117
-0.001049 -1e-05 0.002124
-0.001025 -1e-05 0.002131
-0.001002 -1e-05 0.002139
-0.000906 -9e-06 0.002163
-0.001988 0.000653 0.002025
-0.001565 0.000606 0.002416
-0.001562 0.000627 0.002365
-0.001555 0.000697 0.002537
-0.000789 -1e-05 0.0022
-0.000764 -8e-06 0.002204
-0.001512 0.000571 0.002608
-0.000671 -1.1e-05 0.002236
-0.000647 -1e-05 0.002242
-0.000623 -9e-06 0.002247
-0.000599 -9e-06 0.002255
-0.000576 -1e-05 0.002262
-0.000363 -9e-06 0.002323
-0.000338 -1e-05 0.00233
-0.000316 -1e-05 0.002339
-0.000292 -1e-05 0.002345
-0.000269 -1e-05 0.002353
-0.000197 -9e-06 0.002372
-0.000127 -9e-06 0.002394
-0.000103 -9e-06 0.002399
-0.001567 0.000723 0.002464
-0.001512 0.00049 0.002608
-0.001565 0.000579 0.002415
-0.001484 0.000699 0.002024
-0.001834 0.000715 0.001967
-0.001913 0.000682 0.002
-0.001127 -9e-06 0.002039
-0.001103 -1e-05 0.002046
-0.001079 -9e-06 0.002052
-0.001056 -9e-06 0.002059
-0.001032 -1e-05 0.002068
-0.001009 -1e-05 0.002075
-0.000985 -1e-05 0.002081
-0.00154 0.000692 0.002559
-0.001469 0.000491 0.002632
-0.00076 0.000782 0.002345
-0.002132 0.000458 0.002066
-0.001875 0.00067 0.001985
-0.001913 0.000655 0.001999
-0.001632 0.000744 0.001882
-0.001566 0.00057 0.002509
-0.001491 0.000518 0.00262
-0.000654 -9e-06 0.002177
-0.000629 -8e-06 0.002182
-0.000607 -9e-06 0.002191
-0.000582 -9e-06 0.002197
-0.000558 -8e-06 0.002202
-0.000347 -1e-05 0.002269
-0.000323 -1e-05 0.002276
-0.000299 -9e-06 0.002281
-0.000275 -9e-06 0.002288
-0.000252 -9e-06 0.002295
-0.000204 -9e-06 0.002308
-0.000181 -9e-06 0.002315
-8.6e-05 -8e-06 0.002341
-0.001567 0.000559 0.002465
-0.001388 0.000698 0.002642
-0.001414 0.000694 0.002637
-0.00111 -9e-06 0.001983
-0.001087 -1.1e-05 0.001992
-0.000992 -1e-05 0.002018
-0.000969 -1e-05 0.002025
-0.000945 -1e-05 0.002032
-0.000921 -1e-05 0.002039
-0.00149 0.000627 0.002619
-0.00157 0.00076 0.001903
-0.001448 0.000519 0.002644
-0.000827 -1.1e-05 0.002067
-0.000803 -1e-05 0.002075
-0.00078 -1e-05 0.002081
-0.001834 0.000687 0.001967
-0.001748 0.000726 0.001924
-0.001567 0.000587 0.002464
-0.000662 -1.1e-05 0.002119
-0.000638 -1.1e-05 0.002125
-0.000614 -1e-05 0.002131
-0.000591 -1.1e-05 0.002139
-0.000568 -1.1e-05 0.002146
-0.00033 -1e-05 0.002213
-0.000307 -1e-05 0.00222
-0.000283 -1e-05 0.002227
-0.000259 -9e-06 0.002232
-0.001552 0.000573 0.002578
-0.001469 0.000573 0.002632
-0.001189 -1e-05 0.001901
-0.001165 -1e-05 0.001908
-0.001141 -9e-06 0.001913
-0.001118 -1e-05 0.001921
-0.002024 0.000558 0.002036
-0.002091 0.000535 0.002058
-0.001448 0.000492 0.002644
-0.001533 0.00049 0.002595
-0.001552 0.000491 0.002579
-0.001564 0.000499 0.002552
-0.002024 0.000722 0.002036
-0.000931 -1.4e-05 0.001985
-0.000907 -1.4e-05 0.001991
-0.00209 0.000728 0.002047
-0.001508 0.000656 0.002602
-0.000838 -1.6e-05 0.002017
-0.000814 -1.6e-05 0.002024
-0.000791 -1.6e-05 0.002031
-0.000767 -1.7e-05 0.002039
-0.001546 0.00066 0.002569
-0.001402 0.000523 0.002664
-0.001512 0.000517 0.002608
-0.001468 0.000727 0.002585
-0.00065 -1.8e-05 0.002075
-0.000626 -1.8e-05 0.002082
-0.000603 -1.8e-05 0.00209
-0.000579 -1.7e-05 0.002096
-0.000555 -1.8e-05 0.002103
-0.000532 -1.8e-05 0.002111
-0.000317 -1.5e-05 0.002167
-0.000293 -1.4e-05 0.002173
-0.00027 -1.4e-05 0.00218
-0.001447 0.000546 0.002644
-0.001951 0.00064 0.002013
