-0.002216 0.000545 0.002042
-0.001612 0.000744 0.001906
-0.001539 0.000247 0.002239
-0.001549 0.000221 0.0023
-0.001553 0.000199 0.002353
-0.001558 0.000177 0.002406
-0.00156 0.000157 0.002455
-0.001561 0.000139 0.002501
-0.001558 0.000123 0.002543
-0.001545 0.000116 0.002569
-0.001527 0.000114 0.002586
-0.001508 0.000113 0.002601
-0.001487 0.000113 0.002615
-0.001466 0.000113 0.002628
-0.001444 0.000114 0.00264
-0.001422 0.000116 0.00265
-0.001398 0.000118 0.002659
-0.002102 0.000146 0.002067
-0.002069 0.000156 0.002062
-0.002034 0.000169 0.002053
-0.001999 0.000181 0.002043
-0.001964 0.000194 0.002034
-0.001926 0.000209 0.00202
-0.001887 0.000224 0.002006
-0.001848 0.00024 0.001989
-0.001806 0.000259 0.00197
-0.001763 0.000278 0.001948
-0.001716 0.000301 0.00192
-0.001673 0.00032 0.001898
-0.00164 0.000331 0.001893
-0.001612 0.000336 0.001896
-0.001588 0.00034 0.001903
-0.001566 0.000341 0.001914
-0.001546 0.00034 0.001928
-0.002193 0.000657 0.002055
-0.002265 0.000571 0.001987
-0.002199 0.000545 0.00206
-0.002181 0.000492 0.002077
-0.001539 0.00022 0.002239
-0.001549 0.000194 0.002299
-0.001554 0.000171 0.002354
-0.001559 0.000149 0.002407
-0.00156 0.00013 0.002455
-0.00156 0.000112 0.002501
-0.001556 9.8e-05 0.00254
-0.001541 9.3e-05 0.002563
-0.001523 9.1e-05 0.002579
-0.001503 9e-05 0.002594
-0.001483 9e-05 0.002608
-0.001462 9e-05 0.002621
-0.00144 9.1e-05 0.002633
-0.001417 9.2e-05 0.002643
-0.001394 9.4e-05 0.002652
-0.002102 0.000119 0.002067
-0.002069 0.000129 0.002062
-0.002035 0.000141 0.002054
-0.001999 0.000154 0.002044
-0.001964 0.000167 0.002034
-0.001926 0.000181 0.002021
-0.001887 0.000197 0.002005
-0.001848 0.000213 0.00199
-0.001806 0.000232 0.001969
-0.001763 0.000251 0.001948
-0.001715 0.000274 0.001919
-0.001673 0.000293 0.001898
-0.00164 0.000303 0.001893
-0.001612 0.000309 0.001895
-0.001588 0.000313 0.001903
-0.001566 0.000314 0.001914
-0.001546 0.000313 0.001928
-0.002275 0.00067 0.001832
-0.00218 0.000574 0.002076
-0.002056 0.000594 0.002062
-0.002213 0.000705 0.001254
-0.001524 0.000224 0.002169
-0.001539 0.000193 0.002238
-0.001548 0.000167 0.002299
-0.001555 0.000143 0.002355
-0.001559 0.000122 0.002407
-0.00156 0.000103 0.002454
-0.00156 8.5e-05 0.0025
-0.001552 7.4e-05 0.002534
-0.001536 7e-05 0.002554
-0.001517 6.9e-05 0.00257
-0.001497 6.8e-05 0.002585
-0.001477 6.8e-05 0.002599
-0.001456 6.8e-05 0.002611
-0.001434 6.9e-05 0.002623
-0.001411 7e-05 0.002634
-0.001388 7.2e-05 0.002644
-0.002101 9.2e-05 0.002066
-0.002068 0.000103 0.002061
-0.002034 0.000114 0.002053
-0.001999 0.000127 0.002044
-0.001963 0.00014 0.002033
-0.001927 0.000154 0.002022
-0.001887 0.00017 0.002005
-0.001846 0.000187 0.001988
-0.001806 0.000204 0.001969
-0.001762 0.000224 0.001948
-0.001715 0.000247 0.001919
-0.001673 0.000266 0.001898
-0.00164 0.000276 0.001893
-0.001612 0.000282 0.001896
-0.001588 0.000285 0.001903
-0.001566 0.000287 0.001914
-0.001546 0.000286 0.001928
-0.002257 0.000691 0.001783
-0.002151 0.000609 0.002083
-0.002232 0.000544 0.002024
-0.002282 0.000489 0.001969
-0.001524 0.000197 0.002169
-0.001539 0.000166 0.002238
-0.001555 0.000116 0.002355
-0.001559 9.5e-05 0.002406
-0.00156 7.6e-05 0.002455
-0.001558 5.9e-05 0.002498
-0.001546 5.2e-05 0.002525
-0.001529 4.9e-05 0.002543
-0.00151 4.8e-05 0.002559
-0.00149 4.7e-05 0.002573
-0.001469 4.7e-05 0.002587
-0.001448 4.7e-05 0.0026
-0.001426 4.8e-05 0.002611
-0.001404 4.9e-05 0.002622
-0.001381 5.1e-05 0.002632
-0.002788 0.000645 0.001053
-0.002068 7.6e-05 0.002062
-0.002034 8.7e-05 0.002053
-0.001999 0.0001 0.002044
-0.001963 0.000113 0.002033
-0.001926 0.000127 0.00202
-0.001887 0.000143 0.002005
-0.001847 0.00016 0.001988
-0.001806 0.000177 0.00197
-0.001763 0.000197 0.001948
-0.001716 0.000219 0.00192
-0.001672 0.000239 0.001898
-0.00164 0.000249 0.001893
-0.001613 0.000255 0.001896
-0.001588 0.000258 0.001903
-0.001566 0.000259 0.001914
-0.001546 0.000258 0.001929
-0.002107 0.000681 0.002077
-0.002295 0.000573 0.001948
-0.002281 0.000544 0.001968
-0.001484 0.000726 0.002024
-0.00154 0.000138 0.00224
-0.001549 0.000113 0.002299
-0.001555 8.9e-05 0.002355
-0.001558 6.8e-05 0.002406
-0.001558 5e-05 0.002452
-0.001553 3.7e-05 0.002489
-0.001538 3.2e-05 0.002512
-0.00152 3e-05 0.002529
-0.0015 2.9e-05 0.002544
-0.00148 2.8e-05 0.002559
-0.00146 2.8e-05 0.002572
-0.001438 2.8e-05 0.002585
-0.001417 2.9e-05 0.002597
-0.001395 3e-05 0.002608
-0.001372 3.2e-05 0.002618
-0.002128 0.000701 0.001278
-0.00215 0.000637 0.002082
-0.002034 6e-05 0.002054
-0.001999 7.2e-05 0.002044
-0.001963 8.6e-05 0.002033
-0.001925 0.0001 0.00202
-0.001887 0.000116 0.002005
-0.001846 0.000133 0.001987
-0.001806 0.00015 0.00197
-0.001762 0.00017 0.001947
-0.001716 0.000192 0.00192
-0.001672 0.000212 0.001898
-0.00164 0.000222 0.001893
-0.001613 0.000228 0.001896
-0.001588 0.000231 0.001904
-0.001566 0.000232 0.001915
-0.001546 0.000231 0.001929
-0.002147 0.000666 0.002079
-0.002249 0.000571 0.002005
-0.002181 0.000546 0.002077
-0.002249 0.000517 0.002006
-0.001539 0.000111 0.002239
-0.001549 8.5e-05 0.0023
-0.001554 6.3e-05 0.002354
-0.001558 4.1e-05 0.002405
-0.001555 2.6e-05 0.002446
-0.001544 1.8e-05 0.002475
-0.001527 1.4e-05 0.002495
-0.001508 1.2e-05 0.002511
-0.001489 1.2e-05 0.002526
-0.001468 1.1e-05 0.00254
-0.001448 1.1e-05 0.002554
-0.001427 1.1e-05 0.002566
-0.001405 1.2e-05 0.002578
-0.001383 1.3e-05 0.00259
-0.001361 1.5e-05 0.0026
-0.002109 0.00073 0.001294
-0.002395 0.000741 0.001282
-0.002032 3.4e-05 0.002051
-0.001998 4.6e-05 0.002043
-0.001963 5.9e-05 0.002033
-0.001926 7.3e-05 0.00202
-0.001887 8.9e-05 0.002005
-0.001846 0.000106 0.001987
-0.001805 0.000123 0.001969
-0.001761 0.000144 0.001946
-0.001716 0.000165 0.00192
-0.001672 0.000185 0.001898
-0.00164 0.000194 0.001893
-0.001613 0.0002 0.001896
-0.001588 0.000204 0.001904
-0.001566 0.000205 0.001915
-0.001546 0.000204 0.001929
-0.002276 0.000656 0.001963
-0.002199 0.000572 0.00206
-0.00247 0.000661 0.001282
-0.002213 0.000732 0.001254
-0.001539 8.5e-05 0.002238
-0.00155 5.7e-05 0.002301
-0.001553 3.6e-05 0.002352
-0.001554 1.8e-05 0.002399
-0.001545 7e-06 0.002431
-0.00153 3e-06 0.002453
-0.001512 0.0 0.002471
-0.001492 -0.0 0.002485
-0.001471 -0.0 0.002498
-0.001451 -1e-06 0.002513
-0.00143 -1e-06 0.002526
-0.001409 -1e-06 0.002539
-0.001389 -1e-06 0.002552
-0.002079 0.0007 0.001334
-0.00247 0.000688 0.001282
-0.002026 1.2e-05 0.002041
-0.001996 2.1e-05 0.002039
-0.001963 3.2e-05 0.002032
-0.001925 4.6e-05 0.002019
-0.001886 6.2e-05 0.002005
-0.001846 7.9e-05 0.001987
-0.001805 9.6e-05 0.001968
-0.00176 0.000117 0.001944
-0.001715 0.000138 0.001919
-0.001672 0.000158 0.001898
-0.00164 0.000167 0.001893
-0.001613 0.000173 0.001897
-0.001588 0.000176 0.001904
-0.001566 0.000177 0.001915
-0.001546 0.000177 0.001929
-0.002292 0.000629 0.001945
-0.002151 0.000582 0.002083
-0.002265 0.000544 0.001987
-0.002093 0.000729 0.001313
-0.001524 8.8e-05 0.00217
-0.001539 5.7e-05 0.002239
-0.001548 3.1e-05 0.002299
-0.00155 1.2e-05 0.002347
-0.001542 0.0 0.002381
-0.001527 -4e-06 0.002403
-0.001508 -6e-06 0.00242
-0.001489 -7e-06 0.002435
-0.001468 -7e-06 0.002448
-0.001447 -7e-06 0.002461
-0.001426 -7e-06 0.002474
-0.001405 -7e-06 0.002487
-0.002758 0.000502 0.001015
-0.002035 -4e-06 0.002009
-0.002012 -3e-06 0.002019
-0.001987 2e-06 0.002024
-0.001958 9e-06 0.002025
-0.001924 2e-05 0.002017
-0.001886 3.5e-05 0.002004
-0.001847 5.1e-05 0.001988
-0.001805 6.9e-05 0.001969
-0.001761 8.9e-05 0.001945
-0.001672 0.00013 0.001897
-0.00164 0.00014 0.001893
-0.001612 0.000146 0.001896
-0.001588 0.000149 0.001904
-0.001566 0.00015 0.001915
-0.001546 0.00015 0.001929
-0.002173 0.00066 0.002069
-0.002434 0.000727 0.001287
-0.002292 0.000568 0.001879
-0.002789 0.000575 0.001135
-0.001043 -3.8e-05 0.001829
-0.001544 8e-06 0.002293
-0.001536 -3e-06 0.002325
-0.001517 -5e-06 0.002342
-0.001498 -6e-06 0.002357
-0.001477 -6e-06 0.00237
-0.001456 -6e-06 0.002384
-0.001436 -6e-06 0.002397
-0.001414 -6e-06 0.00241
-0.001394 -6e-06 0.002423
-0.001373 -6e-06 0.002436
-0.001064 -3.8e-05 0.001816
-0.002025 -5e-06 0.001947
-0.002006 -7e-06 0.001963
-0.001985 -7e-06 0.001977
-0.001964 -6e-06 0.001988
-0.001941 -4e-06 0.001999
-0.001916 0.0 0.002005
-0.001884 1e-05 0.002
-0.001847 2.4e-05 0.001988
-0.001805 4.2e-05 0.001968
-0.00176 6.3e-05 0.001944
-0.001715 8.3e-05 0.00192
-0.001671 0.000104 0.001896
-0.00164 0.000113 0.001893
-0.001612 0.000119 0.001896
-0.001588 0.000122 0.001904
-0.001566 0.000123 0.001915
-0.001546 0.000122 0.001929
-0.002103 0.000711 0.002074
-0.002233 0.000599 0.002024
-0.002353 0.00073 0.001282
-0.002106 0.000491 0.002077
-0.001536 5e-06 0.002234
-0.001529 -6e-06 0.002268
-0.001512 -1e-05 0.002288
-0.00149 -9e-06 0.0023
-0.00147 -9e-06 0.002313
-0.001449 -9e-06 0.002326
-0.001428 -9e-06 0.00234
-0.001407 -9e-06 0.002352
-0.001386 -8e-06 0.002365
-0.001282 -8e-06 0.002431
-0.001261 -8e-06 0.002444
-0.001239 -7e-06 0.002456
-0.001996 -7e-06 0.001902
-0.001976 -8e-06 0.001916
-0.001956 -8e-06 0.00193
-0.001936 -9e-06 0.001945
-0.001916 -9e-06 0.001959
-0.001894 -8e-06 0.00197
-0.001869 -5e-06 0.001978
-0.00184 2e-06 0.001978
-0.001806 1.4e-05 0.00197
-0.001761 3.5e-05 0.001945
-0.001716 5.6e-05 0.00192
-0.001672 7.6e-05 0.001898
-0.001639 8.6e-05 0.001892
-0.001612 9.2e-05 0.001896
-0.001588 9.5e-05 0.001904
-0.001566 9.6e-05 0.001915
-0.002259 0.000717 0.001785
-0.002216 0.000626 0.002041
-0.00247 0.000715 0.001287
-0.002276 0.000588 0.001833
-0.002292 0.000513 0.001879
-0.001518 -6e-06 0.002206
-0.001498 -7e-06 0.00222
-0.001478 -7e-06 0.002234
-0.001457 -7e-06 0.002247
-0.001437 -8e-06 0.002262
-0.001416 -8e-06 0.002275
-0.001394 -6e-06 0.002286
-0.001373 -7e-06 0.0023
-0.001353 -7e-06 0.002313
-0.001249 -7e-06 0.00238
-0.001228 -7e-06 0.002393
-0.001208 -7e-06 0.002406
-0.001188 -8e-06 0.002422
-0.001168 -8e-06 0.002436
-0.001146 -8e-06 0.002448
-0.001967 -8e-06 0.001856
-0.001945 -8e-06 0.001868
-0.001924 -7e-06 0.00188
-0.001902 -7e-06 0.001892
-0.00188 -6e-06 0.001904
-0.00186 -7e-06 0.001918
-0.00184 -7e-06 0.001932
-0.001818 -6e-06 0.001943
-0.001794 -3e-06 0.001952
-0.001763 6e-06 0.001948
-0.001715 3e-05 0.001919
-0.001672 4.9e-05 0.001897
-0.001639 5.9e-05 0.001893
-0.001612 6.5e-05 0.001896
-0.001588 6.8e-05 0.001903
-0.001566 6.9e-05 0.001915
-0.002223 0.000686 0.002015
-0.002106 0.000654 0.002077
-0.002435 0.0007 0.001284
-0.002275 0.000534 0.001832
-0.002302 0.000497 0.001921
-0.001085 -3.8e-05 0.001803
-0.00149 -9e-06 0.002162
-0.001469 -9e-06 0.002175
-0.001447 -8e-06 0.002187
-0.001428 -9e-06 0.002201
-0.001407 -9e-06 0.002214
-0.001386 -9e-06 0.002229
-0.001365 -9e-06 0.002241
-0.001344 -8e-06 0.002253
-0.001323 -8e-06 0.002267
-0.001303 -9e-06 0.002281
-0.001106 -3.8e-05 0.00179
-0.001198 -8e-06 0.002345
-0.001177 -8e-06 0.002359
-0.001157 -8e-06 0.002373
-0.001135 -7e-06 0.002385
-0.001114 -7e-06 0.002398
-0.001933 -7e-06 0.001802
-0.001912 -7e-06 0.001817
-0.001893 -8e-06 0.001831
-0.001872 -8e-06 0.001845
-0.001852 -9e-06 0.001859
-0.001582 0.000752 0.001913
-0.001812 -1e-05 0.001888
-0.001792 -1.1e-05 0.001903
-0.001771 -1e-05 0.001916
-0.001748 -8e-06 0.001926
-0.001671 2.3e-05 0.001896
-0.001639 3.2e-05 0.001892
-0.001612 3.8e-05 0.001895
-0.001587 4.1e-05 0.001903
-0.002293 0.000621 0.00188
-0.002056 0.000676 0.002061
-0.002199 0.0006 0.002059
-0.002179 0.000602 0.002075
-0.001483 0.000743 0.002056
-0.001127 -3.9e-05 0.001777
-0.001148 -3.8e-05 0.001763
-0.001168 -3.8e-05 0.00175
-0.001128 -1e-05 0.002328
-0.001107 -1e-05 0.00234
-0.001086 -1e-05 0.002353
-0.000887 5.4e-05 0.002316
-0.00086 6e-05 0.00232
-0.002275 0.000561 0.001832
-0.001885 -1e-05 0.001773
-0.001863 -9e-06 0.001785
-0.001843 -1e-05 0.0018
-0.003001 0.00047 0.000209
-0.001758 -9e-06 0.00185
-0.001737 -8e-06 0.001862
-0.001716 -8e-06 0.001876
-0.001695 -8e-06 0.001888
-0.001669 -3e-06 0.001893
-0.001639 5e-06 0.001892
-0.001611 1.1e-05 0.001894
-0.002275 0.000724 0.001831
-0.002166 0.000719 0.001607
-0.002396 0.000659 0.001283
-0.002258 0.000582 0.001784
-0.002282 0.000517 0.001968
-0.002276 0.000479 0.001833
-0.001488 -8e-06 0.002022
-0.001189 -3.8e-05 0.001736
-0.001209 -3.8e-05 0.001723
0.000808 -2.7e-05 0.001982
0.000785 -2.7e-05 0.00199
0.000761 -2.7e-05 0.001998
-0.001229 -3.7e-05 0.001708
-0.001072 -7e-06 0.002286
-0.001052 -8e-06 0.0023
-0.000887 2.8e-05 0.002316
-0.00086 3.3e-05 0.00232
-0.000835 3.7e-05 0.002327
-0.00247 0.000579 0.001283
-0.001849 -7e-06 0.001718
-0.001829 -7e-06 0.001732
-0.001808 -7e-06 0.001744
-0.001483 0.000717 0.002055
-0.001706 -7e-06 0.001813
-0.001685 -8e-06 0.001827
-0.001664 -8e-06 0.001839
-0.001644 -8e-06 0.001853
-0.001624 -9e-06 0.001868
-0.00125 -3.8e-05 0.001695
-0.001271 -3.7e-05 0.001681
-0.001458 -9e-06 0.001974
-0.001435 -7e-06 0.001984
-0.001416 -8e-06 0.002
-0.001395 -8e-06 0.002013
-0.001372 -7e-06 0.002024
-0.001351 -6e-06 0.002035
0.000738 -2.7e-05 0.002006
-0.001291 -3.7e-05 0.001667
-0.001187 -8e-06 0.002145
-0.001166 -8e-06 0.002158
-0.001145 -8e-06 0.002171
-0.001063 -8e-06 0.002226
-0.001042 -8e-06 0.002238
-0.001021 -8e-06 0.002252
-0.001001 -9e-06 0.002267
-0.000981 -9e-06 0.00228
-0.000959 -8e-06 0.002292
-0.000887 0.0 0.002316
-0.000861 5e-06 0.002321
-0.001841 -8e-06 0.001658
-0.001819 -7e-06 0.00167
-0.001797 -7e-06 0.001682
-0.001778 -8e-06 0.001697
-0.001757 -8e-06 0.00171
-0.002093 0.000702 0.001313
-0.00231 0.00072 0.001273
-0.002297 0.000436 0.001949
-0.002302 0.000443 0.001921
-0.002309 0.000638 0.001273
-0.002393 0.000607 0.00128
-0.002181 0.000465 0.002077
-0.0022 0.000463 0.002061
-0.001311 -3.6e-05 0.001653
-0.001552 -1e-05 0.001847
-0.00153 -9e-06 0.001858
-0.001509 -9e-06 0.001872
-0.001488 -9e-06 0.001885
-0.001468 -9e-06 0.001899
-0.001448 -1e-05 0.001913
-0.001428 -1e-05 0.001927
-0.001408 -1.1e-05 0.001942
-0.001387 -1.1e-05 0.001955
-0.001366 -1.1e-05 0.001968
-0.001346 -1.1e-05 0.001982
-0.001324 -1e-05 0.001994
-0.001331 -3.6e-05 0.001638
-0.001351 -3.5e-05 0.001625
-0.001159 -1.1e-05 0.002102
-0.001138 -1.1e-05 0.002115
-0.001117 -1e-05 0.002127
-0.001096 -1e-05 0.00214
-0.001054 -1e-05 0.002166
-0.001032 -9e-06 0.002178
-0.001012 -9e-06 0.002192
-0.00097 -9e-06 0.002217
-0.000949 -8e-06 0.00223
-0.000928 -9e-06 0.002243
0.000715 -2.8e-05 0.002014
0.000691 -2.8e-05 0.002021
-0.001808 -7e-06 0.001607
-0.001789 -9e-06 0.001623
-0.001768 -9e-06 0.001637
-0.00175 -1.1e-05 0.001653
-0.001728 -1.1e-05 0.001666
-0.001708 -1.1e-05 0.00168
-0.001687 -1e-05 0.001692
-0.002081 0.000754 0.001335
-0.001623 -9e-06 0.001729
-0.001601 -8e-06 0.001741
-0.001372 -3.5e-05 0.00161
-0.001499 -9e-06 0.001809
-0.001478 -9e-06 0.001823
-0.00228 0.000691 0.001934
-0.001436 -9e-06 0.001848
-0.001416 -9e-06 0.001862
-0.001395 -9e-06 0.001876
-0.001373 -8e-06 0.001888
-0.001354 -9e-06 0.001903
-0.001333 -9e-06 0.001916
-0.001311 -8e-06 0.001927
-0.001291 -9e-06 0.001942
-0.001508 0.000708 0.002142
-0.001229 -9e-06 0.001982
-0.001208 -9e-06 0.001995
-0.001187 -8e-06 0.002008
-0.001125 -8e-06 0.002048
-0.001105 -9e-06 0.002062
-0.001083 -9e-06 0.002074
-0.001022 -9e-06 0.002115
-0.000939 -9e-06 0.002168
-0.000918 -9e-06 0.002182
-0.000898 -1e-05 0.002197
0.000668 -2.8e-05 0.002029
0.000644 -2.8e-05 0.002037
0.000621 -2.8e-05 0.002044
-0.001778 -9e-06 0.00156
-0.001758 -9e-06 0.001574
-0.001737 -9e-06 0.001587
-0.001694 -8e-06 0.001612
-0.001675 -9e-06 0.001628
-0.001655 -1e-05 0.001642
-0.00247 0.000606 0.001282
-0.001496 0.000759 0.001998
-0.001591 -9e-06 0.00168
-0.001571 -9e-06 0.001694
-0.001552 -1e-05 0.001709
-0.001531 -1e-05 0.001722
-0.001468 -1e-05 0.001762
-0.001448 -1e-05 0.001776
-0.001405 -9e-06 0.0018
-0.001384 -8e-06 0.001813
-0.001363 -8e-06 0.001826
-0.001343 -9e-06 0.00184
-0.001321 -8e-06 0.001852
-0.001302 -9e-06 0.001867
-0.00128 -9e-06 0.001879
-0.00215 0.000697 0.001265
-0.001197 -8e-06 0.001932
-0.001177 -9e-06 0.001947
-0.001155 -8e-06 0.001958
-0.001093 -8e-06 0.001998
-0.001072 -8e-06 0.002011
-0.001052 -8e-06 0.002025
-0.001578 0.000728 0.00191
-0.000908 -1e-05 0.002121
-0.000887 -1e-05 0.002134
-0.000866 -8e-06 0.002146
0.000597 -2.8e-05 0.002052
-0.001493 0.000727 0.002097
-0.002152 0.0005 0.002084
-0.002296 0.000518 0.001949
-0.002258 0.0005 0.001784
-0.002237 0.000523 0.001733
-0.002302 0.00047 0.001921
-0.00225 0.000489 0.002006
-0.001539 -9e-06 0.001644
-0.001519 -9e-06 0.001658
-0.001498 -9e-06 0.001671
-0.001504 0.00076 0.001976
-0.002268 0.000688 0.001956
-0.002128 0.000728 0.001279
-0.001374 -9e-06 0.001752
-0.001354 -1e-05 0.001765
-0.001332 -9e-06 0.001778
-0.001313 -1e-05 0.001793
-0.001292 -1e-05 0.001807
-0.001272 -1e-05 0.00182
-0.001251 -1.1e-05 0.001834
-0.002238 0.00055 0.001734
-0.001169 -1.1e-05 0.001888
-0.001147 -1.1e-05 0.0019
-0.001126 -1e-05 0.001913
-0.001106 -1e-05 0.001926
-0.001085 -1.1e-05 0.00194
-0.001064 -1e-05 0.001952
-0.001043 -1e-05 0.001965
-0.001022 -1e-05 0.001978
-0.000917 -9e-06 0.002043
-0.000897 -9e-06 0.002057
-0.000875 -9e-06 0.002069
-0.000855 -9e-06 0.002083
-0.002292 0.000486 0.001879
-0.002683 0.000619 0.001276
-0.002079 0.000728 0.001334
-0.002261 0.000685 0.001263
-0.002308 0.000666 0.001272
-0.001538 0.000759 0.00194
-0.001555 0.000757 0.001921
-0.002106 0.000518 0.002077
-0.002233 0.000489 0.002024
-0.002296 0.000491 0.001949
-0.002257 0.000663 0.001784
-0.002288 0.000696 0.001908
-0.002286 0.000707 0.001874
-0.002261 0.000713 0.001263
-0.001508 0.000735 0.002143
-0.002281 0.000599 0.001968
-0.002266 0.000517 0.001987
-0.002181 0.000519 0.002077
-0.002185 0.000676 0.001643
-0.00133 -1.6e-05 0.001728
-0.001309 -1.6e-05 0.001741
-0.001289 -1.6e-05 0.001755
-0.001269 -1.7e-05 0.00177
-0.001248 -1.7e-05 0.001783
-0.001227 -1.7e-05 0.001796
-0.001207 -1.7e-05 0.00181
-0.001186 -1.7e-05 0.001823
-0.001165 -1.7e-05 0.001836
-0.001145 -1.8e-05 0.00185
-0.001124 -1.7e-05 0.001863
-0.001103 -1.8e-05 0.001877
-0.001082 -1.7e-05 0.001889
-0.00106 -1.6e-05 0.001901
-0.00104 -1.7e-05 0.001915
-0.001019 -1.6e-05 0.001928
-0.000998 -1.6e-05 0.001941
-0.000977 -1.6e-05 0.001954
-0.000956 -1.6e-05 0.001966
-0.000935 -1.5e-05 0.001979
-0.000892 -1.5e-05 0.002004
-0.000871 -1.4e-05 0.002016
-0.00085 -1.4e-05 0.002029
-0.000679 -1e-05 0.002129
-0.000658 -1e-05 0.002141
-0.001504 0.000734 0.001976
-0.001536 0.000734 0.001938
-0.002737 0.000602 0.001247
-0.002435 0.000618 0.001284
-0.00152 0.000761 0.001957
-0.002258 0.000554 0.001784
-0.00231 0.000693 0.001273
-0.002216 0.000517 0.002042
-0.002302 0.000524 0.001921
-0.002275 0.000643 0.001832
-0.002275 0.000697 0.001832
-0.002234 0.000743 0.00173
-0.002164 0.000693 0.002062
-0.002185 0.000689 0.002048
-0.002205 0.000687 0.002032
-0.00139 -2.3e-05 0.001639
-0.00137 -2.4e-05 0.001653
-0.00135 -2.5e-05 0.001668
-0.00133 -2.5e-05 0.001682
-0.00131 -2.6e-05 0.001696
-0.001289 -2.6e-05 0.00171
-0.001269 -2.6e-05 0.001724
-0.001248 -2.6e-05 0.001738
-0.001228 -2.7e-05 0.001752
-0.001207 -2.7e-05 0.001765
-0.001187 -2.7e-05 0.001779
-0.001166 -2.7e-05 0.001792
-0.001145 -2.7e-05 0.001805
-0.001124 -2.7e-05 0.001818
-0.001103 -2.7e-05 0.001831
-0.001082 -2.7e-05 0.001844
-0.001062 -2.7e-05 0.001857
-0.001041 -2.6e-05 0.00187
-0.00102 -2.6e-05 0.001883
-0.000999 -2.6e-05 0.001896
-0.000977 -2.5e-05 0.001908
-0.000956 -2.5e-05 0.001921
-0.000934 -2.4e-05 0.001932
-0.000913 -2.3e-05 0.001945
-0.000891 -2.3e-05 0.001957
-0.000654 -1.5e-05 0.002088
-0.000632 -1.4e-05 0.002099
-0.001518 0.000735 0.001955
-0.002292 0.000459 0.001879
-0.001556 0.000732 0.001923
-0.002276 0.000506 0.001833
-0.002177 0.000717 0.001255
-0.001486 0.000752 0.002025
-0.002237 0.000577 0.001733
-0.002351 0.000677 0.001276
-0.002233 0.000517 0.002024
-0.002292 0.00054 0.001879
-0.00225 0.000435 0.002006
-0.002233 0.000435 0.002024
-0.002217 0.000436 0.002043
-0.0022 0.000436 0.00206
-0.002181 0.000437 0.002077
-0.002152 0.000446 0.002084
-0.002106 0.000464 0.002076
-0.001578 0.000701 0.001909
-0.001555 0.000705 0.001922
-0.001535 0.000707 0.001938
-0.001518 0.000708 0.001955
-0.001504 0.000707 0.001975
-0.001493 0.000704 0.001998
-0.001484 0.000699 0.002023
-0.001483 0.000689 0.002055
-0.001494 0.000673 0.002097
-0.001508 0.000654 0.002143
-0.002471 0.000551 0.001283
-0.002435 0.000564 0.001284
-0.002394 0.000579 0.001281
-0.002352 0.000595 0.001277
-0.002309 0.000612 0.001272
-0.002262 0.00063 0.001264
-0.002213 0.000651 0.001254
-0.002177 0.000663 0.001255
-0.00215 0.00067 0.001265
-0.002128 0.000674 0.001278
-0.002109 0.000675 0.001294
-0.002093 0.000675 0.001312
-0.002079 0.000673 0.001333
-0.002789 0.000602 0.001135
-0.002802 0.000551 0.001087
-0.002399 0.000713 0.000574
-0.002073 0.000755 0.001346
-0.002237 0.000496 0.001733
-0.002258 0.000473 0.001784
-0.002276 0.000452 0.001833
-0.002291 0.000432 0.001879
-0.002302 0.000416 0.001921
-0.002297 0.000409 0.001949
-0.002282 0.000408 0.001969
-0.002266 0.000408 0.001988
-0.00225 0.000408 0.002006
-0.002233 0.000408 0.002024
-0.002216 0.000408 0.002042
-0.0022 0.000409 0.002061
-0.002182 0.00041 0.002077
-0.002152 0.000418 0.002084
-0.002106 0.000437 0.002076
-0.001555 0.000678 0.001922
-0.001535 0.00068 0.001938
-0.001518 0.000681 0.001955
-0.001504 0.00068 0.001975
-0.001492 0.000677 0.001998
-0.001484 0.000672 0.002024
-0.001483 0.000662 0.002056
-0.001495 0.000645 0.002099
-0.001508 0.000627 0.002143
-0.002471 0.000524 0.001284
-0.002435 0.000537 0.001284
-0.002395 0.000551 0.001282
-0.002352 0.000568 0.001277
-0.002309 0.000584 0.001272
-0.002262 0.000603 0.001264
-0.002213 0.000624 0.001254
-0.002177 0.000636 0.001255
-0.00215 0.000643 0.001264
-0.002127 0.000647 0.001277
-0.002109 0.000648 0.001294
-0.002093 0.000648 0.001312
-0.002785 0.000674 0.001052
-0.00222 0.000729 0.001713
-0.002789 0.000547 0.001135
-0.002589 0.000548 0.001287
-0.002236 0.000469 0.001732
-0.002258 0.000445 0.001785
-0.002276 0.000424 0.001833
-0.002292 0.000405 0.001879
-0.002302 0.000388 0.001921
-0.002297 0.000382 0.001949
-0.002282 0.000381 0.001969
-0.002266 0.000381 0.001988
-0.00225 0.000381 0.002006
-0.002233 0.000381 0.002024
-0.002217 0.000381 0.002043
-0.0022 0.000382 0.002061
-0.002182 0.000383 0.002077
-0.002151 0.000392 0.002084
-0.002105 0.00041 0.002076
-0.001555 0.000651 0.001922
-0.001535 0.000653 0.001938
-0.001518 0.000654 0.001955
-0.001504 0.000652 0.001975
-0.001492 0.00065 0.001998
-0.001484 0.000644 0.002024
-0.001483 0.000635 0.002055
-0.001495 0.000618 0.002098
-0.001508 0.000599 0.002143
-0.002471 0.000497 0.001283
-0.002434 0.00051 0.001283
-0.002395 0.000524 0.001282
-0.00235 0.000541 0.001276
-0.002309 0.000557 0.001273
-0.002262 0.000576 0.001264
-0.002212 0.000597 0.001253
-0.002176 0.000609 0.001255
-0.002149 0.000616 0.001264
-0.002127 0.00062 0.001277
-0.002108 0.000621 0.001293
-0.002093 0.000621 0.001312
-0.002759 0.000628 0.001203
-0.00277 0.000573 0.001181
-0.002771 0.000546 0.001181
-0.002588 0.000575 0.001287
-0.002278 0.000396 0.001835
-0.002292 0.000378 0.001879
-0.002302 0.000361 0.001921
-0.002297 0.000354 0.001949
-0.002282 0.000354 0.001969
-0.002266 0.000354 0.001988
-0.00225 0.000354 0.002006
-0.002233 0.000354 0.002024
-0.002216 0.000354 0.002042
-0.0022 0.000354 0.002061
-0.002181 0.000356 0.002077
-0.002151 0.000365 0.002083
-0.001535 0.000626 0.001938
-0.001518 0.000627 0.001955
-0.001504 0.000625 0.001975
-0.001492 0.000622 0.001998
-0.001485 0.000617 0.002024
-0.001483 0.000608 0.002055
-0.001493 0.000591 0.002097
-0.001508 0.000572 0.002143
-0.002471 0.00047 0.001283
-0.002434 0.000482 0.001284
-0.002395 0.000497 0.001282
-0.002349 0.000515 0.001275
-0.002309 0.00053 0.001273
-0.002262 0.000549 0.001264
-0.002212 0.00057 0.001253
-0.002176 0.000582 0.001254
-0.002149 0.000589 0.001264
-0.002127 0.000593 0.001277
-0.002108 0.000594 0.001293
-0.002092 0.000594 0.001312
-0.00264 0.000663 0.001283
-0.002684 0.000591 0.001277
-0.002684 0.000564 0.001277
-0.002789 0.000465 0.001135
-0.002113 0.000702 0.001528
-0.002145 0.000739 0.001271
-0.002236 0.000415 0.001732
-0.002257 0.000392 0.001784
-0.002276 0.00037 0.001833
-0.002292 0.00035 0.001879
-0.002303 0.000334 0.001921
-0.002297 0.000327 0.001949
-0.002282 0.000327 0.001969
-0.002265 0.000327 0.001987
-0.002249 0.000327 0.002006
-0.002233 0.000327 0.002024
-0.002216 0.000327 0.002042
-0.0022 0.000327 0.002061
-0.002181 0.000329 0.002077
-0.00215 0.000338 0.002083
-0.002105 0.000356 0.002076
-0.001535 0.000599 0.001938
-0.001518 0.000599 0.001955
-0.001503 0.000598 0.001975
-0.001492 0.000595 0.001998
-0.001484 0.00059 0.002024
-0.001484 0.00058 0.002056
-0.001495 0.000563 0.002098
-0.001507 0.000545 0.002142
-0.002471 0.000443 0.001283
-0.002435 0.000455 0.001285
-0.002394 0.00047 0.001281
-0.002351 0.000487 0.001277
-0.002308 0.000503 0.001272
-0.002262 0.000522 0.001264
-0.002212 0.000543 0.001253
-0.002175 0.000555 0.001254
-0.002149 0.000562 0.001264
-0.002126 0.000566 0.001277
-0.002108 0.000567 0.001293
-0.002092 0.000567 0.001312
-0.002481 0.000729 0.001291
-0.002639 0.000609 0.001283
-0.00272 0.000551 0.001266
-0.002798 0.000466 0.001112
-0.002165 0.000665 0.001606
-0.002921 0.000585 -0.000688
-0.002235 0.000388 0.001732
-0.002256 0.000365 0.001783
-0.002277 0.000342 0.001833
-0.002293 0.000323 0.00188
-0.002303 0.000306 0.001922
-0.002297 0.0003 0.001949
-0.002282 0.000299 0.001969
-0.002266 0.000299 0.001988
-0.00225 0.000299 0.002006
-0.002233 0.000299 0.002025
-0.002217 0.000299 0.002043
-0.0022 0.0003 0.002061
-0.002181 0.000302 0.002077
-0.00215 0.000311 0.002083
-0.002104 0.000329 0.002075
-0.001535 0.000571 0.001938
-0.001518 0.000572 0.001955
-0.001503 0.000571 0.001975
-0.001492 0.000568 0.001998
-0.001484 0.000563 0.002024
-0.001483 0.000553 0.002056
-0.001494 0.000536 0.002098
-0.001507 0.000518 0.002142
-0.002183 0.000752 0.001262
-0.002434 0.000428 0.001285
-0.002393 0.000443 0.001281
-0.002351 0.000459 0.001277
-0.002308 0.000476 0.001272
-0.002261 0.000495 0.001263
-0.002212 0.000516 0.001253
-0.002175 0.000528 0.001254
-0.002149 0.000535 0.001263
-0.002127 0.000538 0.001277
-0.002108 0.00054 0.001293
-0.002092 0.00054 0.001312
-0.002601 0.000611 0.000846
-0.00276 0.000573 0.001203
-0.002739 0.000546 0.001248
-0.002995 0.000495 0.000283
-0.001397 -3.4e-05 0.001588
-0.002185 0.000649 0.001643
-0.002112 0.00073 0.001528
-0.002236 0.000361 0.001732
-0.002257 0.000337 0.001784
-0.002276 0.000316 0.001833
-0.002292 0.000296 0.00188
-0.002303 0.000279 0.001922
-0.002297 0.000273 0.001949
-0.002282 0.000272 0.001969
-0.002266 0.000272 0.001988
-0.00225 0.000272 0.002006
-0.002233 0.000272 0.002025
-0.002217 0.000272 0.002043
-0.0022 0.000273 0.002061
-0.002181 0.000274 0.002077
-0.00215 0.000284 0.002083
-0.002105 0.000301 0.002076
-0.001535 0.000544 0.001938
-0.001518 0.000545 0.001955
-0.001503 0.000544 0.001975
-0.001492 0.000541 0.001998
-0.001484 0.000535 0.002024
-0.001483 0.000526 0.002055
-0.001494 0.000509 0.002098
-0.001508 0.000491 0.002143
-0.00274 0.000519 0.001248
-0.002433 0.000402 0.001283
-0.002393 0.000416 0.001281
-0.002352 0.000432 0.001277
-0.002308 0.000449 0.001271
-0.002262 0.000468 0.001264
-0.002212 0.000489 0.001253
-0.002175 0.000501 0.001254
-0.002149 0.000508 0.001263
-0.002126 0.000511 0.001277
-0.002108 0.000513 0.001293
-0.002092 0.000512 0.001312
-0.002735 0.00063 0.001246
-0.00275 0.000573 0.001226
-0.002639 0.000582 0.001283
-0.002116 0.000755 0.001529
-0.001414 -3.5e-05 0.00157
-0.00214 0.00071 0.001567
-0.002237 0.000333 0.001733
-0.002258 0.00031 0.001784
-0.002276 0.000289 0.001833
-0.002293 0.000268 0.00188
-0.002303 0.000252 0.001922
-0.002297 0.000246 0.001949
-0.002282 0.000245 0.001969
-0.002266 0.000245 0.001988
-0.002249 0.000245 0.002006
-0.002233 0.000245 0.002024
-0.002216 0.000245 0.002043
-0.002199 0.000246 0.00206
-0.002181 0.000248 0.002077
-0.00215 0.000256 0.002083
-0.002104 0.000275 0.002075
-0.001535 0.000517 0.001938
-0.001518 0.000518 0.001955
-0.001503 0.000517 0.001975
-0.001492 0.000514 0.001998
-0.001484 0.000508 0.002024
-0.001483 0.000499 0.002055
-0.001493 0.000483 0.002097
-0.001508 0.000463 0.002143
-0.00247 0.000361 0.001283
-0.002433 0.000374 0.001283
-0.002394 0.000389 0.001281
-0.002351 0.000405 0.001277
-0.002308 0.000422 0.001272
-0.002261 0.000441 0.001264
-0.002212 0.000461 0.001253
-0.002175 0.000474 0.001254
-0.002149 0.00048 0.001263
-0.002127 0.000484 0.001277
-0.002108 0.000486 0.001293
-0.002092 0.000485 0.001312
-0.002748 0.000628 0.001225
-0.002797 0.000576 0.001112
-0.002588 0.000603 0.001287
-0.00276 0.000519 0.001203
-0.002843 0.000667 0.000384
-0.002746 0.00071 0.000419
-0.002237 0.000305 0.001734
-0.002257 0.000283 0.001784
-0.002277 0.000261 0.001834
-0.002292 0.000241 0.00188
-0.002303 0.000225 0.001922
-0.002296 0.000219 0.001949
-0.002282 0.000218 0.001969
-0.002265 0.000218 0.001987
-0.002249 0.000218 0.002006
-0.002232 0.000218 0.002024
-0.002216 0.000218 0.002042
-0.002199 0.000219 0.00206
-0.00218 0.000221 0.002076
-0.00215 0.000229 0.002083
-0.002104 0.000247 0.002075
-0.001535 0.00049 0.001937
-0.001518 0.000491 0.001955
-0.001503 0.00049 0.001975
-0.001492 0.000487 0.001998
-0.001484 0.000481 0.002024
-0.001483 0.000472 0.002056
-0.001492 0.000456 0.002096
-0.001508 0.000436 0.002143
-0.00247 0.000334 0.001283
-0.002433 0.000347 0.001283
-0.002393 0.000362 0.001281
-0.002351 0.000378 0.001277
-0.002309 0.000394 0.001272
-0.00226 0.000414 0.001263
-0.002212 0.000434 0.001253
-0.002176 0.000446 0.001254
-0.002149 0.000453 0.001264
-0.002126 0.000457 0.001277
-0.002108 0.000458 0.001293
-0.002092 0.000458 0.001312
-0.00277 0.000628 0.00118
-0.00278 0.000574 0.001158
-0.002751 0.000546 0.001226
-0.002221 0.000593 0.001714
-0.002141 0.000737 0.001568
-0.002207 0.000305 0.001679
-0.002236 0.000279 0.001732
-0.002258 0.000256 0.001784
-0.002278 0.000233 0.001834
-0.002291 0.000215 0.001879
-0.002302 0.000198 0.001921
-0.002295 0.000192 0.001948
-0.002281 0.000191 0.001968
-0.002266 0.000191 0.001987
-0.002249 0.000191 0.002006
-0.002233 0.000191 0.002024
-0.002216 0.000191 0.002042
-0.002199 0.000192 0.00206
-0.002179 0.000194 0.002075
-0.00215 0.000202 0.002082
-0.002104 0.00022 0.002075
-0.001535 0.000463 0.001938
-0.001518 0.000464 0.001955
-0.001503 0.000462 0.001975
-0.001492 0.000459 0.001998
-0.001484 0.000454 0.002024
-0.001483 0.000445 0.002056
-0.001492 0.000429 0.002096
-0.001508 0.000409 0.002143
-0.00247 0.000307 0.001283
-0.002433 0.00032 0.001283
-0.002394 0.000335 0.001281
-0.002351 0.000351 0.001276
-0.002309 0.000367 0.001272
-0.00226 0.000387 0.001263
-0.002212 0.000407 0.001253
-0.002176 0.000419 0.001254
-0.002149 0.000426 0.001264
-0.002126 0.00043 0.001277
-0.002108 0.000431 0.001293
-0.002092 0.000431 0.001312
-0.002537 0.000705 0.00129
-0.002739 0.000574 0.001248
-0.002761 0.000546 0.001204
-0.002537 0.000624 0.00129
-0.002451 0.000735 0.000491
-0.002208 0.000277 0.001679
-0.002236 0.000252 0.001733
-0.002258 0.000228 0.001784
-0.002277 0.000206 0.001834
-0.002292 0.000187 0.001879
-0.002301 0.000171 0.001921
-0.002294 0.000166 0.001947
-0.00228 0.000164 0.001968
-0.002265 0.000164 0.001987
-0.002249 0.000164 0.002006
-0.002233 0.000164 0.002024
-0.002216 0.000164 0.002042
-0.002198 0.000165 0.002059
-0.002178 0.000168 0.002074
-0.002149 0.000175 0.002082
-0.002103 0.000194 0.002074
-0.001431 -3.5e-05 0.001553
-0.001535 0.000436 0.001938
-0.001518 0.000436 0.001955
-0.001503 0.000435 0.001975
-0.001492 0.000432 0.001998
-0.001484 0.000427 0.002024
-0.001483 0.000418 0.002055
-0.001493 0.000401 0.002097
-0.001509 0.000381 0.002144
-0.00247 0.00028 0.001282
-0.002433 0.000293 0.001283
-0.002392 0.000308 0.00128
-0.002351 0.000324 0.001276
-0.002309 0.00034 0.001273
-0.00226 0.00036 0.001263
-0.002212 0.00038 0.001253
-0.002176 0.000392 0.001254
-0.002149 0.000399 0.001264
-0.002126 0.000403 0.001277
-0.002108 0.000404 0.001293
-0.002092 0.000404 0.001312
-0.00271 0.000662 0.000962
-0.002789 0.00059 0.001054
-0.002789 0.000563 0.001054
-0.00248 0.000648 0.00129
-0.002398 0.000757 0.000628
-0.002787 0.00063 0.001134
-0.002779 0.000629 0.001158
-0.002277 0.000179 0.001834
-0.002293 0.000159 0.00188
-0.0023 0.000145 0.001919
-0.002291 0.00014 0.001945
-0.002278 0.000139 0.001966
-0.002263 0.000138 0.001985
-0.002247 0.000137 0.002004
-0.002231 0.000138 0.002023
-0.002214 0.000138 0.00204
-0.002195 0.00014 0.002057
-0.002175 0.000142 0.002072
-0.002149 0.000148 0.002082
-0.001447 -3.6e-05 0.001534
-0.001535 0.000409 0.001938
-0.001518 0.000409 0.001955
-0.001503 0.000408 0.001975
-0.001492 0.000405 0.001998
-0.001484 0.0004 0.002024
-0.001483 0.00039 0.002055
-0.001494 0.000373 0.002098
-0.001508 0.000355 0.002143
-0.00247 0.000253 0.001283
-0.002434 0.000265 0.001283
-0.002393 0.000281 0.001281
-0.00235 0.000297 0.001276
-0.002308 0.000313 0.001272
-0.002261 0.000332 0.001263
-0.002212 0.000352 0.001253
-0.002175 0.000365 0.001254
-0.002149 0.000371 0.001264
-0.002126 0.000375 0.001277
-0.002108 0.000377 0.001293
-0.002092 0.000376 0.001312
-0.002757 0.000665 0.001014
-0.002204 0.000743 0.001678
-0.00248 0.000702 0.001291
-0.002221 0.000702 0.001713
-0.003 0.000497 0.000234
-0.0024 0.000761 0.000602
-0.002205 0.000634 0.001679
-0.002277 0.000152 0.001834
-0.002292 0.000132 0.00188
-0.002297 0.00012 0.001917
-0.002287 0.000116 0.001941
-0.002274 0.000114 0.001962
-0.002259 0.000113 0.001982
-0.002244 0.000113 0.002001
-0.002227 0.000113 0.00202
-0.00221 0.000114 0.002037
-0.002191 0.000115 0.002053
-0.002171 0.000117 0.002069
-0.002147 0.000122 0.00208
-0.001535 0.000381 0.001938
-0.001518 0.000382 0.001955
-0.001503 0.000381 0.001975
-0.001492 0.000378 0.001998
-0.001484 0.000372 0.002024
-0.001483 0.000363 0.002056
-0.001493 0.000347 0.002097
-0.001508 0.000327 0.002143
-0.002471 0.000225 0.001283
-0.002434 0.000238 0.001284
-0.002394 0.000253 0.001281
-0.002351 0.000269 0.001277
-0.002308 0.000286 0.001272
-0.002261 0.000305 0.001263
-0.002211 0.000326 0.001253
-0.002175 0.000338 0.001254
-0.002149 0.000344 0.001264
-0.002126 0.000348 0.001277
-0.002108 0.00035 0.001293
-0.002092 0.000349 0.001312
-0.002079 0.000347 0.001333
-0.002783 0.000659 0.001132
-0.0028 0.000607 0.001086
-0.002058 0.000328 0.001416
-0.00251 0.000688 0.000463
-0.002081 0.000697 0.001486
-0.002063 0.000711 0.00145
-0.002259 0.000146 0.001786
-0.002278 0.000124 0.001835
-0.002291 0.000106 0.001879
-0.002292 9.5e-05 0.001913
-0.002281 9.2e-05 0.001936
-0.002268 9.1e-05 0.001957
-0.002253 9e-05 0.001977
-0.002238 8.9e-05 0.001996
-0.002221 8.9e-05 0.002014
-0.002203 9e-05 0.002031
-0.002185 9.2e-05 0.002048
-0.002166 9.4e-05 0.002064
-0.002142 9.8e-05 0.002076
-0.001535 0.000354 0.001937
-0.001517 0.000355 0.001955
-0.001503 0.000354 0.001975
-0.001492 0.000351 0.001998
-0.001484 0.000345 0.002024
-0.001483 0.000336 0.002055
-0.001492 0.00032 0.002097
-0.001509 0.0003 0.002144
-0.00247 0.000199 0.001282
-0.002434 0.000211 0.001284
-0.002393 0.000226 0.001281
-0.00235 0.000242 0.001276
-0.002308 0.000259 0.001272
-0.00226 0.000278 0.001263
-0.002211 0.000298 0.001253
-0.002175 0.000311 0.001254
-0.002148 0.000317 0.001263
-0.002126 0.000321 0.001277
-0.002108 0.000323 0.001293
-0.002092 0.000322 0.001312
-0.002079 0.00032 0.001333
-0.002757 0.000692 0.001015
-0.002675 0.000705 0.001272
-0.002059 0.000301 0.001416
-0.002071 0.000285 0.001458
-0.002589 0.000521 0.001287
-0.001464 -3.6e-05 0.001517
-0.002258 0.000119 0.001785
-0.002277 9.8e-05 0.001834
-0.002289 8e-05 0.001877
-0.002285 7.3e-05 0.001906
-0.002273 7e-05 0.001929
-0.002259 6.9e-05 0.001949
-0.002244 6.8e-05 0.001969
-0.002229 6.7e-05 0.001988
-0.002213 6.7e-05 0.002007
-0.002195 6.8e-05 0.002024
-0.002177 7e-05 0.002041
-0.002158 7.1e-05 0.002057
-0.002135 7.5e-05 0.00207
-0.002101 8.6e-05 0.002073
-0.001535 0.000327 0.001938
-0.001517 0.000328 0.001955
-0.001503 0.000327 0.001975
-0.001492 0.000324 0.001998
-0.001484 0.000318 0.002024
-0.001483 0.000309 0.002056
-0.001492 0.000293 0.002096
-0.001509 0.000273 0.002144
-0.002469 0.000172 0.001282
-0.002433 0.000184 0.001283
-0.002393 0.000199 0.001281
-0.002351 0.000215 0.001277
-0.002308 0.000232 0.001272
-0.002259 0.000252 0.001262
-0.002212 0.000271 0.001253
-0.002175 0.000284 0.001254
-0.002148 0.00029 0.001263
-0.002126 0.000294 0.001277
-0.002108 0.000295 0.001293
-0.002092 0.000295 0.001312
-0.002079 0.000293 0.001333
-0.003 0.000469 0.000234
-0.002744 0.000658 0.001223
-0.002639 0.000636 0.001283
-0.00259 0.000656 0.001287
-0.002639 0.0005 0.001283
-0.002683 0.000483 0.001276
-0.002258 9.2e-05 0.001785
-0.002277 7.1e-05 0.001834
-0.002283 5.7e-05 0.001872
-0.002276 5.1e-05 0.001898
-0.002263 4.9e-05 0.00192
-0.002249 4.8e-05 0.00194
-0.002234 4.7e-05 0.00196
-0.002218 4.7e-05 0.001979
-0.002202 4.7e-05 0.001997
-0.002184 4.8e-05 0.002015
-0.002166 4.9e-05 0.002032
-0.002147 5.1e-05 0.002048
-0.002126 5.4e-05 0.002062
-0.002097 6.2e-05 0.002069
-0.001481 -3.7e-05 0.001499
-0.001535 0.0003 0.001938
-0.001517 0.000301 0.001955
-0.001503 0.000299 0.001975
-0.001492 0.000296 0.001998
-0.001484 0.000291 0.002024
-0.001483 0.000281 0.002056
-0.001491 0.000266 0.002096
-0.001509 0.000246 0.002144
-0.002469 0.000145 0.001282
-0.002432 0.000158 0.001282
-0.002394 0.000171 0.001281
-0.00235 0.000188 0.001276
-0.002307 0.000205 0.001272
-0.002259 0.000225 0.001262
-0.002212 0.000244 0.001253
-0.002175 0.000256 0.001254
-0.002148 0.000263 0.001263
-0.002126 0.000267 0.001276
-0.002108 0.000268 0.001293
-0.002092 0.000268 0.001312
-0.002756 0.000657 0.001201
-0.002779 0.000601 0.001158
-0.002801 0.000579 0.001087
-0.002555 0.000697 0.000456
-0.002928 0.000549 0.000347
-0.002396 0.000736 0.0006
-0.002257 6.5e-05 0.001784
-0.002274 4.5e-05 0.001831
-0.002273 3.6e-05 0.001863
-0.002263 3.2e-05 0.001888
-0.00225 3e-05 0.001909
-0.002236 2.9e-05 0.001929
-0.002221 2.8e-05 0.001949
-0.002205 2.8e-05 0.001968
-0.002189 2.8e-05 0.001986
-0.002172 2.8e-05 0.002004
-0.002154 2.9e-05 0.002021
-0.002135 3.1e-05 0.002037
-0.002114 3.4e-05 0.002052
-0.002089 4e-05 0.002062
-0.002049 5.5e-05 0.002058
-0.001498 -3.7e-05 0.001481
-0.001535 0.000273 0.001938
-0.001518 0.000273 0.001955
-0.001503 0.000272 0.001975
-0.001492 0.000269 0.001998
-0.001484 0.000264 0.002024
-0.001483 0.000254 0.002056
-0.001493 0.000238 0.002097
-0.001509 0.000218 0.002144
-0.00247 0.000117 0.001283
-0.002433 0.00013 0.001283
-0.002393 0.000144 0.001281
-0.00235 0.000161 0.001276
-0.002307 0.000178 0.001271
-0.002259 0.000197 0.001262
-0.002211 0.000217 0.001253
-0.002175 0.000229 0.001254
-0.002148 0.000236 0.001263
-0.002126 0.00024 0.001277
-0.002108 0.000241 0.001293
-0.002092 0.00024 0.001312
-0.002766 0.000657 0.001179
-0.002719 0.000605 0.001266
-0.002538 0.00065 0.00129
-0.002913 0.000455 -0.000662
-0.002186 0.000703 0.001643
-0.00278 0.000699 0.001076
-0.002237 6.1e-05 0.001734
-0.002256 3.9e-05 0.001783
-0.002265 2.4e-05 0.001823
-0.002259 1.7e-05 0.001851
-0.002248 1.4e-05 0.001874
-0.002234 1.2e-05 0.001895
-0.00222 1.1e-05 0.001915
-0.002205 1.1e-05 0.001934
-0.002189 1.1e-05 0.001953
-0.002172 1.1e-05 0.001971
-0.002155 1.1e-05 0.001989
-0.002138 1.2e-05 0.002007
-0.002119 1.4e-05 0.002023
-0.002099 1.6e-05 0.002039
-0.002076 2e-05 0.002051
-0.002044 3.1e-05 0.002053
-0.001535 0.000245 0.001938
-0.001518 0.000246 0.001955
-0.001503 0.000245 0.001975
-0.001492 0.000242 0.001998
-0.001484 0.000236 0.002024
-0.001483 0.000227 0.002056
-0.001493 0.000211 0.002098
-0.001509 0.000191 0.002144
-0.002469 9e-05 0.001286
-0.002432 0.000103 0.001282
-0.002392 0.000118 0.00128
-0.002351 0.000134 0.001277
-0.002307 0.000151 0.001271
-0.002259 0.00017 0.001262
-0.002211 0.00019 0.001253
-0.002175 0.000202 0.001254
-0.002149 0.000209 0.001264
-0.002126 0.000213 0.001277
-0.002108 0.000214 0.001293
-0.002092 0.000213 0.001313
-0.00273 0.00066 0.001244
-0.002537 0.000678 0.00129
-0.002798 0.000548 0.001112
-0.002205 0.000607 0.001679
-0.002601 0.000665 0.000846
-0.002207 6e-05 0.00168
-0.002236 3.4e-05 0.001733
-0.002251 1.5e-05 0.001778
-0.002248 7e-06 0.001809
-0.002239 3e-06 0.001833
-0.002225 1e-06 0.001854
-0.00221 0.0 0.001874
-0.002196 -1e-06 0.001894
-0.00218 -1e-06 0.001913
-0.002164 -1e-06 0.001931
-0.002147 -1e-06 0.001949
-0.002131 -1e-06 0.001968
-0.002114 -0.0 0.001986
-0.002097 0.0 0.002004
-0.002078 2e-06 0.00202
-0.002057 5e-06 0.002035
-0.002031 1.3e-05 0.002042
-0.001535 0.000218 0.001938
-0.001518 0.000219 0.001956
-0.001503 0.000218 0.001975
-0.001492 0.000215 0.001998
-0.001484 0.000209 0.002024
-0.001483 0.0002 0.002056
-0.001494 0.000183 0.002098
-0.001509 0.000164 0.002145
-0.002468 6.4e-05 0.001281
-0.002432 7.6e-05 0.001282
-0.00239 9.2e-05 0.001279
-0.002349 0.000107 0.001275
-0.002307 0.000123 0.001271
-0.002258 0.000144 0.001261
-0.002211 0.000163 0.001252
-0.002175 0.000175 0.001254
-0.002148 0.000181 0.001264
-0.002126 0.000185 0.001277
-0.002108 0.000187 0.001293
-0.002092 0.000186 0.001313
-0.002797 0.000635 0.001085
-0.002411 0.000747 0.000543
-0.00278 0.000547 0.001158
-0.002659 0.000553 0.000905
-0.002538 0.000569 0.00129
-0.002208 3.3e-05 0.001678
-0.002229 1.1e-05 0.001727
-0.002231 0.0 0.001761
-0.002222 -4e-06 0.001786
-0.002208 -6e-06 0.001807
-0.002194 -7e-06 0.001827
-0.002177 -7e-06 0.001845
-0.002161 -7e-06 0.001864
-0.002144 -6e-06 0.001882
-0.002129 -7e-06 0.001901
-0.002113 -7e-06 0.001919
-0.002096 -6e-06 0.001937
-0.00208 -6e-06 0.001956
-0.002063 -6e-06 0.001974
-0.002048 -5e-06 0.001993
-0.001515 -3.7e-05 0.001462
-0.001531 -3.8e-05 0.001444
-0.001535 0.000191 0.001938
-0.001518 0.000191 0.001956
-0.001504 0.00019 0.001976
-0.001492 0.000187 0.001998
-0.001485 0.000182 0.002025
-0.001483 0.000172 0.002056
-0.001493 0.000157 0.002098
-0.00151 0.000136 0.002145
-0.002467 3.7e-05 0.00128
-0.002432 4.9e-05 0.001282
-0.00239 6.5e-05 0.001279
-0.002349 8e-05 0.001275
-0.002307 9.6e-05 0.001271
-0.002256 0.000118 0.001259
-0.002211 0.000136 0.001253
-0.002175 0.000148 0.001254
-0.002148 0.000154 0.001264
-0.002126 0.000158 0.001277
-0.002108 0.000159 0.001294
-0.002092 0.000159 0.001313
-0.002683 0.000646 0.001276
-0.0024 0.000689 0.000666
-0.003001 0.000443 0.000209
-0.00222 0.000621 0.001713
-0.002081 0.000724 0.001486
-0.002202 1.1e-05 0.001673
-0.002208 -3e-06 0.001708
-0.002196 -5e-06 0.00173
-0.00218 -6e-06 0.00175
-0.002164 -6e-06 0.001768
-0.002115 -6e-06 0.001824
-0.002099 -5e-06 0.001842
-0.002082 -5e-06 0.00186
-0.00205 -5e-06 0.001897
-0.002034 -5e-06 0.001916
-0.001548 -3.8e-05 0.001426
-0.001535 0.000164 0.001938
-0.001518 0.000164 0.001956
-0.001503 0.000163 0.001976
-0.001492 0.00016 0.001998
-0.001484 0.000155 0.002024
-0.001484 0.000145 0.002056
-0.001495 0.000128 0.002099
-0.00151 0.000109 0.002145
-0.002772 0.000692 0.001127
-0.002431 2.2e-05 0.001282
-0.002391 3.7e-05 0.001279
-0.002349 5.3e-05 0.001276
-0.002307 6.9e-05 0.001271
-0.002258 9e-05 0.001261
-0.00221 0.000109 0.001252
-0.002175 0.000121 0.001254
-0.002148 0.000127 0.001264
-0.002126 0.000131 0.001277
-0.002108 0.000132 0.001293
-0.002092 0.000132 0.001312
-0.002717 0.000634 0.001265
-0.002486 0.00067 0.000754
-0.0024 0.000716 0.000666
-0.00274 0.000464 0.001248
-0.001564 -3.8e-05 0.001407
-0.002789 0.000482 0.001054
-0.002183 -4e-06 0.001654
-0.002172 -8e-06 0.001677
-0.002156 -8e-06 0.001696
-0.002141 -8e-06 0.001715
-0.002124 -8e-06 0.001733
-0.002108 -8e-06 0.001752
-0.002092 -8e-06 0.001771
-0.002076 -8e-06 0.001789
-0.00206 -8e-06 0.001808
-0.002044 -9e-06 0.001827
-0.00158 -3.8e-05 0.001389
-0.002011 -8e-06 0.001864
-0.001995 -8e-06 0.001882
-0.001597 -3.8e-05 0.00137
-0.001613 -3.8e-05 0.001352
-0.001628 -3.8e-05 0.001333
-0.001535 0.000137 0.001938
-0.001518 0.000137 0.001956
-0.001503 0.000136 0.001975
-0.001492 0.000133 0.001998
-0.001484 0.000127 0.002025
-0.001484 0.000118 0.002057
-0.001494 0.000101 0.002099
-0.00151 8.2e-05 0.002145
-0.00277 0.000465 0.001181
-0.002421 1e-06 0.001273
-0.00239 1e-05 0.001279
-0.00235 2.5e-05 0.001276
-0.002306 4.2e-05 0.00127
-0.002257 6.3e-05 0.001261
-0.00221 8.2e-05 0.001252
-0.002174 9.4e-05 0.001253
-0.002148 0.0001 0.001264
-0.002126 0.000104 0.001277
-0.002108 0.000105 0.001293
-0.002092 0.000105 0.001312
-0.002794 0.000632 0.00111
-0.002589 0.000684 0.001287
-0.002166 0.000746 0.001607
-0.002567 0.000656 0.000816
-0.001644 -3.7e-05 0.001314
-0.002129 -8e-06 0.001639
-0.002113 -8e-06 0.001658
-0.002096 -8e-06 0.001676
-0.002063 -7e-06 0.001712
-0.002045 -7e-06 0.00173
-0.002029 -6e-06 0.001748
-0.002014 -7e-06 0.001768
-0.001999 -8e-06 0.001787
-0.00166 -3.7e-05 0.001295
-0.001555 0.000107 0.001922
-0.001535 0.000109 0.001938
-0.001518 0.00011 0.001955
-0.001503 0.000109 0.001975
-0.001492 0.000106 0.001998
-0.001484 0.0001 0.002025
-0.001484 9.1e-05 0.002057
-0.001494 7.5e-05 0.002098
-0.001509 5.5e-05 0.002144
-0.00222 0.000675 0.001713
-0.002424 0.000742 0.00052
-0.00237 -5e-06 0.001261
-0.002344 1e-06 0.001271
-0.002306 1.5e-05 0.00127
-0.002258 3.5e-05 0.001262
-0.00221 5.5e-05 0.001252
-0.002174 6.7e-05 0.001254
-0.002148 7.3e-05 0.001264
-0.002126 7.7e-05 0.001277
-0.002107 7.8e-05 0.001293
-0.002092 7.8e-05 0.001312
-0.00264 0.00069 0.001283
-0.002681 0.000674 0.001275
-0.00272 0.000578 0.001266
-0.002803 0.000469 0.001087
-0.002058 0.000719 0.001421
-0.002059 0.000725 0.001394
-0.002085 -8e-06 0.001601
-0.002069 -8e-06 0.001619
-0.002053 -8e-06 0.001638
-0.001676 -3.7e-05 0.001276
-0.002021 -8e-06 0.001675
-0.002003 -8e-06 0.001693
-0.001987 -8e-06 0.001712
-0.001972 -8e-06 0.001731
-0.001955 -8e-06 0.001749
-0.001939 -8e-06 0.001768
-0.001923 -8e-06 0.001786
-0.001692 -3.7e-05 0.001257
-0.001842 -8e-06 0.001879
-0.001554 8e-05 0.001922
-0.001535 8.2e-05 0.001938
-0.001517 8.3e-05 0.001955
-0.001503 8.2e-05 0.001975
-0.001492 7.9e-05 0.001998
-0.001484 7.3e-05 0.002025
-0.001483 6.4e-05 0.002056
-0.001493 4.8e-05 0.002098
-0.001509 2.8e-05 0.002145
-0.002751 0.000491 0.001226
-0.002347 -7e-06 0.001208
-0.002332 -8e-06 0.001228
-0.002316 -8e-06 0.001246
-0.002295 -5e-06 0.001261
-0.002209 2.8e-05 0.001251
-0.002174 4e-05 0.001253
-0.002148 4.6e-05 0.001263
-0.002125 5e-05 0.001276
-0.002107 5.1e-05 0.001293
-0.002537 0.000732 0.00129
-0.002712 0.000664 0.001262
-0.00275 0.0006 0.001226
-0.002537 0.000596 0.00129
-0.00278 0.00052 0.001158
-0.002081 7e-06 0.001466
-0.002094 -1.1e-05 0.00151
-0.002078 -1.1e-05 0.001529
-0.002731 0.000724 0.00119
-0.001707 -3.6e-05 0.001238
-0.001978 -9e-06 0.001639
-0.001962 -9e-06 0.001657
-0.001946 -9e-06 0.001676
-0.001915 -1e-05 0.001714
-0.001898 -1e-05 0.001731
-0.001882 -1e-05 0.00175
-0.001802 -1e-05 0.001844
-0.001784 -9e-06 0.001861
-0.001576 4.9e-05 0.001908
-0.001554 5.3e-05 0.001922
-0.001534 5.5e-05 0.001938
-0.001517 5.6e-05 0.001955
-0.001503 5.5e-05 0.001975
-0.001491 5.2e-05 0.001998
-0.001484 4.6e-05 0.002024
-0.001483 3.7e-05 0.002056
-0.001495 2e-05 0.002099
-0.001509 1e-06 0.002144
-0.002323 -1e-05 0.001155
-0.002307 -1e-05 0.001174
-0.002293 -1.1e-05 0.001193
-0.002776 0.000706 0.001048
-0.003004 0.000554 0.00016
-0.002238 -7e-06 0.001244
-0.002209 1e-06 0.001251
-0.002174 1.3e-05 0.001253
-0.002147 1.9e-05 0.001263
-0.002125 2.3e-05 0.001276
-0.002106 2.5e-05 0.001292
-0.002796 0.000603 0.001112
-0.00272 0.000692 0.001239
-0.002701 0.000696 0.001257
-0.002479 0.000621 0.00129
-0.002065 -1e-05 0.001453
-0.00205 -1.1e-05 0.001472
-0.002029 -8e-06 0.001486
-0.002011 -7e-06 0.001504
-0.001722 -3.6e-05 0.001218
-0.002998 0.000633 0.000233
-0.002751 0.000464 0.001226
-0.002757 0.000689 0.001175
-0.00193 -7e-06 0.001597
-0.001914 -7e-06 0.001615
-0.001899 -7e-06 0.001634
-0.001882 -7e-06 0.001652
-0.001866 -7e-06 0.001671
-0.001785 -7e-06 0.001764
-0.001767 -6e-06 0.001781
-0.001752 -6e-06 0.0018
-0.001736 -7e-06 0.001819
-0.001576 2.2e-05 0.001908
-0.001553 2.6e-05 0.001921
-0.001534 2.8e-05 0.001937
-0.001517 2.9e-05 0.001955
-0.001503 2.8e-05 0.001975
-0.001491 2.5e-05 0.001998
-0.001484 1.9e-05 0.002024
-0.001485 8e-06 0.002058
-0.001483 -1e-05 0.002121
-0.002276 -8e-06 0.001113
-0.002258 -7e-06 0.001131
-0.002241 -6e-06 0.001148
-0.002227 -7e-06 0.001168
-0.002395 0.000731 0.000627
-0.002178 -7e-06 0.001224
-0.002161 -7e-06 0.001242
-0.002142 -3e-06 0.001257
-0.002082 0.000751 0.001486
-0.002761 0.000491 0.001204
-0.002205 0.000661 0.001679
-0.002078 -5e-06 0.001333
-0.002064 -5e-06 0.001353
