-0.000687 -2.2e-05 -0.002022
-0.00071 -2.2e-05 -0.002015
-0.000734 -2.2e-05 -0.002007
-0.000757 -2.2e-05 -0.001999
-0.000781 -2.1e-05 -0.001991
-0.000804 -2.1e-05 -0.001984
-0.000827 -2.1e-05 -0.001976
-0.000851 -2.1e-05 -0.001968
-0.000874 -2e-05 -0.00196
-0.000897 -1.9e-05 -0.001951
-0.001036 -1.6e-05 -0.0019
-0.001059 -1.5e-05 -0.001892
-0.001083 -1.5e-05 -0.001884
-0.001106 -1.5e-05 -0.001877
-0.001129 -1.4e-05 -0.001868
-0.001152 -1.3e-05 -0.001859
-0.001175 -1.2e-05 -0.00185
0.000518 0.000722 -0.002412
0.000518 0.000747 -0.002416
0.000543 0.00074 -0.00243
0.001108 0.000599 -0.002381
-0.000177 0.000527 -0.00282
0.00047 0.000753 -0.002402
0.000116 0.000512 -0.002973
-0.000662 0.000682 -0.002659
-0.000105 0.000546 -0.002954
-0.000129 0.000565 -0.002914
0.000346 0.00074 -0.002428
6.7e-05 0.000528 -0.002995
1.7e-05 0.000528 -0.002996
4.2e-05 0.000528 -0.002996
9.2e-05 0.000707 -0.002961
-0.000345 -3e-05 -0.002083
-0.000369 -3.1e-05 -0.002077
-0.000393 -3.1e-05 -0.002071
-0.000416 -3.1e-05 -0.002064
-0.00044 -3.2e-05 -0.002058
-0.000464 -3.2e-05 -0.002051
-0.000488 -3.2e-05 -0.002044
-0.000511 -3.2e-05 -0.002038
-0.000417 0.000722 -0.002399
-0.000442 0.000721 -0.0024
-0.000466 0.000719 -0.002407
-0.000491 0.000714 -0.002416
-0.000516 0.000705 -0.002433
-0.000541 0.000691 -0.002464
-0.000567 0.000669 -0.00251
-0.000592 0.000649 -0.002552
-0.000617 0.000633 -0.002587
-0.000641 0.000617 -0.002623
0.000616 0.000634 -0.002541
0.000591 0.00065 -0.002508
0.000567 0.000671 -0.002463
0.000543 0.000685 -0.002431
0.000519 0.000694 -0.002412
0.000494 0.000699 -0.002402
0.00047 0.000702 -0.002395
0.000445 0.000702 -0.002394
0.000421 0.0007 -0.002397
0.000396 0.000697 -0.002402
0.000371 0.000693 -0.002411
0.000345 0.000686 -0.002426
0.000309 0.000725 -0.002462
0.000184 0.000543 -0.002843
0.000291 0.000755 -0.002581
0.000901 0.000559 -0.002849
0.000164 0.000469 -0.00289
0.000141 0.000447 -0.002936
0.000116 0.000429 -0.002975
9.1e-05 0.000421 -0.002992
6.7e-05 0.00042 -0.002995
4.2e-05 0.000419 -0.002995
1.7e-05 0.000419 -0.002996
-7e-06 0.000419 -0.002996
-3.2e-05 0.000419 -0.002996
-5.7e-05 0.000419 -0.002994
-8.1e-05 0.000424 -0.002985
-0.000105 0.000438 -0.002954
-0.000129 0.000457 -0.002912
-0.000153 0.000476 -0.00287
-0.000177 0.0005 -0.002819
-0.000368 0.000692 -0.002405
-0.000392 0.000694 -0.002401
-0.000417 0.000695 -0.002399
-0.000442 0.000694 -0.0024
-0.000466 0.000692 -0.002406
-0.000491 0.000687 -0.002416
-0.000516 0.000678 -0.002432
-0.000541 0.000664 -0.002463
-0.000567 0.000642 -0.00251
-0.000592 0.000623 -0.002551
-0.000617 0.000605 -0.002587
-0.000642 0.000589 -0.002623
0.000616 0.000607 -0.002542
0.000591 0.000623 -0.002507
0.000567 0.000643 -0.002464
0.000543 0.000658 -0.00243
0.000519 0.000667 -0.002411
0.000494 0.000672 -0.002401
0.00047 0.000675 -0.002395
0.000445 0.000675 -0.002394
0.000421 0.000673 -0.002396
0.000396 0.00067 -0.002402
0.00095 0.000611 -0.002841
0.000184 0.000678 -0.002844
0.000184 0.000651 -0.002843
0.000259 0.000646 -0.002652
0.000838 0.000559 -0.002805
0.000919 0.000704 -0.002823
0.000141 0.000421 -0.002935
0.000116 0.000402 -0.002975
9.1e-05 0.000394 -0.002992
6.7e-05 0.000392 -0.002995
4.2e-05 0.000392 -0.002996
1.7e-05 0.000392 -0.002996
-7e-06 0.000392 -0.002996
-3.2e-05 0.000392 -0.002996
-5.7e-05 0.000392 -0.002994
-8.1e-05 0.000397 -0.002985
-0.000105 0.000411 -0.002954
-0.000129 0.00043 -0.002913
-0.000153 0.00045 -0.00287
-0.000177 0.000472 -0.00282
-0.000199 0.000497 -0.002766
-0.000392 0.000667 -0.002401
-0.000417 0.000668 -0.002399
-0.000442 0.000667 -0.0024
-0.000466 0.000664 -0.002406
-0.000491 0.000659 -0.002415
-0.000516 0.000651 -0.002433
-0.000541 0.000637 -0.002463
-0.000567 0.000615 -0.002509
-0.000592 0.000595 -0.002551
-0.000617 0.000578 -0.002589
-0.000642 0.000561 -0.002623
-0.000663 0.000546 -0.00266
0.000616 0.00058 -0.002541
0.000591 0.000596 -0.002507
0.000567 0.000616 -0.002464
0.000543 0.000632 -0.002429
0.000519 0.00064 -0.002411
0.000494 0.000645 -0.0024
0.00047 0.000647 -0.002395
0.000445 0.000648 -0.002393
0.000421 0.000646 -0.002396
0.0009 0.000614 -0.002847
0.000171 0.000665 -0.002878
0.000617 0.000614 -0.002562
0.000329 0.000706 -0.002439
-0.000315 -3e-05 -0.002088
0.0002 0.000583 -0.002808
0.000141 0.000395 -0.002933
0.000116 0.000375 -0.002976
9.1e-05 0.000367 -0.002992
6.7e-05 0.000365 -0.002995
4.2e-05 0.000365 -0.002996
1.7e-05 0.000365 -0.002996
-7e-06 0.000365 -0.002996
-3.2e-05 0.000364 -0.002996
-5.7e-05 0.000365 -0.002994
-8.1e-05 0.000369 -0.002985
-0.000105 0.000384 -0.002953
-0.000129 0.000402 -0.002913
-0.000153 0.000423 -0.002869
-0.000177 0.000446 -0.002819
-0.000199 0.00047 -0.002767
-0.00029 -3e-05 -0.002089
-0.000393 0.00064 -0.0024
-0.000417 0.000641 -0.002399
-0.000442 0.00064 -0.0024
-0.000466 0.000637 -0.002405
-0.000491 0.000632 -0.002416
-0.000516 0.000624 -0.002433
-0.000541 0.000609 -0.002464
-0.000567 0.000588 -0.002509
-0.000592 0.000569 -0.00255
-0.000617 0.00055 -0.002589
-0.000642 0.000534 -0.002623
0.000615 0.000553 -0.002541
0.000591 0.000568 -0.002508
0.000567 0.000588 -0.002464
0.000543 0.000604 -0.00243
0.000519 0.000613 -0.002411
0.000494 0.000618 -0.0024
0.00047 0.00062 -0.002394
0.000445 0.000621 -0.002394
0.000421 0.000619 -0.002395
0.001103 0.000728 -0.002606
0.00102 0.000558 -0.002817
0.000973 0.000475 -0.002833
-0.000265 -3.1e-05 -0.00209
-0.000241 -3.1e-05 -0.002091
-0.000216 -3.2e-05 -0.002093
0.00141 0.000672 -0.002214
0.000141 0.000367 -0.002934
0.000116 0.000348 -0.002975
9.1e-05 0.00034 -0.002992
6.7e-05 0.000338 -0.002995
4.2e-05 0.000338 -0.002995
1.7e-05 0.000338 -0.002996
-7e-06 0.000337 -0.002996
-3.2e-05 0.000337 -0.002996
-5.7e-05 0.000338 -0.002994
-8.1e-05 0.000342 -0.002984
-0.000105 0.000357 -0.002953
-0.000129 0.000375 -0.002913
-0.000153 0.000396 -0.002869
-0.000177 0.000418 -0.00282
-0.000199 0.000443 -0.002766
-0.000393 0.000613 -0.0024
-0.000417 0.000614 -0.002398
-0.000442 0.000613 -0.0024
-0.000466 0.00061 -0.002405
-0.000491 0.000605 -0.002415
-0.000516 0.000597 -0.002433
-0.000541 0.000582 -0.002463
-0.000567 0.000561 -0.002509
-0.000592 0.000541 -0.00255
-0.000617 0.000523 -0.002589
-0.000641 0.000507 -0.002624
0.000615 0.000526 -0.00254
0.000591 0.000541 -0.002507
0.000567 0.000562 -0.002462
0.000543 0.000577 -0.00243
0.000519 0.000586 -0.002411
0.000494 0.000591 -0.0024
0.00047 0.000593 -0.002395
0.000445 0.000593 -0.002394
0.000421 0.000592 -0.002395
0.000804 0.000658 -0.002776
0.001064 0.00059 -0.002793
0.001043 0.000559 -0.002808
0.002487 0.00068 -0.00165
0.001718 0.000475 -0.002384
0.000141 0.00034 -0.002934
0.000116 0.00032 -0.002975
9.1e-05 0.000313 -0.002992
6.7e-05 0.000311 -0.002995
4.2e-05 0.000311 -0.002995
1.7e-05 0.000311 -0.002995
-7e-06 0.00031 -0.002996
-3.2e-05 0.00031 -0.002996
-5.7e-05 0.000311 -0.002994
-8.1e-05 0.000315 -0.002985
-0.000105 0.00033 -0.002953
-0.000129 0.000348 -0.002913
-0.000153 0.000369 -0.002868
-0.000177 0.000391 -0.002819
-0.000393 0.000586 -0.0024
-0.000417 0.000586 -0.002398
-0.000442 0.000586 -0.0024
-0.000466 0.000583 -0.002405
-0.000491 0.000578 -0.002415
-0.000516 0.000569 -0.002433
-0.000541 0.000555 -0.002463
-0.000567 0.000534 -0.002508
-0.000592 0.000514 -0.00255
-0.000617 0.000496 -0.00259
-0.000641 0.00048 -0.002625
0.000615 0.000499 -0.002541
0.000591 0.000514 -0.002508
0.000567 0.000535 -0.002463
0.000543 0.00055 -0.00243
0.000519 0.000559 -0.002411
0.000494 0.000563 -0.0024
0.00047 0.000566 -0.002395
0.000445 0.000566 -0.002393
0.000421 0.000565 -0.002396
0.000769 0.000705 -0.002741
0.000926 0.000611 -0.002846
0.00095 0.000583 -0.002841
0.001829 0.000643 -0.001897
0.000838 0.000505 -0.002805
-0.000191 -3.2e-05 -0.002094
0.000867 0.000713 -0.002817
0.000141 0.000312 -0.002936
0.000116 0.000293 -0.002975
9.1e-05 0.000285 -0.002992
6.7e-05 0.000284 -0.002995
4.2e-05 0.000283 -0.002996
1.7e-05 0.000283 -0.002996
-7e-06 0.000283 -0.002996
-3.2e-05 0.000283 -0.002996
-5.7e-05 0.000284 -0.002994
-8.1e-05 0.000288 -0.002984
-0.000105 0.000303 -0.002952
-0.000129 0.000321 -0.002913
-0.000153 0.000342 -0.002868
-0.000177 0.000365 -0.002818
-0.000393 0.000559 -0.0024
-0.000417 0.000559 -0.002398
-0.000442 0.000559 -0.002399
-0.000466 0.000556 -0.002404
-0.000491 0.000551 -0.002414
-0.000516 0.000542 -0.002432
-0.000541 0.000528 -0.002463
-0.000567 0.000507 -0.002508
-0.000592 0.000487 -0.00255
-0.000617 0.000469 -0.002589
-0.000642 0.000452 -0.002624
0.000615 0.000471 -0.002541
0.000591 0.000487 -0.002507
0.000567 0.000507 -0.002463
0.000543 0.000523 -0.00243
0.000519 0.000531 -0.002411
0.000494 0.000536 -0.0024
0.00047 0.000539 -0.002395
0.000445 0.000539 -0.002394
0.00042 0.000538 -0.002396
0.001019 0.000641 -0.002813
0.000997 0.000612 -0.002825
0.000997 0.000585 -0.002825
0.001103 0.00051 -0.002608
0.000804 0.000523 -0.002775
0.000871 0.000488 -0.002833
0.000968 0.000702 -0.002815
0.000141 0.000284 -0.002937
0.000116 0.000266 -0.002976
9.1e-05 0.000258 -0.002992
6.7e-05 0.000257 -0.002995
4.2e-05 0.000256 -0.002996
1.7e-05 0.000256 -0.002996
-7e-06 0.000256 -0.002996
-3.2e-05 0.000256 -0.002996
-5.7e-05 0.000257 -0.002994
-8.1e-05 0.000261 -0.002984
-0.000105 0.000276 -0.002952
-0.000129 0.000294 -0.002913
-0.000153 0.000314 -0.002868
-0.000177 0.000338 -0.002817
-0.000393 0.000532 -0.0024
-0.000417 0.000532 -0.002398
-0.000442 0.000531 -0.002399
-0.000466 0.000529 -0.002404
-0.000491 0.000524 -0.002414
-0.000516 0.000515 -0.002432
-0.000541 0.000501 -0.002462
-0.000567 0.000479 -0.002509
-0.000592 0.00046 -0.002551
-0.000617 0.000442 -0.002589
-0.000642 0.000425 -0.002624
-0.000662 0.000411 -0.002659
0.000615 0.000444 -0.002542
0.000591 0.00046 -0.002507
0.000567 0.00048 -0.002463
0.000543 0.000496 -0.002429
0.000519 0.000504 -0.002412
0.000494 0.000509 -0.0024
0.00047 0.000512 -0.002394
0.000445 0.000512 -0.002393
0.00042 0.000511 -0.002395
0.001079 0.000656 -0.002761
0.000973 0.000611 -0.002833
0.000973 0.000584 -0.002833
0.000838 0.000532 -0.002805
0.001232 0.000729 -0.002112
-0.000167 -3.2e-05 -0.002095
0.000944 0.000703 -0.002819
0.000141 0.000257 -0.002937
0.000116 0.000239 -0.002976
9.1e-05 0.000231 -0.002991
6.6e-05 0.00023 -0.002995
4.2e-05 0.000229 -0.002996
1.7e-05 0.000229 -0.002996
-7e-06 0.000229 -0.002996
-3.2e-05 0.000229 -0.002996
-5.7e-05 0.00023 -0.002993
-8.1e-05 0.000234 -0.002983
-0.000105 0.000249 -0.002951
-0.000129 0.000266 -0.002913
-0.000153 0.000287 -0.002869
-0.000177 0.00031 -0.002818
-0.000393 0.000504 -0.0024
-0.000417 0.000505 -0.002398
-0.000442 0.000504 -0.002399
-0.000466 0.000502 -0.002404
-0.000491 0.000497 -0.002414
-0.000516 0.000488 -0.002432
-0.000541 0.000474 -0.002463
-0.000567 0.000452 -0.002508
-0.000592 0.000433 -0.00255
-0.000617 0.000414 -0.002589
-0.000642 0.000398 -0.002625
0.000615 0.000417 -0.002541
0.000591 0.000433 -0.002507
0.000567 0.000453 -0.002463
0.000543 0.000469 -0.002429
0.000519 0.000477 -0.002411
0.000494 0.000482 -0.0024
0.00047 0.000485 -0.002394
0.000445 0.000485 -0.002393
0.00042 0.000483 -0.002396
0.000973 0.000639 -0.002831
0.000871 0.000624 -0.002834
0.000696 0.000695 -0.002662
0.000216 0.000624 -0.002773
0.000768 0.000516 -0.002739
0.000804 0.000495 -0.002775
0.001057 0.000713 -0.002764
0.000141 0.00023 -0.002936
0.000116 0.000211 -0.002976
9.1e-05 0.000205 -0.00299
6.6e-05 0.000203 -0.002994
4.2e-05 0.000202 -0.002995
1.7e-05 0.000202 -0.002995
-7e-06 0.000202 -0.002996
-3.2e-05 0.000202 -0.002995
-5.7e-05 0.000203 -0.002992
-8.1e-05 0.000207 -0.002983
-0.000105 0.000221 -0.002952
-0.000129 0.00024 -0.002912
-0.000153 0.00026 -0.002869
-0.000177 0.000284 -0.002817
-0.000393 0.000477 -0.0024
-0.000417 0.000478 -0.002398
-0.000442 0.000477 -0.002399
-0.000466 0.000475 -0.002404
-0.000491 0.00047 -0.002414
-0.000516 0.000461 -0.002431
-0.000541 0.000446 -0.002464
-0.000567 0.000425 -0.002509
-0.000592 0.000405 -0.002551
-0.000617 0.000387 -0.002589
-0.000642 0.00037 -0.002625
-0.000668 0.000356 -0.002656
0.000615 0.00039 -0.002541
0.000591 0.000406 -0.002507
0.000567 0.000426 -0.002462
0.000543 0.000442 -0.002429
0.000519 0.00045 -0.002411
0.000494 0.000455 -0.0024
0.00047 0.000457 -0.002394
0.000445 0.000457 -0.002394
0.00042 0.000456 -0.002396
0.000871 0.000652 -0.002832
0.00108 0.0006 -0.002765
0.00108 0.000573 -0.002765
0.001755 0.00046 -0.002398
0.000838 0.000478 -0.002805
0.000309 0.000698 -0.002462
0.000141 0.000202 -0.002937
0.000116 0.000185 -0.002975
9.1e-05 0.000178 -0.002989
6.6e-05 0.000176 -0.002993
4.2e-05 0.000175 -0.002994
1.7e-05 0.000175 -0.002995
-7e-06 0.000175 -0.002995
-3.2e-05 0.000175 -0.002994
-5.7e-05 0.000176 -0.002991
-8.1e-05 0.000181 -0.002981
-0.000105 0.000194 -0.002952
-0.000129 0.000213 -0.002912
-0.000153 0.000233 -0.002867
-0.000177 0.000256 -0.002817
-0.000393 0.00045 -0.0024
-0.000417 0.000451 -0.002398
-0.000442 0.00045 -0.002399
-0.000466 0.000448 -0.002404
-0.000491 0.000442 -0.002414
-0.000516 0.000434 -0.002432
-0.000541 0.000419 -0.002464
-0.000567 0.000397 -0.00251
-0.000592 0.000379 -0.00255
-0.000617 0.00036 -0.00259
-0.000642 0.000343 -0.002625
-0.000668 0.000329 -0.002655
0.0011 0.000625 -0.00232
0.00059 0.000378 -0.002508
0.000567 0.000399 -0.002462
0.000543 0.000415 -0.002428
0.000519 0.000423 -0.002411
0.000494 0.000428 -0.002401
0.00047 0.00043 -0.002395
0.000445 0.00043 -0.002394
0.00042 0.000429 -0.002396
0.000183 0.000734 -0.002841
0.00102 0.000585 -0.002817
0.00095 0.000556 -0.002841
0.000657 0.000641 -0.002613
-0.000142 -3.3e-05 -0.002097
0.000696 0.000613 -0.002663
0.000141 0.000175 -0.002938
0.000116 0.000158 -0.002974
9.1e-05 0.000152 -0.002986
6.6e-05 0.00015 -0.002991
4.2e-05 0.000149 -0.002993
1.7e-05 0.000148 -0.002994
-7e-06 0.000148 -0.002993
-3.2e-05 0.000149 -0.002992
-5.7e-05 0.00015 -0.002988
-8.1e-05 0.000154 -0.00298
-0.000105 0.000167 -0.002952
-0.000129 0.000185 -0.002913
-0.000153 0.000207 -0.002866
-0.000177 0.00023 -0.002817
-0.000393 0.000423 -0.0024
-0.000417 0.000424 -0.002397
-0.000442 0.000423 -0.002399
-0.000466 0.00042 -0.002404
-0.000491 0.000415 -0.002415
-0.000516 0.000407 -0.002432
-0.000541 0.000391 -0.002464
-0.000567 0.00037 -0.002509
-0.000592 0.000351 -0.002551
-0.000617 0.000333 -0.00259
-0.000642 0.000316 -0.002625
-0.000668 0.000302 -0.002655
0.000871 0.000515 -0.002833
0.00059 0.000351 -0.002507
0.000566 0.000372 -0.002463
0.000542 0.000387 -0.00243
0.000518 0.000396 -0.002411
0.000494 0.0004 -0.002401
0.00047 0.000403 -0.002395
0.000445 0.000403 -0.002394
0.00042 0.000401 -0.002396
0.001092 0.000704 -0.002262
0.000871 0.000596 -0.002834
0.000926 0.000556 -0.002848
0.001102 0.00062 -0.002606
-0.000118 -3.3e-05 -0.002097
0.000271 0.000638 -0.002605
0.000141 0.000148 -0.002936
0.000116 0.000132 -0.002971
9.1e-05 0.000127 -0.002982
6.7e-05 0.000125 -0.002987
4.2e-05 0.000124 -0.002989
1.7e-05 0.000123 -0.00299
-7e-06 0.000123 -0.002989
-3.2e-05 0.000124 -0.002987
-5.7e-05 0.000125 -0.002984
-8.1e-05 0.000129 -0.002976
-0.000105 0.00014 -0.002952
-0.000129 0.000158 -0.002912
-0.000153 0.000179 -0.002866
-9.3e-05 -3.3e-05 -0.002098
-0.000393 0.000396 -0.0024
-0.000417 0.000397 -0.002397
-0.000442 0.000396 -0.002399
-0.000467 0.000393 -0.002404
-0.000491 0.000388 -0.002415
-0.000516 0.000379 -0.002432
-0.000541 0.000365 -0.002463
-0.000567 0.000343 -0.002509
-0.000592 0.000323 -0.002552
-0.000617 0.000305 -0.00259
-0.000642 0.000289 -0.002625
-0.000668 0.000274 -0.002656
0.000615 0.000308 -0.002541
0.000591 0.000325 -0.002506
0.000567 0.000345 -0.002462
0.000543 0.00036 -0.00243
0.000518 0.000368 -0.002411
0.000494 0.000373 -0.0024
0.00047 0.000376 -0.002395
0.000445 0.000376 -0.002394
0.00042 0.000374 -0.002396
0.000167 0.00072 -0.002875
0.000733 0.000672 -0.002704
0.000871 0.000569 -0.002834
0.00108 0.000546 -0.002764
0.000294 0.000683 -0.0025
0.000141 0.000121 -0.002937
0.000116 0.000107 -0.002966
9.1e-05 0.000103 -0.002976
6.7e-05 0.000101 -0.00298
4.2e-05 0.0001 -0.002982
1.7e-05 9.9e-05 -0.002983
-7e-06 9.9e-05 -0.002982
-3.2e-05 0.0001 -0.00298
-5.7e-05 0.000101 -0.002977
-8.1e-05 0.000104 -0.00297
-0.000105 0.000113 -0.002952
-0.000129 0.000132 -0.002911
-0.000153 0.000153 -0.002865
-0.000177 0.000175 -0.002818
-6.8e-05 -3.3e-05 -0.002098
-0.000393 0.000368 -0.0024
-0.000417 0.000369 -0.002398
-0.000442 0.000368 -0.002399
-0.000467 0.000366 -0.002404
-0.000491 0.00036 -0.002415
-0.000516 0.000352 -0.002433
-0.000542 0.000337 -0.002465
-0.000567 0.000317 -0.002508
-0.000592 0.000296 -0.002553
-0.000617 0.000278 -0.002591
-0.000641 0.000262 -0.002624
0.000615 0.000281 -0.00254
0.000591 0.000297 -0.002506
0.000567 0.000317 -0.002463
0.000543 0.000333 -0.002429
0.000519 0.000341 -0.002411
0.000494 0.000346 -0.0024
0.00047 0.000348 -0.002395
0.000445 0.000349 -0.002394
0.00042 0.000347 -0.002396
0.000949 0.000639 -0.002838
0.000231 0.00072 -0.002736
0.000658 0.000694 -0.002615
0.000657 0.000668 -0.002613
0.000246 0.000655 -0.002697
0.0002 0.000555 -0.002809
0.001017 0.000672 -0.002807
0.000141 9.5e-05 -0.002935
0.000116 8.4e-05 -0.002959
9.1e-05 8e-05 -0.002966
6.7e-05 7.8e-05 -0.00297
4.2e-05 7.7e-05 -0.002972
1.7e-05 7.6e-05 -0.002973
-7e-06 7.6e-05 -0.002973
-3.2e-05 7.7e-05 -0.002971
-5.6e-05 7.8e-05 -0.002968
-8.1e-05 8.1e-05 -0.002962
-0.000105 8.8e-05 -0.002947
-0.000129 0.000105 -0.002909
-0.000153 0.000126 -0.002865
-0.000177 0.000148 -0.002817
-4.4e-05 -3.4e-05 -0.0021
-0.000393 0.000341 -0.0024
-0.000417 0.000342 -0.002398
-0.000442 0.000341 -0.002399
-0.000467 0.000338 -0.002405
-0.000491 0.000333 -0.002415
-0.000516 0.000325 -0.002433
-0.000542 0.00031 -0.002465
-0.000567 0.000289 -0.002509
-0.000592 0.000269 -0.002553
-0.000617 0.00025 -0.002592
-0.000642 0.000235 -0.002624
0.000615 0.000254 -0.00254
0.000591 0.00027 -0.002506
0.000567 0.00029 -0.002463
0.000543 0.000305 -0.002429
0.000519 0.000314 -0.002411
0.000494 0.000319 -0.0024
0.00047 0.000321 -0.002395
0.000445 0.000322 -0.002394
0.00042 0.00032 -0.002396
0.000925 0.00064 -0.002842
0.000658 0.000722 -0.002615
0.000696 0.000668 -0.002662
0.00102 0.000449 -0.002817
0.000231 0.000639 -0.002736
0.000259 0.000672 -0.002653
0.000991 0.000704 -0.002804
0.000141 6.9e-05 -0.002932
0.000116 6.1e-05 -0.002948
9.2e-05 5.9e-05 -0.002954
6.7e-05 5.7e-05 -0.002957
4.2e-05 5.6e-05 -0.002959
1.8e-05 5.5e-05 -0.00296
-7e-06 5.5e-05 -0.00296
-3.2e-05 5.6e-05 -0.002958
-5.6e-05 5.7e-05 -0.002955
-8.1e-05 5.9e-05 -0.00295
-0.000105 6.4e-05 -0.00294
-0.000129 7.9e-05 -0.002908
-0.000153 9.8e-05 -0.002866
-0.000177 0.000121 -0.002817
-0.000393 0.000314 -0.0024
-0.000417 0.000315 -0.002398
-0.000442 0.000314 -0.0024
-0.000467 0.000311 -0.002405
-0.000492 0.000306 -0.002415
-0.000516 0.000298 -0.002433
-0.000542 0.000282 -0.002466
-0.000567 0.000262 -0.002509
-0.000592 0.000241 -0.002553
-0.000617 0.000223 -0.002591
-0.000643 0.000208 -0.002624
-0.000668 0.000193 -0.002656
0.000615 0.000228 -0.002539
0.000591 0.000243 -0.002506
0.000567 0.000263 -0.002462
0.000543 0.000278 -0.00243
0.000519 0.000287 -0.002411
0.000494 0.000292 -0.0024
0.00047 0.000294 -0.002395
0.000445 0.000294 -0.002394
0.00042 0.000293 -0.002396
0.000838 0.000667 -0.002806
0.000769 0.000651 -0.002741
0.000272 0.000746 -0.002608
0.000216 0.000679 -0.002773
0.000997 0.000449 -0.002826
0.000658 0.000585 -0.002616
0.001064 0.000453 -0.002795
0.000141 4.6e-05 -0.002922
0.000116 4.1e-05 -0.002934
9.2e-05 3.8e-05 -0.002939
6.7e-05 3.7e-05 -0.002942
4.2e-05 3.6e-05 -0.002944
1.8e-05 3.5e-05 -0.002944
-7e-06 3.5e-05 -0.002944
-3.1e-05 3.6e-05 -0.002943
-5.6e-05 3.7e-05 -0.00294
-8.1e-05 3.9e-05 -0.002936
-0.000105 4.3e-05 -0.002927
-0.000129 5.3e-05 -0.002905
-0.000154 7.1e-05 -0.002866
-0.000393 0.000287 -0.0024
-0.000417 0.000288 -0.002398
-0.000442 0.000287 -0.0024
-0.000467 0.000284 -0.002405
-0.000492 0.000279 -0.002415
-0.000516 0.00027 -0.002433
-0.000542 0.000255 -0.002465
-0.000567 0.000235 -0.002509
-0.000592 0.000214 -0.002553
-0.000617 0.000197 -0.002589
-0.000643 0.00018 -0.002624
-0.000668 0.000166 -0.002656
0.000611 0.000201 -0.00254
0.000591 0.000216 -0.002506
0.000567 0.000236 -0.002463
0.000543 0.000251 -0.00243
0.000518 0.00026 -0.002411
0.000494 0.000264 -0.002401
0.000469 0.000267 -0.002395
0.000445 0.000267 -0.002394
0.00042 0.000266 -0.002396
0.00108 0.000628 -0.002764
0.000838 0.000613 -0.002806
0.000733 0.000645 -0.002704
0.000231 0.000693 -0.002736
0.00106 0.000678 -0.002779
0.000141 2.6e-05 -0.002907
0.000117 2.2e-05 -0.002916
9.2e-05 2e-05 -0.00292
6.7e-05 1.8e-05 -0.002923
4.3e-05 1.8e-05 -0.002924
1.8e-05 1.7e-05 -0.002925
-7e-06 1.7e-05 -0.002924
-3.1e-05 1.8e-05 -0.002923
-5.6e-05 1.9e-05 -0.002921
-8e-05 2e-05 -0.002917
-0.000105 2.3e-05 -0.00291
-0.000129 3e-05 -0.002895
-0.000153 4.5e-05 -0.002864
-0.000177 6.6e-05 -0.002818
-1.9e-05 -3.3e-05 -0.0021
-0.000393 0.00026 -0.0024
-0.000417 0.00026 -0.002398
-0.000442 0.000259 -0.0024
-0.000467 0.000257 -0.002405
-0.000492 0.000252 -0.002415
-0.000517 0.000243 -0.002433
-0.000542 0.000228 -0.002465
-0.000567 0.000207 -0.00251
-0.000592 0.000187 -0.002552
-0.000617 0.000169 -0.002591
-0.000643 0.000153 -0.002625
-0.000668 0.000139 -0.002655
0.000615 0.000174 -0.002537
0.000591 0.000189 -0.002506
0.000567 0.000209 -0.002462
0.000542 0.000224 -0.00243
0.000518 0.000233 -0.002411
0.000494 0.000237 -0.002401
0.000469 0.00024 -0.002395
0.000445 0.00024 -0.002394
0.001867 0.000563 -0.002344
0.001063 0.000618 -0.002791
0.000216 0.000706 -0.002773
0.000769 0.000624 -0.00274
0.001109 0.000734 -0.002382
0.000215 0.000597 -0.002773
0.001039 0.000674 -0.002794
0.000142 9e-06 -0.002886
0.000117 6e-06 -0.002893
9.2e-05 4e-06 -0.002896
6.8e-05 3e-06 -0.002898
4.3e-05 2e-06 -0.0029
1.8e-05 2e-06 -0.0029
-6e-06 2e-06 -0.002899
-3.1e-05 2e-06 -0.002898
-5.5e-05 3e-06 -0.002896
-8e-05 4e-06 -0.002894
-0.000105 6e-06 -0.002889
-0.000129 1.2e-05 -0.002877
-0.000153 2.2e-05 -0.002854
-0.000177 4e-05 -0.002815
-0.000393 0.000232 -0.002401
-0.000417 0.000233 -0.002398
-0.000442 0.000232 -0.0024
-0.000467 0.00023 -0.002405
-0.000492 0.000225 -0.002415
-0.000517 0.000216 -0.002432
-0.000542 0.000201 -0.002465
-0.000567 0.00018 -0.002509
-0.000592 0.00016 -0.002553
-0.000617 0.000142 -0.002591
-0.000643 0.000126 -0.002625
-0.000668 0.000112 -0.002655
0.000615 0.000147 -0.002537
0.000591 0.000162 -0.002506
0.000567 0.000182 -0.002461
0.000542 0.000197 -0.00243
0.000518 0.000206 -0.002411
0.000494 0.00021 -0.002401
0.000469 0.000213 -0.002395
0.000445 0.000213 -0.002394
0.00042 0.000211 -0.002396
0.00102 0.000613 -0.002816
0.000246 0.000736 -0.002696
0.000804 0.000604 -0.002776
0.00102 0.000504 -0.002817
0.00108 0.000519 -0.002765
0.00108 0.000458 -0.002755
0.001098 0.000469 -0.002646
0.000259 0.0007 -0.002653
0.000142 -3e-06 -0.002853
0.000118 -4e-06 -0.002854
9.3e-05 -5e-06 -0.002856
6.8e-05 -5e-06 -0.002856
4.4e-05 -5e-06 -0.002855
1.9e-05 -5e-06 -0.002855
-6e-06 -5e-06 -0.002856
-3e-05 -4e-06 -0.002854
-5.5e-05 -4e-06 -0.002854
-7.9e-05 -3e-06 -0.002851
-0.000104 -2e-06 -0.002848
-0.000129 -1e-06 -0.002846
-0.000153 4e-06 -0.002834
-0.000177 1.7e-05 -0.002806
-0.000393 0.000205 -0.0024
-0.000417 0.000206 -0.002398
-0.000442 0.000205 -0.0024
-0.000467 0.000203 -0.002405
-0.000492 0.000198 -0.002415
-0.000517 0.000189 -0.002432
-0.000542 0.000174 -0.002466
-0.000567 0.000153 -0.00251
-0.000592 0.000133 -0.002553
-0.000618 0.000115 -0.002591
-0.000643 9.9e-05 -0.002625
-0.000668 8.5e-05 -0.002654
0.000615 0.00012 -0.002536
0.000591 0.000135 -0.002505
0.000567 0.000155 -0.002461
0.000542 0.00017 -0.002429
0.000518 0.000178 -0.002411
0.000494 0.000183 -0.0024
0.000469 0.000186 -0.002394
0.000445 0.000186 -0.002393
0.00042 0.000184 -0.002396
0.000733 0.000726 -0.002704
0.000804 0.000631 -0.002775
0.000973 0.000557 -0.002833
0.001828 0.000506 -0.002375
0.000231 0.000611 -0.002736
0.001124 0.000651 -0.002172
0.001082 0.000512 -0.002756
0.001035 0.000709 -0.00278
0.000143 -7e-06 -0.002803
0.000118 -7e-06 -0.002803
9.4e-05 -7e-06 -0.002802
6.9e-05 -7e-06 -0.002802
4.4e-05 -7e-06 -0.002802
2e-05 -7e-06 -0.002803
-5e-06 -7e-06 -0.002801
-2.9e-05 -7e-06 -0.002801
-5.4e-05 -7e-06 -0.002802
-7.9e-05 -6e-06 -0.002799
-0.000103 -6e-06 -0.002799
-0.000128 -6e-06 -0.002799
-0.000153 -6e-06 -0.002798
-0.000177 -0.0 -0.002785
6e-06 -3.3e-05 -0.0021
-0.000393 0.000178 -0.0024
-0.000417 0.000179 -0.002398
-0.000442 0.000178 -0.002399
-0.000467 0.000176 -0.002404
-0.000492 0.00017 -0.002415
-0.000517 0.000162 -0.002433
-0.000542 0.000147 -0.002464
-0.000567 0.000125 -0.00251
-0.000592 0.000106 -0.002552
-0.000618 8.7e-05 -0.002591
-0.000643 7.2e-05 -0.002625
-0.000668 5.8e-05 -0.002653
0.000589 0.000108 -0.002505
0.000567 0.000128 -0.00246
0.000543 0.000143 -0.002429
0.000518 0.000151 -0.002411
0.000494 0.000156 -0.0024
0.000469 0.000159 -0.002394
0.000445 0.000159 -0.002393
0.00042 0.000157 -0.002396
0.001041 0.000644 -0.002801
0.001043 0.000587 -0.002807
0.001064 0.000562 -0.002794
0.000901 0.000504 -0.00285
0.001092 0.000456 -0.002684
0.000171 0.000611 -0.002878
0.001013 0.000706 -0.002793
0.000144 -9e-06 -0.00275
0.000119 -9e-06 -0.002749
7e-05 -8e-06 -0.002747
4.5e-05 -9e-06 -0.002747
3e-05 -3.3e-05 -0.0021
5.5e-05 -3.3e-05 -0.002099
-0.000152 -6e-06 -0.002739
-0.000176 -6e-06 -0.002738
-0.0002 -0.0 -0.002728
-0.000393 0.000151 -0.0024
-0.000417 0.000152 -0.002398
-0.000442 0.000151 -0.002399
-0.000467 0.000148 -0.002405
-0.000492 0.000143 -0.002415
-0.000517 0.000135 -0.002433
-0.000542 0.00012 -0.002464
-0.000567 9.8e-05 -0.00251
-0.000592 7.8e-05 -0.002554
-0.000618 6e-05 -0.002591
-0.000643 4.4e-05 -0.002625
-0.000668 3.1e-05 -0.002653
0.000591 8.1e-05 -0.002503
0.000567 0.000101 -0.002461
0.000543 0.000116 -0.002427
0.000518 0.000124 -0.00241
0.000494 0.000129 -0.002399
0.000469 0.000131 -0.002394
0.000445 0.000132 -0.002393
0.00042 0.00013 -0.002396
0.001062 0.000647 -0.002786
0.000769 0.000678 -0.002742
0.000901 0.000586 -0.002848
0.000216 0.000651 -0.002774
0.000283 0.000714 -0.002554
0.000293 0.000737 -0.002499
0.000184 0.000624 -0.002843
0.000169 -6e-06 -0.002685
0.00012 -6e-06 -0.002684
9.5e-05 -6e-06 -0.002684
7.1e-05 -6e-06 -0.002683
4.6e-05 -6e-06 -0.002684
2.2e-05 -6e-06 -0.002684
-3e-06 -7e-06 -0.002685
0.000479 -2.5e-05 0.002085
0.000455 -2.5e-05 0.002092
0.000431 -2.5e-05 0.002099
0.000408 -2.4e-05 0.002105
-0.000151 -7e-06 -0.002681
-0.000176 -7e-06 -0.002682
-0.0002 -7e-06 -0.002682
-0.000368 0.000122 -0.002404
-0.000393 0.000124 -0.0024
-0.000418 0.000125 -0.002397
-0.000442 0.000124 -0.002399
-0.000467 0.000121 -0.002404
-0.000492 0.000116 -0.002415
-0.000517 0.000107 -0.002433
-0.000542 9.3e-05 -0.002464
-0.000567 7.1e-05 -0.002509
-0.000592 5e-05 -0.002554
-0.000618 3.2e-05 -0.002593
-0.000643 1.8e-05 -0.002624
-0.000668 6e-06 -0.002648
0.000615 3.8e-05 -0.002539
0.000591 5.4e-05 -0.002503
0.000567 7.4e-05 -0.00246
0.000543 8.9e-05 -0.002427
0.000518 9.7e-05 -0.00241
0.000494 0.000102 -0.002399
0.000469 0.000104 -0.002394
0.000445 0.000105 -0.002393
0.00042 0.000103 -0.002396
0.000804 0.000685 -0.002776
0.000733 0.000699 -0.002704
0.000997 0.000558 -0.002825
0.000246 0.0006 -0.002697
0.000309 0.000752 -0.002462
0.000272 0.000692 -0.002606
0.001555 0.000491 -0.002308
0.000195 -1e-05 -0.002636
0.00017 -1e-05 -0.002636
0.000145 -1e-05 -0.002634
9.6e-05 -1e-05 -0.002634
7.2e-05 -9e-06 -0.002631
2.2e-05 -1.1e-05 -0.002635
-2e-06 -1e-05 -0.002633
0.000384 -2.4e-05 0.002112
0.00036 -2.3e-05 0.002118
0.000336 -2.2e-05 0.002124
0.001235 -7e-06 0.001861
-0.000368 9.5e-05 -0.002404
-0.000393 9.7e-05 -0.0024
-0.000418 9.8e-05 -0.002397
-0.000442 9.7e-05 -0.002399
-0.000467 9.4e-05 -0.002404
-0.000492 8.9e-05 -0.002415
-0.000517 8.1e-05 -0.002432
-0.000542 6.6e-05 -0.002463
-0.000567 4.4e-05 -0.002509
-0.000592 2.3e-05 -0.002554
-0.000618 7e-06 -0.00259
-0.000643 -3e-06 -0.002609
0.000615 1.1e-05 -0.002538
0.000591 2.7e-05 -0.002503
0.000567 4.8e-05 -0.002458
0.000543 6.2e-05 -0.002426
0.000518 7e-05 -0.002409
0.000494 7.5e-05 -0.002399
0.000469 7.7e-05 -0.002393
0.000445 7.8e-05 -0.002392
0.00042 7.6e-05 -0.002395
0.000899 0.000643 -0.002843
0.000926 0.000584 -0.002847
0.000246 0.000627 -0.002697
7.9e-05 -3.2e-05 -0.002099
0.00022 -9e-06 -0.002575
0.000196 -8e-06 -0.002573
0.000171 -8e-06 -0.002572
0.000146 -8e-06 -0.002571
0.000769 0.000542 -0.00274
0.00102 0.000477 -0.002817
0.0002 0.00061 -0.002809
0.001111 0.000577 -0.002433
0.000104 -3.2e-05 -0.002099
0.001212 -8e-06 0.001871
0.001143 -1e-05 0.001897
0.00112 -1e-05 0.001905
0.001097 -1.1e-05 0.001916
-0.000344 6.4e-05 -0.002412
-0.000368 6.7e-05 -0.002404
-0.000393 6.9e-05 -0.0024
-0.000418 7.1e-05 -0.002397
-0.000442 7e-05 -0.002398
-0.000467 6.7e-05 -0.002404
-0.000492 6.2e-05 -0.002414
-0.000517 5.4e-05 -0.002432
-0.000542 3.9e-05 -0.002463
-0.000567 1.5e-05 -0.002514
-0.000592 -2e-06 -0.002549
-0.000617 -8e-06 -0.002562
0.000129 -3.2e-05 -0.002099
0.000567 2.2e-05 -0.002455
0.000543 3.5e-05 -0.002427
0.000518 4.3e-05 -0.002408
0.000494 4.8e-05 -0.002398
0.000469 5e-05 -0.002393
0.000445 5.1e-05 -0.002392
0.00042 4.9e-05 -0.002395
0.000395 4.6e-05 -0.0024
0.001042 0.000615 -0.002806
0.000997 0.000503 -0.002826
0.000295 -1e-05 -0.002519
0.00027 -1e-05 -0.00252
0.000246 -8e-06 -0.002515
0.000221 -8e-06 -0.002514
0.000197 -7e-06 -0.002513
0.000172 -7e-06 -0.002512
0.000147 -7e-06 -0.002512
0.000123 -6e-06 -0.00251
0.000171 0.000584 -0.002878
0.000184 0.000596 -0.002844
0.00087 0.000681 -0.002828
2.4e-05 -7e-06 -0.00251
-1e-06 -7e-06 -0.00251
-2.5e-05 -8e-06 -0.002512
0.001074 -1.2e-05 0.001923
0.001051 -1.2e-05 0.001932
0.001027 -1.3e-05 0.00194
0.001004 -1.3e-05 0.001948
0.000981 -1.3e-05 0.001956
-0.000173 -6e-06 -0.002507
-0.000198 -7e-06 -0.002507
-0.000222 -9e-06 -0.002511
-0.000247 -9e-06 -0.002511
-0.000344 3.6e-05 -0.002412
-0.000368 4e-05 -0.002404
-0.000393 4.2e-05 -0.002399
-0.000418 4.4e-05 -0.002397
-0.000442 4.3e-05 -0.002399
-0.000467 4e-05 -0.002403
-0.000492 3.5e-05 -0.002414
-0.000517 2.6e-05 -0.002432
-0.000592 -9e-06 -0.002507
-0.000616 -8e-06 -0.002505
-0.000641 -8e-06 -0.002503
0.000153 -3.2e-05 -0.002099
0.000178 -3.1e-05 -0.002098
0.000567 -4e-06 -0.002452
0.000543 8e-06 -0.002427
0.000518 1.6e-05 -0.002408
0.000494 2.1e-05 -0.002398
0.000469 2.3e-05 -0.002393
0.000445 2.4e-05 -0.002392
0.00042 2.2e-05 -0.002395
0.000395 1.9e-05 -0.0024
0.00168 0.00049 -0.002369
0.000733 0.000536 -0.002704
0.000296 -1.2e-05 -0.002467
0.000271 -1e-05 -0.002462
0.000247 -9e-06 -0.002459
0.000222 -8e-06 -0.002457
0.000197 -8e-06 -0.002457
0.000203 -3.1e-05 -0.002098
0.000227 -3.1e-05 -0.002097
0.001043 0.00045 -0.002809
2.5e-05 -8e-06 -0.002454
0.0 -7e-06 -0.002452
-2.4e-05 -8e-06 -0.002453
-0.000172 -9e-06 -0.002453
-0.000197 -9e-06 -0.002453
-0.000221 -9e-06 -0.002454
-0.000246 -9e-06 -0.002453
-0.000344 9e-06 -0.002413
-0.000368 1.3e-05 -0.002404
-0.000393 1.5e-05 -0.002399
-0.000418 1.6e-05 -0.002396
-0.000442 1.6e-05 -0.002399
-0.000465 1.3e-05 -0.00241
-0.000492 6e-06 -0.002417
-0.000517 -2e-06 -0.002435
-0.000542 -1e-05 -0.002452
-0.000591 -8e-06 -0.002446
-0.000616 -8e-06 -0.002447
-0.00064 -8e-06 -0.002446
0.000252 -3e-05 -0.002095
0.000568 -1e-05 -0.002408
0.000543 -9e-06 -0.002404
0.000733 0.000564 -0.002703
0.000494 -5e-06 -0.002397
0.00047 -2e-06 -0.002392
0.000445 -4e-06 -0.002393
0.00042 -6e-06 -0.002396
0.000994 0.00067 -0.002816
0.001461 0.000619 -0.002249
0.000321 -9e-06 -0.002401
0.000297 -8e-06 -0.002399
0.000272 -8e-06 -0.002399
0.000248 -8e-06 -0.002398
0.000223 -8e-06 -0.002398
0.000198 -8e-06 -0.002398
0.000174 -8e-06 -0.002398
0.000149 -8e-06 -0.002398
0.000124 -9e-06 -0.002399
0.000958 -1.4e-05 0.001966
0.000617 0.000643 -0.002559
0.000696 0.000586 -0.002663
2.6e-05 -9e-06 -0.002398
1e-06 -9e-06 -0.002399
-2.4e-05 -1e-05 -0.002399
-4.8e-05 -9e-06 -0.002397
-7.3e-05 -9e-06 -0.002397
-0.000171 -8e-06 -0.002394
-0.000245 -8e-06 -0.002392
-0.00027 -8e-06 -0.002393
-0.000319 -8e-06 -0.002392
-0.000344 -8e-06 -0.002391
-0.000368 -8e-06 -0.002391
-0.000393 -8e-06 -0.002391
-0.000418 -9e-06 -0.002391
-0.000442 -9e-06 -0.002393
-0.000467 -1.1e-05 -0.002395
-0.00059 -9e-06 -0.00239
0.001075 0.000723 -0.002738
0.000272 0.000719 -0.002606
0.000997 0.00053 -0.002826
0.001162 0.000654 -0.002139
0.000283 0.000741 -0.002555
0.000347 -1e-05 -0.002345
0.000322 -8e-06 -0.002342
0.000298 -9e-06 -0.002342
0.000273 -9e-06 -0.002343
0.000248 -8e-06 -0.002342
0.000901 0.000477 -0.00285
0.001079 0.000492 -0.002764
0.000174 -8e-06 -0.00234
0.00015 -9e-06 -0.002341
0.000125 -8e-06 -0.002338
0.001078 0.000686 -0.002755
0.000658 0.000613 -0.002615
0.000328 0.000733 -0.002438
2.7e-05 -9e-06 -0.002339
2e-06 -9e-06 -0.00234
-2.3e-05 -9e-06 -0.002338
-4.7e-05 -9e-06 -0.002339
-7.2e-05 -9e-06 -0.002339
-0.00022 -9e-06 -0.002337
-0.000244 -9e-06 -0.002335
-0.000318 -9e-06 -0.002336
-0.000343 -8e-06 -0.002333
-0.000367 -9e-06 -0.002335
-0.000392 -9e-06 -0.002333
-0.000417 -8e-06 -0.002333
-0.000441 -9e-06 -0.002333
-0.000466 -8e-06 -0.002332
-0.000491 -8e-06 -0.00233
-0.000515 -9e-06 -0.002333
-0.000614 -8e-06 -0.002329
-0.000638 -8e-06 -0.002328
-0.000663 -8e-06 -0.002328
0.000973 0.000502 -0.002834
0.00095 0.000502 -0.002841
0.001065 0.000508 -0.002795
0.001043 0.000505 -0.002809
0.0002 0.000637 -0.002809
0.000947 0.00067 -0.002831
0.000923 0.000671 -0.002835
0.001043 0.000478 -0.002809
0.000246 0.000682 -0.002696
0.000696 0.000722 -0.002662
0.000323 -9e-06 -0.002285
0.000298 -1e-05 -0.002286
0.000274 -9e-06 -0.002285
0.000249 -8e-06 -0.002282
0.000225 -9e-06 -0.002283
0.000303 0.00079 -0.00244
0.000151 -9e-06 -0.002282
0.001097 0.000692 -0.002222
0.001065 0.000535 -0.002795
0.000283 0.00066 -0.002554
0.001829 0.000616 -0.001897
0.001079 0.000465 -0.002765
0.000283 0.000688 -0.002552
-2.2e-05 -8e-06 -0.002279
-4.6e-05 -9e-06 -0.00228
-0.000219 -9e-06 -0.002277
-0.000416 -9e-06 -0.002275
-0.000441 -9e-06 -0.002275
-0.000465 -9e-06 -0.002275
-0.00049 -9e-06 -0.002275
-0.000514 -9e-06 -0.002275
-0.000539 -8e-06 -0.002274
-0.000638 -9e-06 -0.002271
0.001867 0.000535 -0.002344
0.000894 0.000707 -0.002823
0.000926 0.000529 -0.002848
0.000871 0.000542 -0.002834
0.000215 0.00057 -0.002773
0.000472 -9e-06 -0.002229
0.000971 0.00067 -0.002824
0.001064 0.00048 -0.002795
0.000926 0.000501 -0.002848
0.0002 0.000691 -0.002809
0.000324 -1e-05 -0.002229
0.000299 -1e-05 -0.002228
0.000275 -9e-06 -0.002227
0.00025 -9e-06 -0.002226
0.000225 -1e-05 -0.002227
0.000201 -1e-05 -0.002226
0.000259 0.000618 -0.002652
0.000215 0.000733 -0.002772
0.000997 0.000476 -0.002825
0.001142 0.000654 -0.002154
0.001103 0.000483 -0.002608
0.000272 0.000665 -0.002605
0.000804 0.000712 -0.002776
0.000769 0.000732 -0.002741
0.000171 0.000557 -0.002878
-0.000415 -1e-05 -0.002219
-0.00044 -1e-05 -0.002219
-0.000464 -1e-05 -0.002219
-0.000489 -1e-05 -0.002218
-0.000514 -9e-06 -0.002216
-0.000538 -9e-06 -0.002215
0.000871 0.000461 -0.002834
0.000901 0.000531 -0.00285
0.000546 -1e-05 -0.002174
0.000522 -1.1e-05 -0.002174
0.000497 -1e-05 -0.002173
0.000473 -9e-06 -0.002171
0.0002 0.000719 -0.002809
0.000804 0.000577 -0.002775
0.000696 0.000641 -0.002662
0.000294 0.000709 -0.002501
0.001786 0.000452 -0.0024
0.000996 0.00064 -0.002823
0.0003 -1.2e-05 -0.002175
0.000275 -1.2e-05 -0.002174
0.000251 -1.3e-05 -0.002175
0.000226 -1.3e-05 -0.002175
0.000202 -1.3e-05 -0.002175
0.000177 -1.3e-05 -0.002176
0.001681 0.000707 -0.00237
0.000973 0.00053 -0.002833
0.00095 0.000529 -0.002841
0.001043 0.000532 -0.002808
0.000838 0.000695 -0.002806
0.000246 0.000709 -0.002696
0.000696 0.000559 -0.002663
-2e-05 -1.4e-05 -0.002176
0.001598 0.000526 -0.00233
-0.000414 -1.1e-05 -0.002162
-0.000439 -1.1e-05 -0.002162
-0.000463 -1e-05 -0.00216
-0.000488 -1e-05 -0.00216
-0.000513 -9e-06 -0.002158
-0.000537 -1e-05 -0.002159
-0.000562 -1e-05 -0.00216
0.000926 0.000447 -0.002849
0.00095 0.000447 -0.002841
0.000547 -1.3e-05 -0.002121
0.000523 -1.4e-05 -0.002122
0.000498 -1.4e-05 -0.002122
0.000473 -1.4e-05 -0.002123
0.000184 0.000705 -0.002844
0.000769 0.000596 -0.002741
0.000733 0.000618 -0.002703
0.001848 0.000562 -0.002359
0.001111 0.000632 -0.002433
0.00017 0.000693 -0.002877
0.000838 0.00064 -0.002806
0.000276 -1.9e-05 -0.002131
0.000251 -1.9e-05 -0.002132
0.000227 -2e-05 -0.002132
0.000202 -2e-05 -0.002132
0.000177 -2.1e-05 -0.002133
0.000153 -2.1e-05 -0.002134
0.000128 -2.1e-05 -0.002133
0.000104 -2.2e-05 -0.002134
7.9e-05 -2.2e-05 -0.002135
5.4e-05 -2.1e-05 -0.002133
3e-05 -2.2e-05 -0.002133
5e-06 -2.2e-05 -0.002133
-2e-05 -2.2e-05 -0.002134
-4.4e-05 -2.2e-05 -0.002133
-6.9e-05 -2.2e-05 -0.002132
-9.3e-05 -2.2e-05 -0.002132
-0.000118 -2.2e-05 -0.002132
-0.000143 -2.1e-05 -0.002131
-0.000167 -2.2e-05 -0.002131
-0.000192 -2.1e-05 -0.002128
-0.000217 -2.1e-05 -0.002128
-0.000241 -2.1e-05 -0.002127
-0.000266 -2e-05 -0.002126
-0.00029 -2e-05 -0.002124
-0.000389 -1.8e-05 -0.002119
-0.000414 -1.7e-05 -0.002117
-0.000438 -1.7e-05 -0.002116
-0.000463 -1.6e-05 -0.002115
-0.000487 -1.5e-05 -0.002112
-0.000512 -1.4e-05 -0.002109
-0.000537 -1.3e-05 -0.002108
-0.000561 -1.3e-05 -0.002107
-0.000586 -1.2e-05 -0.002105
0.000901 0.000449 -0.00285
0.000973 0.000448 -0.002834
0.00164 0.000535 -0.002351
0.000171 0.00053 -0.002878
0.001141 0.000627 -0.002153
0.001786 0.000506 -0.0024
0.001906 0.000641 -0.002165
0.00164 0.000697 -0.002351
0.001094 0.000673 -0.002684
0.001848 0.000507 -0.00236
0.001598 0.000471 -0.002331
0.001755 0.000406 -0.002398
0.001555 0.000681 -0.002308
0.001064 0.000426 -0.002796
0.001043 0.000423 -0.002808
0.00102 0.000422 -0.002817
0.000997 0.000421 -0.002826
0.000973 0.000421 -0.002834
0.00095 0.00042 -0.002842
0.000926 0.00042 -0.002849
0.000901 0.000422 -0.00285
0.000871 0.000434 -0.002833
0.000838 0.00045 -0.002805
0.000804 0.000468 -0.002775
0.000768 0.000489 -0.00274
0.000733 0.000509 -0.002704
0.000696 0.000532 -0.002662
0.000658 0.000558 -0.002616
0.000371 0.000687 -0.00241
0.000349 0.000684 -0.002423
0.000328 0.000679 -0.002438
0.000309 0.00067 -0.002463
0.000293 0.000656 -0.002499
0.000282 0.000634 -0.002551
0.000271 0.000611 -0.002605
0.000259 0.000591 -0.002654
0.000246 0.000572 -0.002698
0.000231 0.000557 -0.002737
0.000216 0.000543 -0.002772
0.0002 0.000529 -0.002809
0.000185 0.000515 -0.002844
0.000171 0.000503 -0.002877
0.001828 0.000424 -0.002375
0.001808 0.000505 -0.002389
0.001598 0.000716 -0.00233
0.00168 0.00068 -0.002369
0.001098 0.000687 -0.002646
0.001101 0.000706 -0.002322
0.001828 0.000452 -0.002375
0.001911 0.00057 -0.002303
0.002336 0.000667 -0.001691
0.001509 0.000703 -0.00228
0.001064 0.000399 -0.002796
0.001043 0.000396 -0.002809
0.00102 0.000395 -0.002818
0.000997 0.000394 -0.002826
0.000973 0.000393 -0.002834
0.00095 0.000393 -0.002842
0.000926 0.000393 -0.002849
0.000901 0.000395 -0.00285
0.000871 0.000407 -0.002833
0.000838 0.000423 -0.002805
0.000804 0.000441 -0.002776
0.000769 0.000461 -0.00274
0.000733 0.000482 -0.002704
0.000696 0.000505 -0.002663
0.000657 0.000531 -0.002615
0.000394 0.00066 -0.002402
0.000371 0.000659 -0.00241
0.000349 0.000657 -0.002422
0.000328 0.000652 -0.002437
0.000309 0.000643 -0.002464
0.000293 0.000629 -0.002498
0.000282 0.000607 -0.002551
0.000271 0.000584 -0.002605
0.000259 0.000563 -0.002654
0.000246 0.000545 -0.002698
0.000231 0.00053 -0.002736
0.000215 0.000516 -0.002772
0.0002 0.000502 -0.002808
0.000185 0.000488 -0.002844
0.00017 0.000475 -0.002877
0.00141 0.000591 -0.002214
0.001867 0.000508 -0.002344
0.001719 0.00061 -0.002385
0.001556 0.000735 -0.002309
0.001107 0.000716 -0.002566
0.001108 0.000681 -0.00238
0.00111 0.00066 -0.002431
0.001889 0.000727 -0.002084
0.002251 0.000645 -0.00168
0.002494 0.000484 -0.001667
0.001808 0.000451 -0.002389
0.001094 0.000646 -0.002684
0.001064 0.000371 -0.002795
0.001043 0.000369 -0.002808
0.00102 0.000368 -0.002817
0.000997 0.000367 -0.002826
0.000973 0.000366 -0.002834
0.00095 0.000366 -0.002842
0.000926 0.000365 -0.002849
0.000901 0.000368 -0.00285
0.000871 0.00038 -0.002833
0.000838 0.000396 -0.002805
0.000804 0.000414 -0.002775
0.000769 0.000434 -0.002741
0.000733 0.000455 -0.002704
0.000696 0.000478 -0.002663
0.000657 0.000504 -0.002615
0.000418 0.000633 -0.002396
0.000394 0.000633 -0.002401
0.000371 0.000632 -0.002409
0.000348 0.000629 -0.002421
0.000327 0.000625 -0.002438
0.000309 0.000616 -0.002463
0.000293 0.000602 -0.002498
0.000282 0.000579 -0.002552
0.000271 0.000556 -0.002606
0.000259 0.000536 -0.002654
0.000246 0.000518 -0.002698
0.000231 0.000503 -0.002736
0.000215 0.000488 -0.002773
0.0002 0.000475 -0.002808
0.000184 0.00046 -0.002844
0.000167 0.000448 -0.002876
0.001231 0.000648 -0.002112
0.002468 0.000735 -0.000876
0.001828 0.000587 -0.002375
0.001848 0.000588 -0.00236
0.001098 0.000632 -0.002646
0.001911 0.000628 -0.002203
0.001142 0.000708 -0.002154
0.001755 0.000379 -0.002398
0.001556 0.000545 -0.002308
0.001093 0.000564 -0.002684
0.001837 0.000703 -0.001606
0.001043 0.000342 -0.002808
0.00102 0.000341 -0.002818
0.000997 0.00034 -0.002826
0.000973 0.000339 -0.002834
0.00095 0.000338 -0.002842
0.000926 0.000338 -0.002849
0.000901 0.000341 -0.00285
0.000871 0.000352 -0.002833
0.000838 0.000369 -0.002805
0.000804 0.000387 -0.002775
0.000769 0.000407 -0.00274
0.000733 0.000427 -0.002705
0.000696 0.00045 -0.002663
0.000658 0.000477 -0.002616
0.000617 0.000506 -0.002562
0.000418 0.000606 -0.002396
0.000394 0.000606 -0.002401
0.000371 0.000605 -0.002409
0.000348 0.000602 -0.002421
0.000327 0.000598 -0.002438
0.000309 0.000589 -0.002462
0.000292 0.000576 -0.002495
0.000271 0.000529 -0.002606
0.000259 0.000509 -0.002654
0.000246 0.000491 -0.002697
0.000231 0.000475 -0.002737
0.000215 0.000461 -0.002772
0.000199 0.000448 -0.002807
0.000184 0.000434 -0.002843
0.000167 0.000421 -0.002876
0.000156 0.000409 -0.00291
0.001763 0.000715 -0.001738
0.001829 0.000724 -0.001897
0.001906 0.000723 -0.002165
0.001867 0.00059 -0.002344
0.001599 0.000634 -0.002331
0.001899 0.000683 -0.002126
0.001098 0.000496 -0.002646
0.001771 0.0007 -0.001779
0.001808 0.000559 -0.002389
0.001043 0.000314 -0.002808
0.00102 0.000314 -0.002817
0.000996 0.000313 -0.002825
0.000973 0.000312 -0.002833
0.00095 0.000312 -0.002841
0.000926 0.000311 -0.002849
0.000901 0.000314 -0.00285
0.000871 0.000325 -0.002833
0.000838 0.000341 -0.002806
0.000804 0.000359 -0.002776
0.000768 0.00038 -0.002739
0.000733 0.0004 -0.002705
0.000657 0.00045 -0.002614
0.000617 0.000478 -0.002562
0.000418 0.000578 -0.002396
0.000394 0.000579 -0.002401
0.000371 0.000578 -0.002409
0.000349 0.000575 -0.002422
0.000328 0.00057 -0.002438
0.000308 0.000562 -0.002462
0.000292 0.000549 -0.002496
0.000271 0.000503 -0.002604
0.000259 0.000482 -0.002654
0.000246 0.000464 -0.002698
0.000231 0.000448 -0.002737
0.000215 0.000434 -0.002773
0.000199 0.00042 -0.002808
0.000184 0.000406 -0.002843
0.000167 0.000393 -0.002876
0.000156 0.000382 -0.00291
0.001124 0.000705 -0.002171
0.00151 0.000649 -0.002281
0.001555 0.000708 -0.002307
0.001918 0.000641 -0.002242
0.001555 0.000654 -0.002308
0.001785 0.000588 -0.002399
0.00151 0.000621 -0.002281
0.001206 0.000706 -0.002117
0.001092 0.000596 -0.002262
0.001261 0.00064 -0.002112
0.001461 0.0007 -0.002249
0.001043 0.000287 -0.002808
0.00102 0.000286 -0.002817
0.000996 0.000286 -0.002825
0.000973 0.000285 -0.002833
0.00095 0.000284 -0.002841
0.000926 0.000284 -0.002848
0.000901 0.000287 -0.00285
0.000871 0.000298 -0.002832
0.000838 0.000315 -0.002805
0.000804 0.000332 -0.002775
0.000768 0.000353 -0.002739
0.000733 0.000373 -0.002704
0.000657 0.000423 -0.002615
0.000617 0.000452 -0.00256
0.000418 0.000551 -0.002396
0.000394 0.000552 -0.002401
0.000371 0.000551 -0.00241
0.000349 0.000548 -0.002422
0.000328 0.000543 -0.002439
0.000308 0.000535 -0.002462
0.000291 0.000523 -0.002493
0.000271 0.000475 -0.002606
0.000259 0.000455 -0.002654
0.000246 0.000437 -0.002698
0.000231 0.000421 -0.002737
0.000215 0.000407 -0.002773
0.0002 0.000393 -0.002808
0.000184 0.000379 -0.002843
0.000167 0.000366 -0.002877
0.00151 0.000567 -0.002281
0.00111 0.00065 -0.002525
0.001598 0.000689 -0.00233
0.002507 0.000458 -0.001646
0.000549 -1.6e-05 -0.002086
0.001808 0.000587 -0.002388
0.001461 0.000646 -0.002249
0.001107 0.00058 -0.002566
0.001103 0.000565 -0.002606
0.002493 0.000457 -0.001667
0.001064 0.000263 -0.002795
0.001043 0.00026 -0.002808
0.00102 0.000259 -0.002817
0.000997 0.000258 -0.002826
0.000973 0.000257 -0.002834
0.00095 0.000257 -0.002842
0.000926 0.000257 -0.002848
0.000901 0.00026 -0.002849
0.00087 0.000271 -0.002832
0.000837 0.000288 -0.002805
0.000804 0.000305 -0.002775
0.000768 0.000326 -0.002739
0.000733 0.000346 -0.002704
0.000657 0.000396 -0.002614
0.000617 0.000424 -0.002561
0.000418 0.000524 -0.002396
0.000394 0.000524 -0.002401
0.000371 0.000524 -0.00241
0.000349 0.000521 -0.002422
0.000328 0.000516 -0.002438
0.000308 0.000508 -0.002462
0.000292 0.000494 -0.002496
0.000283 0.000469 -0.002555
0.000272 0.000447 -0.002607
0.000259 0.000427 -0.002654
0.000246 0.00041 -0.002698
0.000231 0.000394 -0.002737
0.000215 0.00038 -0.002773
0.0002 0.000366 -0.002808
0.000184 0.000352 -0.002843
0.000167 0.000339 -0.002876
0.001462 0.000591 -0.00225
0.001351 0.000734 -0.002164
0.001112 0.000749 -0.00248
0.001084 0.000716 -0.002717
0.001719 0.000583 -0.002385
0.001235 0.000754 -0.002117
0.001206 0.000733 -0.002118
0.000282 -2.9e-05 -0.00209
0.000306 -3e-05 -0.002086
0.00033 -3.1e-05 -0.00208
0.001098 0.000551 -0.002645
0.001162 0.000736 -0.00214
0.001509 0.000676 -0.00228
0.001043 0.000233 -0.002808
0.00102 0.000232 -0.002818
0.000997 0.000231 -0.002826
0.000973 0.00023 -0.002834
0.00095 0.00023 -0.002842
0.000926 0.00023 -0.002848
0.000901 0.000233 -0.002849
0.00087 0.000245 -0.002831
0.000837 0.00026 -0.002805
0.000803 0.000278 -0.002774
0.000768 0.000298 -0.00274
0.000733 0.000319 -0.002704
0.000354 -3.1e-05 -0.002074
0.000657 0.000368 -0.002614
0.000617 0.000397 -0.002561
0.000418 0.000497 -0.002396
0.000394 0.000497 -0.002401
0.000371 0.000496 -0.00241
0.000349 0.000494 -0.002422
0.000328 0.000489 -0.002439
0.000308 0.00048 -0.002462
0.000292 0.000467 -0.002496
0.000283 0.000442 -0.002555
0.000272 0.00042 -0.002607
0.000259 0.0004 -0.002655
0.000246 0.000382 -0.002698
0.000231 0.000366 -0.002738
0.000215 0.000352 -0.002773
0.0002 0.000338 -0.002809
0.000184 0.000324 -0.002844
0.000167 0.000312 -0.002876
0.001092 0.000623 -0.002262
0.001112 0.000667 -0.002481
0.001509 0.000731 -0.002279
0.001826 0.000643 -0.002371
0.001786 0.000561 -0.0024
0.001112 0.000753 -0.002196
0.001092 0.00065 -0.002261
0.000378 -3.2e-05 -0.002069
0.001108 0.000673 -0.002193
0.001107 0.000661 -0.002567
0.001042 0.000206 -0.002808
0.00102 0.000205 -0.002817
0.000996 0.000204 -0.002825
0.000973 0.000203 -0.002834
0.00095 0.000203 -0.002841
0.000926 0.000203 -0.002847
0.0009 0.000206 -0.002848
0.00087 0.000217 -0.002831
0.000837 0.000233 -0.002805
0.000803 0.000251 -0.002774
0.000768 0.000271 -0.00274
0.000733 0.000291 -0.002705
0.000657 0.000341 -0.002614
0.000616 0.000371 -0.002559
0.000418 0.000469 -0.002396
0.000394 0.00047 -0.002401
0.000371 0.000469 -0.00241
0.000349 0.000467 -0.002422
0.000328 0.000461 -0.002438
0.000308 0.000453 -0.002462
0.000292 0.00044 -0.002496
0.000283 0.000414 -0.002556
0.000272 0.000393 -0.002607
0.000259 0.000373 -0.002655
0.000246 0.000355 -0.002698
0.000231 0.000339 -0.002737
0.000215 0.000325 -0.002774
0.0002 0.000311 -0.002809
0.000184 0.000297 -0.002844
0.000167 0.000285 -0.002876
0.001915 0.000697 -0.00224
0.001093 0.000592 -0.002683
0.00164 0.00067 -0.002351
0.001846 0.000644 -0.002357
0.001866 0.000646 -0.002341
0.001756 0.000569 -0.002398
0.001262 0.000748 -0.002114
0.00164 0.00048 -0.002351
0.001639 0.000453 -0.00235
0.001112 0.000585 -0.002482
0.001108 0.000626 -0.00238
0.001111 0.000605 -0.002433
0.001161 0.000627 -0.002139
0.001103 0.000647 -0.002606
0.001042 0.00018 -0.002806
0.001019 0.000178 -0.002816
0.000996 0.000177 -0.002825
0.000973 0.000176 -0.002833
0.000949 0.000176 -0.00284
0.000925 0.000177 -0.002846
0.0009 0.00018 -0.002846
0.00087 0.000191 -0.00283
0.000837 0.000206 -0.002805
0.000803 0.000224 -0.002774
0.000768 0.000244 -0.00274
0.000733 0.000264 -0.002704
0.000696 0.000287 -0.002663
0.000657 0.000314 -0.002615
0.000616 0.000344 -0.002558
0.000418 0.000442 -0.002396
0.000394 0.000443 -0.002401
0.000371 0.000442 -0.00241
0.000349 0.000439 -0.002422
0.000328 0.000434 -0.002439
