-0.002899 0.000373 -0.000759
-0.002882 0.000383 -0.000732
-0.002857 0.000397 -0.000704
-0.002828 0.000411 -0.000675
-0.002798 0.000427 -0.000646
-0.002764 0.000445 -0.000617
-0.002732 0.000461 -0.000588
-0.002695 0.00048 -0.000558
-0.002651 0.000503 -0.000527
-0.002604 0.000526 -0.000496
-0.002549 0.000554 -0.000463
-0.002443 0.000607 -0.000399
-0.002426 0.000616 -0.000372
-0.002417 0.000622 -0.000346
-0.002414 0.000625 -0.000321
-0.002415 0.000626 -0.000296
-0.002419 0.000626 -0.000272
-0.002427 0.000624 -0.000248
-0.002437 0.00062 -0.000225
-0.002454 0.000614 -0.000202
-0.00248 0.000603 -0.000181
-0.002597 0.000552 -0.000147
-0.002655 0.000526 -0.00013
-0.002704 0.000505 -0.000111
-0.002751 0.000484 -9.3e-05
-0.002793 0.000466 -7.4e-05
-0.002831 0.00045 -5.4e-05
-0.002866 0.000434 -3.4e-05
-0.002901 0.00042 -1.4e-05
-0.002933 0.000406 7e-06
-0.002966 0.000392 2.7e-05
-0.002992 0.000382 4.8e-05
-0.003003 0.000378 7.2e-05
-0.003005 0.000379 9.7e-05
-0.003005 0.000381 0.000122
-0.002354 0.000685 -0.001391
-0.001556 0.000715 -0.00243
-0.002478 0.000619 -0.001606
-0.002477 0.000673 -0.001606
-0.002887 0.000347 -0.000832
-0.002894 0.000345 -0.000808
-0.0029 0.000344 -0.000784
-0.002899 0.000346 -0.000759
-0.002881 0.000356 -0.000732
-0.002856 0.000369 -0.000704
-0.002829 0.000384 -0.000675
-0.002798 0.0004 -0.000646
-0.002764 0.000418 -0.000617
-0.002732 0.000434 -0.000587
-0.002695 0.000453 -0.000558
-0.002651 0.000475 -0.000527
-0.002604 0.000499 -0.000496
-0.002442 0.00058 -0.000399
-0.002426 0.000589 -0.000372
-0.002417 0.000595 -0.000346
-0.002414 0.000598 -0.000321
-0.002415 0.000599 -0.000296
-0.002419 0.000599 -0.000272
-0.002426 0.000597 -0.000248
-0.002437 0.000593 -0.000225
-0.002454 0.000587 -0.000202
-0.00248 0.000576 -0.000181
-0.002655 0.000499 -0.00013
-0.002704 0.000477 -0.000111
-0.00275 0.000457 -9.3e-05
-0.002793 0.000439 -7.4e-05
-0.002831 0.000422 -5.4e-05
-0.002866 0.000407 -3.4e-05
-0.0029 0.000393 -1.4e-05
-0.002934 0.000378 7e-06
-0.002966 0.000365 2.7e-05
-0.002993 0.000354 4.8e-05
-0.003004 0.000351 7.2e-05
-0.003005 0.000352 9.7e-05
-0.003004 0.000354 0.000122
-0.002276 0.000742 -0.000979
-0.002296 0.000697 -0.001311
-0.001814 0.000647 -0.002366
-0.002461 0.000632 -0.001573
-0.002487 0.000652 -0.001646
-0.002887 0.00032 -0.000832
-0.002894 0.000318 -0.000808
-0.0029 0.000317 -0.000784
-0.002899 0.000319 -0.000759
-0.002881 0.000329 -0.000732
-0.002856 0.000342 -0.000704
-0.002829 0.000357 -0.000675
-0.002798 0.000373 -0.000646
-0.002764 0.00039 -0.000617
-0.002731 0.000408 -0.000587
-0.002695 0.000426 -0.000558
-0.00265 0.000449 -0.000527
-0.002603 0.000472 -0.000496
-0.002442 0.000553 -0.000399
-0.002426 0.000562 -0.000372
-0.002417 0.000568 -0.000346
-0.002414 0.000571 -0.000321
-0.002415 0.000572 -0.000296
-0.002419 0.000571 -0.000272
-0.002426 0.00057 -0.000248
-0.002437 0.000566 -0.000225
-0.002454 0.00056 -0.000202
-0.00248 0.000549 -0.000181
-0.002653 0.000473 -0.000129
-0.002705 0.00045 -0.000112
-0.002751 0.00043 -9.3e-05
-0.002793 0.000412 -7.4e-05
-0.002831 0.000395 -5.4e-05
-0.002867 0.00038 -3.4e-05
-0.0029 0.000366 -1.4e-05
-0.002934 0.000351 7e-06
-0.002967 0.000338 2.7e-05
-0.002993 0.000327 4.8e-05
-0.003003 0.000324 7.2e-05
-0.003005 0.000325 9.7e-05
-0.003004 0.000327 0.000122
-0.002759 0.000596 -0.000951
-0.002475 0.000592 -0.001606
-0.002629 0.000674 -0.000974
-0.002581 0.000721 -0.00098
-0.002759 0.000705 -0.000951
-0.002887 0.000293 -0.000832
-0.002894 0.000291 -0.000808
-0.0029 0.00029 -0.000784
-0.002899 0.000292 -0.000759
-0.00288 0.000302 -0.000732
-0.002856 0.000315 -0.000704
-0.002829 0.00033 -0.000675
-0.002799 0.000345 -0.000646
-0.002764 0.000363 -0.000617
-0.002732 0.00038 -0.000587
-0.002694 0.000399 -0.000557
-0.00265 0.000422 -0.000527
-0.002603 0.000445 -0.000495
-0.002442 0.000525 -0.000399
-0.002426 0.000535 -0.000372
-0.002417 0.000541 -0.000346
-0.002414 0.000544 -0.000321
-0.002415 0.000545 -0.000296
-0.002419 0.000544 -0.000272
-0.002426 0.000543 -0.000248
-0.002437 0.000539 -0.000224
-0.002454 0.000533 -0.000202
-0.00248 0.000522 -0.000181
-0.002655 0.000445 -0.00013
-0.002705 0.000423 -0.000111
-0.002751 0.000402 -9.3e-05
-0.002793 0.000384 -7.4e-05
-0.002831 0.000368 -5.4e-05
-0.002867 0.000353 -3.4e-05
-0.002901 0.000338 -1.4e-05
-0.002935 0.000324 6e-06
-0.002967 0.00031 2.7e-05
-0.002993 0.0003 4.8e-05
-0.003004 0.000296 7.2e-05
-0.003005 0.000298 9.7e-05
-0.003004 0.000299 0.000122
-0.002265 0.000745 -0.001271
-0.002404 0.000676 -0.001467
-0.002888 0.000621 -0.00082
-0.002377 0.000749 -0.001428
-0.002446 0.00053 -0.00174
-0.002887 0.000266 -0.000832
-0.002894 0.000264 -0.000808
-0.0029 0.000263 -0.000784
-0.002899 0.000265 -0.000759
-0.00288 0.000275 -0.000732
-0.002857 0.000288 -0.000704
-0.002828 0.000303 -0.000675
-0.002799 0.000318 -0.000646
-0.002765 0.000336 -0.000617
-0.002731 0.000353 -0.000587
-0.002694 0.000372 -0.000557
-0.002649 0.000395 -0.000526
-0.002603 0.000418 -0.000495
-0.002442 0.000498 -0.000399
-0.002426 0.000508 -0.000372
-0.002417 0.000513 -0.000346
-0.002414 0.000516 -0.000321
-0.002415 0.000518 -0.000296
-0.002418 0.000517 -0.000272
-0.002426 0.000515 -0.000248
-0.002437 0.000512 -0.000224
-0.002454 0.000505 -0.000202
-0.00248 0.000495 -0.000181
-0.002529 0.000474 -0.000162
-0.002598 0.000443 -0.000147
-0.002655 0.000417 -0.00013
-0.002705 0.000395 -0.000111
-0.002751 0.000375 -9.3e-05
-0.002793 0.000357 -7.4e-05
-0.002831 0.000341 -5.4e-05
-0.002867 0.000325 -3.4e-05
-0.0029 0.000311 -1.4e-05
-0.002936 0.000296 6e-06
-0.002967 0.000283 2.7e-05
-0.002993 0.000273 4.8e-05
-0.003003 0.000269 7.2e-05
-0.003005 0.00027 9.7e-05
-0.002883 0.000509 -0.000844
-0.002472 0.000712 -0.000985
-0.002855 0.00059 -0.000913
-0.002799 0.000635 -0.000942
-0.002489 0.000623 -0.001649
-0.00288 0.00024 -0.000856
-0.002887 0.000238 -0.000832
-0.002894 0.000237 -0.000808
-0.002899 0.000236 -0.000784
-0.002898 0.000238 -0.000759
-0.002881 0.000248 -0.000732
-0.002857 0.000261 -0.000704
-0.002828 0.000276 -0.000675
-0.002798 0.000291 -0.000646
-0.002765 0.000308 -0.000617
-0.002732 0.000326 -0.000587
-0.002693 0.000345 -0.000557
-0.002648 0.000368 -0.000526
-0.002604 0.000391 -0.000495
-0.00255 0.000417 -0.000463
-0.002443 0.000471 -0.000399
-0.002426 0.00048 -0.000372
-0.002417 0.000486 -0.000346
-0.002414 0.000489 -0.000321
-0.002415 0.00049 -0.000296
-0.002419 0.00049 -0.000272
-0.002426 0.000488 -0.000248
-0.002437 0.000485 -0.000224
-0.002454 0.000478 -0.000202
-0.002481 0.000467 -0.000181
-0.002529 0.000446 -0.000162
-0.002596 0.000416 -0.000147
-0.002655 0.00039 -0.00013
-0.002705 0.000368 -0.000112
-0.002751 0.000348 -9.3e-05
-0.002793 0.00033 -7.4e-05
-0.002832 0.000313 -5.4e-05
-0.002867 0.000298 -3.4e-05
-0.002901 0.000284 -1.4e-05
-0.002936 0.000269 6e-06
-0.002967 0.000256 2.7e-05
-0.002993 0.000245 4.8e-05
-0.003003 0.000242 7.2e-05
-0.003005 0.000243 9.7e-05
-0.002188 0.000609 -0.00178
-0.002876 0.000508 -0.000868
-0.002425 0.000579 -0.001503
-0.002798 0.000608 -0.000942
-0.002404 0.000703 -0.001467
-0.002823 0.000682 -0.000926
-0.00288 0.000213 -0.000856
-0.002887 0.000211 -0.000832
-0.002894 0.00021 -0.000808
-0.002899 0.000209 -0.000784
-0.002898 0.000211 -0.000759
-0.002881 0.00022 -0.000732
-0.002856 0.000234 -0.000704
-0.002827 0.000249 -0.000675
-0.002798 0.000264 -0.000646
-0.002766 0.000281 -0.000617
-0.002731 0.000299 -0.000587
-0.002692 0.000319 -0.000557
-0.002649 0.00034 -0.000526
-0.002602 0.000364 -0.000495
-0.00248 0.000425 -0.000429
-0.002443 0.000444 -0.000399
-0.002426 0.000453 -0.000372
-0.002417 0.000459 -0.000346
-0.002414 0.000462 -0.000321
-0.002415 0.000463 -0.000296
-0.002419 0.000463 -0.000272
-0.002426 0.000461 -0.000248
-0.002437 0.000457 -0.000224
-0.002455 0.000451 -0.000202
-0.002481 0.00044 -0.000181
-0.002531 0.000418 -0.000163
-0.002596 0.000389 -0.000146
-0.002654 0.000363 -0.000129
-0.002706 0.000341 -0.000112
-0.002751 0.000321 -9.3e-05
-0.002793 0.000303 -7.4e-05
-0.002832 0.000286 -5.4e-05
-0.002867 0.000271 -3.4e-05
-0.002902 0.000256 -1.4e-05
-0.002936 0.000242 6e-06
-0.002967 0.000229 2.7e-05
-0.002993 0.000219 4.8e-05
-0.003003 0.000215 7.2e-05
-0.003005 0.000216 9.7e-05
-0.002759 0.000542 -0.000951
-0.002866 0.000589 -0.000891
-0.002864 0.000617 -0.00089
-0.002842 0.000678 -0.000907
-0.00288 0.000186 -0.000856
-0.002887 0.000184 -0.000832
-0.002893 0.000183 -0.000808
-0.002897 0.000182 -0.000784
-0.002897 0.000184 -0.000759
-0.002881 0.000193 -0.000732
-0.002856 0.000206 -0.000704
-0.002828 0.000221 -0.000675
-0.002799 0.000237 -0.000646
-0.002766 0.000254 -0.000617
-0.002731 0.000272 -0.000587
-0.002692 0.000292 -0.000557
-0.002649 0.000313 -0.000526
-0.002602 0.000337 -0.000495
-0.002549 0.000364 -0.000463
-0.002479 0.000398 -0.000429
-0.002443 0.000417 -0.000399
-0.002426 0.000426 -0.000372
-0.002417 0.000432 -0.000346
-0.002414 0.000435 -0.000321
-0.002415 0.000436 -0.000296
-0.002419 0.000436 -0.000272
-0.002426 0.000434 -0.000248
-0.002437 0.00043 -0.000224
-0.002454 0.000424 -0.000202
-0.00248 0.000413 -0.000181
-0.00253 0.000391 -0.000162
-0.002655 0.000336 -0.00013
-0.002706 0.000313 -0.000112
-0.002752 0.000293 -9.3e-05
-0.002793 0.000275 -7.4e-05
-0.002832 0.000259 -5.4e-05
-0.002868 0.000244 -3.4e-05
-0.002902 0.000229 -1.4e-05
-0.002936 0.000215 7e-06
-0.002967 0.000202 2.7e-05
-0.002992 0.000192 4.9e-05
-0.003002 0.000189 7.2e-05
-0.003004 0.000189 9.7e-05
-0.001791 0.000638 -0.002153
-0.002798 0.000554 -0.000942
-0.002882 0.000591 -0.000844
-0.002675 0.000683 -0.000968
-0.00288 0.000684 -0.000789
-0.002879 0.000159 -0.000856
-0.002886 0.000157 -0.000832
-0.002891 0.000156 -0.000808
-0.002895 0.000156 -0.000783
-0.002895 0.000158 -0.000758
-0.002881 0.000166 -0.000732
-0.002856 0.000179 -0.000704
-0.002828 0.000194 -0.000675
-0.002798 0.00021 -0.000646
-0.002731 0.000244 -0.000587
-0.00269 0.000265 -0.000557
-0.002648 0.000287 -0.000526
-0.0026 0.000311 -0.000495
-0.002548 0.000337 -0.000463
-0.002478 0.000371 -0.000429
-0.002443 0.000389 -0.000399
-0.002426 0.000399 -0.000372
-0.002417 0.000405 -0.000346
-0.002414 0.000408 -0.000321
-0.002415 0.000409 -0.000296
-0.002419 0.000408 -0.000272
-0.002426 0.000407 -0.000248
-0.002437 0.000403 -0.000224
-0.002455 0.000396 -0.000202
-0.00248 0.000386 -0.00018
-0.002597 0.000334 -0.000147
-0.002654 0.000309 -0.000129
-0.002707 0.000286 -0.000112
-0.002751 0.000267 -9.3e-05
-0.002793 0.000248 -7.4e-05
-0.002832 0.000232 -5.4e-05
-0.002868 0.000216 -3.4e-05
-0.002902 0.000202 -1.4e-05
-0.002936 0.000188 7e-06
-0.002967 0.000175 2.7e-05
-0.002991 0.000165 4.9e-05
-0.002999 0.000163 7.3e-05
-0.003002 0.000163 9.7e-05
-0.002256 0.000723 -0.001267
-0.00246 0.000605 -0.001573
-0.00248 0.000684 -0.00164
-0.002717 0.000666 -0.00096
-0.002797 0.000691 -0.000941
-0.002875 0.000134 -0.000855
-0.002882 0.000132 -0.000831
-0.002887 0.000131 -0.000807
-0.002891 0.000131 -0.000783
-0.002891 0.000133 -0.000758
-0.00288 0.000139 -0.000732
-0.002855 0.000153 -0.000703
-0.002828 0.000167 -0.000675
-0.002797 0.000183 -0.000646
-0.002766 0.000199 -0.000617
-0.002732 0.000217 -0.000587
-0.002692 0.000237 -0.000557
-0.002647 0.00026 -0.000526
-0.0026 0.000284 -0.000495
-0.002546 0.00031 -0.000463
-0.002479 0.000344 -0.000429
-0.002443 0.000362 -0.000399
-0.002426 0.000372 -0.000372
-0.002417 0.000378 -0.000346
-0.002414 0.00038 -0.000321
-0.002415 0.000382 -0.000296
-0.002419 0.000381 -0.000272
-0.002427 0.00038 -0.000248
-0.002437 0.000376 -0.000224
-0.002454 0.000369 -0.000202
-0.00248 0.000359 -0.00018
-0.002596 0.000307 -0.000146
-0.002655 0.000281 -0.000129
-0.002708 0.000258 -0.000112
-0.002751 0.000239 -9.3e-05
-0.002793 0.000221 -7.3e-05
-0.002832 0.000204 -5.4e-05
-0.002868 0.000189 -3.4e-05
-0.002902 0.000175 -1.4e-05
-0.002936 0.00016 7e-06
-0.002967 0.000147 2.7e-05
-0.002988 0.000139 4.9e-05
-0.002996 0.000137 7.3e-05
-0.002999 0.000137 9.8e-05
-0.002214 0.000749 -0.001221
-0.002489 0.00058 -0.001639
-0.002471 0.000739 -0.000985
-0.002882 0.000619 -0.000844
-0.001798 0.000623 -0.002192
-0.002869 0.000109 -0.000854
-0.002876 0.000108 -0.00083
-0.002881 0.000107 -0.000806
-0.002885 0.000107 -0.000782
-0.002885 0.000108 -0.000757
-0.002878 0.000113 -0.000731
-0.002855 0.000125 -0.000703
-0.002828 0.00014 -0.000675
-0.002797 0.000156 -0.000646
-0.002766 0.000172 -0.000617
-0.002731 0.00019 -0.000587
-0.002693 0.00021 -0.000557
-0.002646 0.000233 -0.000526
-0.002601 0.000256 -0.000495
-0.002548 0.000283 -0.000463
-0.00248 0.000316 -0.000429
-0.002443 0.000335 -0.000399
-0.002426 0.000344 -0.000372
-0.002417 0.00035 -0.000346
-0.002414 0.000353 -0.000321
-0.002415 0.000354 -0.000296
-0.002419 0.000354 -0.000272
-0.002427 0.000352 -0.000248
-0.002438 0.000348 -0.000224
-0.002455 0.000342 -0.000202
-0.00248 0.000332 -0.00018
-0.002531 0.00031 -0.000162
-0.002655 0.000254 -0.000129
-0.002708 0.000231 -0.000112
-0.002753 0.000211 -9.3e-05
-0.002791 0.000195 -7.3e-05
-0.002832 0.000178 -5.4e-05
-0.002868 0.000162 -3.4e-05
-0.002902 0.000148 -1.4e-05
-0.002936 0.000133 7e-06
-0.002967 0.00012 2.7e-05
-0.002983 0.000114 5e-05
-0.00299 0.000113 7.4e-05
-0.002993 0.000113 9.8e-05
-0.002994 0.000114 0.000123
-0.002085 0.000708 -0.001757
-0.002889 0.000593 -0.00082
-0.002443 0.000646 -0.001539
-0.002463 0.000686 -0.001573
-0.00286 8.6e-05 -0.000853
-0.002867 8.5e-05 -0.000829
-0.002872 8.4e-05 -0.000805
-0.002876 8.4e-05 -0.000781
-0.002877 8.5e-05 -0.000756
-0.002873 8.8e-05 -0.000731
-0.002855 9.8e-05 -0.000703
-0.002827 0.000113 -0.000675
-0.002798 0.000129 -0.000646
-0.002765 0.000145 -0.000617
-0.002732 0.000162 -0.000587
-0.002692 0.000183 -0.000557
-0.002646 0.000206 -0.000526
-0.0026 0.000229 -0.000495
-0.002549 0.000255 -0.000463
-0.002443 0.000308 -0.000399
-0.002426 0.000317 -0.000372
-0.002417 0.000323 -0.000346
-0.002414 0.000326 -0.000321
-0.002415 0.000327 -0.000296
-0.002419 0.000327 -0.000272
-0.002426 0.000325 -0.000248
-0.002437 0.000321 -0.000224
-0.002454 0.000315 -0.000202
-0.00248 0.000305 -0.00018
-0.002528 0.000283 -0.000162
-0.002657 0.000226 -0.00013
-0.002707 0.000204 -0.000112
-0.002751 0.000185 -9.3e-05
-0.002793 0.000167 -7.3e-05
-0.002832 0.00015 -5.4e-05
-0.002868 0.000135 -3.4e-05
-0.002902 0.00012 -1.4e-05
-0.002936 0.000106 7e-06
-0.002964 9.5e-05 2.8e-05
-0.002976 9e-05 5.1e-05
-0.002982 8.9e-05 7.5e-05
-0.002985 8.9e-05 0.0001
-0.002986 9e-05 0.000124
-0.001816 0.000655 -0.002337
-0.002875 0.00059 -0.000868
-0.002853 0.000618 -0.000912
-0.002628 0.000729 -0.000974
-0.002849 6.5e-05 -0.000851
-0.002855 6.3e-05 -0.000828
-0.00286 6.2e-05 -0.000803
-0.002864 6.2e-05 -0.000779
-0.002866 6.3e-05 -0.000755
-0.002865 6.5e-05 -0.000729
-0.002853 7.2e-05 -0.000703
-0.002827 8.6e-05 -0.000675
-0.002798 0.000101 -0.000646
-0.002765 0.000118 -0.000617
-0.002733 0.000135 -0.000587
-0.002692 0.000156 -0.000557
-0.002649 0.000178 -0.000526
-0.002599 0.000202 -0.000495
-0.002549 0.000228 -0.000463
-0.002482 0.000261 -0.000429
-0.002442 0.000281 -0.000399
-0.002426 0.00029 -0.000372
-0.002417 0.000296 -0.000346
-0.002414 0.000299 -0.000321
-0.002415 0.0003 -0.000296
-0.002419 0.0003 -0.000272
-0.002426 0.000298 -0.000248
-0.002437 0.000294 -0.000224
-0.002455 0.000288 -0.000202
-0.00248 0.000277 -0.00018
-0.002599 0.000225 -0.000147
-0.002657 0.000199 -0.00013
-0.002706 0.000177 -0.000111
-0.002751 0.000158 -9.3e-05
-0.002793 0.00014 -7.3e-05
-0.002832 0.000123 -5.4e-05
-0.002867 0.000108 -3.4e-05
-0.002902 9.3e-05 -1.4e-05
-0.002935 7.9e-05 7e-06
-0.002957 7.1e-05 2.9e-05
-0.002966 6.8e-05 5.2e-05
-0.002971 6.7e-05 7.7e-05
-0.002973 6.8e-05 0.000101
-0.002975 6.8e-05 0.000126
-0.002474 0.000678 -0.001667
-0.002833 0.000596 -0.00093
-0.002832 0.000623 -0.00093
-0.002424 0.000715 -0.001503
-0.002854 0.000677 -0.000886
-0.002864 0.000719 -0.000782
-0.002846 4.2e-05 -0.000801
-0.00285 4.2e-05 -0.000777
-0.002852 4.2e-05 -0.000753
-0.002852 4.4e-05 -0.000728
-0.002846 4.8e-05 -0.000702
-0.002827 5.9e-05 -0.000675
-0.002798 7.4e-05 -0.000646
-0.002766 9.1e-05 -0.000617
-0.002732 0.000108 -0.000587
-0.002692 0.000128 -0.000557
-0.002649 0.00015 -0.000526
-0.0026 0.000175 -0.000495
-0.00248 0.000234 -0.000429
-0.002442 0.000254 -0.000399
-0.002426 0.000263 -0.000372
-0.002417 0.000269 -0.000346
-0.002414 0.000272 -0.000321
-0.002415 0.000273 -0.000296
-0.002419 0.000272 -0.000272
-0.002426 0.000271 -0.000248
-0.002437 0.000267 -0.000224
-0.002455 0.00026 -0.000202
-0.002481 0.00025 -0.00018
-0.002598 0.000198 -0.000147
-0.002656 0.000172 -0.00013
-0.002706 0.00015 -0.000111
-0.002752 0.00013 -9.3e-05
-0.002793 0.000113 -7.3e-05
-0.002832 9.6e-05 -5.4e-05
-0.002867 8.1e-05 -3.4e-05
-0.002902 6.6e-05 -1.4e-05
-0.00293 5.4e-05 7e-06
-0.002946 4.8e-05 3e-05
-0.002953 4.7e-05 5.4e-05
-0.002957 4.6e-05 7.8e-05
-0.00296 4.7e-05 0.000103
-0.002868 0.000507 -0.000892
-0.00253 0.000714 -0.000984
-0.002355 0.000738 -0.001392
-0.002444 0.000673 -0.001539
-0.002462 0.000659 -0.001573
-0.002189 0.000718 -0.00178
-0.002403 0.000731 -0.001467
-0.002431 0.000475 -0.00176
-0.002832 2.3e-05 -0.000775
-0.002835 2.3e-05 -0.00075
-0.002836 2.4e-05 -0.000726
-0.002833 2.7e-05 -0.0007
-0.002821 3.4e-05 -0.000674
-0.002796 4.8e-05 -0.000646
-0.002766 6.3e-05 -0.000617
-0.002731 8.1e-05 -0.000587
-0.002692 0.000101 -0.000557
-0.002649 0.000123 -0.000526
-0.002601 0.000147 -0.000495
-0.00248 0.000207 -0.000429
-0.002442 0.000227 -0.000399
-0.002426 0.000236 -0.000372
-0.002417 0.000242 -0.000346
-0.002414 0.000245 -0.000321
-0.002415 0.000246 -0.000296
-0.002419 0.000245 -0.000272
-0.002427 0.000244 -0.000248
-0.002438 0.00024 -0.000224
-0.002455 0.000233 -0.000202
-0.002481 0.000223 -0.00018
-0.002599 0.00017 -0.000147
-0.002657 0.000145 -0.00013
-0.002707 0.000123 -0.000112
-0.002753 0.000103 -9.3e-05
-0.002792 8.6e-05 -7.3e-05
-0.002832 6.8e-05 -5.4e-05
-0.002866 5.4e-05 -3.4e-05
-0.002899 4e-05 -1.3e-05
-0.002919 3.2e-05 9e-06
-0.00293 2.9e-05 3.2e-05
-0.002936 2.7e-05 5.6e-05
-0.00294 2.7e-05 8.1e-05
-0.002942 2.8e-05 0.000105
-0.001678 0.000721 -0.001832
-0.002532 0.000741 -0.000985
-0.002382 0.000719 -0.001431
-0.002452 0.000672 -0.001712
-0.002139 0.000738 -0.001771
-0.002415 0.000584 -0.001778
-0.002425 0.000687 -0.001503
-0.00246 0.000714 -0.001573
-0.002808 7e-06 -0.000771
-0.002811 7e-06 -0.000747
-0.002813 8e-06 -0.000722
-0.002813 1e-05 -0.000698
-0.002807 1.4e-05 -0.000672
-0.002791 2.3e-05 -0.000645
-0.002765 3.7e-05 -0.000616
-0.002731 5.4e-05 -0.000587
-0.002692 7.4e-05 -0.000557
-0.002648 9.6e-05 -0.000526
-0.002601 0.00012 -0.000495
-0.002442 0.000199 -0.000399
-0.002425 0.000209 -0.000372
-0.002417 0.000214 -0.000346
-0.002414 0.000218 -0.00032
-0.002415 0.000219 -0.000296
-0.002419 0.000218 -0.000272
-0.002426 0.000216 -0.000248
-0.002437 0.000213 -0.000224
-0.002455 0.000206 -0.000202
-0.002481 0.000196 -0.00018
-0.002598 0.000144 -0.000146
-0.002657 0.000118 -0.00013
-0.002708 9.5e-05 -0.000112
-0.002752 7.6e-05 -9.3e-05
-0.002791 5.9e-05 -7.3e-05
-0.002831 4.2e-05 -5.4e-05
-0.002863 2.8e-05 -3.3e-05
-0.002888 1.8e-05 -1.2e-05
-0.002901 1.3e-05 1.1e-05
-0.00291 1.1e-05 3.5e-05
-0.002915 1e-05 5.9e-05
-0.002798 0.000527 -0.000942
-0.002404 0.000594 -0.001467
-0.002759 0.000569 -0.000951
-0.002404 0.000621 -0.001467
-0.002381 0.000638 -0.00143
-0.002139 0.000685 -0.00177
-0.002759 0.000623 -0.000951
-0.002759 0.000651 -0.000951
-0.002673 0.000738 -0.000967
-0.002445 0.0007 -0.001538
-0.002717 0.000694 -0.000959
-0.001799 0.000731 -0.002193
-0.002876 0.000681 -0.000815
-0.002779 -0.0 -0.000668
-0.002773 4e-06 -0.000642
-0.002758 1.3e-05 -0.000615
-0.00273 2.8e-05 -0.000587
-0.002691 4.7e-05 -0.000557
-0.002647 7e-05 -0.000526
-0.002601 9.3e-05 -0.000495
-0.002546 0.00012 -0.000463
-0.002442 0.000172 -0.000399
-0.002425 0.000182 -0.000372
-0.002417 0.000187 -0.000346
-0.002414 0.00019 -0.00032
-0.002415 0.000191 -0.000296
-0.002419 0.000191 -0.000271
-0.002427 0.000189 -0.000248
-0.002437 0.000185 -0.000224
-0.002455 0.000179 -0.000202
-0.002481 0.000168 -0.00018
-0.002529 0.000147 -0.000162
-0.002656 9e-05 -0.000129
-0.002708 6.8e-05 -0.000112
-0.002751 4.9e-05 -9.3e-05
-0.002792 3.2e-05 -7.3e-05
-0.002825 1.7e-05 -5.3e-05
-0.00285 7e-06 -3.1e-05
-0.002865 2e-06 -9e-06
-0.002874 -1e-06 1.5e-05
-0.002879 -2e-06 3.9e-05
-0.002296 0.00067 -0.001311
-0.002327 0.000649 -0.001352
-0.002883 0.000564 -0.000845
-0.002489 0.000607 -0.001639
-0.002885 0.000649 -0.000818
-0.002888 0.000652 -0.000793
-0.001807 0.000719 -0.002229
-0.002175 0.000757 -0.001123
-0.002629 0.000592 -0.000974
-0.002491 0.000547 -0.001668
-0.002675 0.000629 -0.000968
-0.002474 0.000566 -0.001606
-0.002733 -3e-06 -0.000612
-0.002719 6e-06 -0.000585
-0.002689 2.1e-05 -0.000557
-0.002647 4.3e-05 -0.000526
-0.0026 6.6e-05 -0.000495
-0.002544 9.4e-05 -0.000462
-0.002478 0.000127 -0.000429
-0.002442 0.000145 -0.000399
-0.002425 0.000155 -0.000372
-0.002416 0.00016 -0.000346
-0.002413 0.000163 -0.00032
-0.002415 0.000164 -0.000296
-0.002419 0.000164 -0.000271
-0.002426 0.000162 -0.000248
-0.002437 0.000158 -0.000224
-0.002455 0.000152 -0.000202
-0.002481 0.000141 -0.00018
-0.002527 0.000121 -0.000162
-0.002657 6.3e-05 -0.00013
-0.002709 4e-05 -0.000112
-0.00275 2.2e-05 -9.2e-05
-0.002784 8e-06 -7.2e-05
-0.002807 -1e-06 -5e-05
-0.002818 -5e-06 -2.7e-05
-0.002823 -6e-06 -3e-06
-0.002824 -4e-06 2.2e-05
-0.00284 -4e-06 0.000144
-0.002843 -4e-06 0.000169
-0.002847 -4e-06 0.000193
-0.002848 -3e-06 0.000218
-0.002851 -1e-06 0.000242
-0.002185 0.000742 -0.001181
-0.002256 0.000695 -0.001267
-0.002646 -8e-06 -0.000899
-0.00265 -7e-06 -0.000849
-0.002654 -7e-06 -0.000825
-0.002658 -7e-06 -0.000801
-0.002661 -7e-06 -0.000776
-0.002663 -7e-06 -0.000752
-0.002667 -7e-06 -0.000728
-0.002674 -6e-06 -0.000679
-0.002676 -6e-06 -0.000654
-0.002682 -6e-06 -0.000605
-0.002682 -4e-06 -0.00058
-0.002673 1e-06 -0.000554
-0.002645 1.6e-05 -0.000526
-0.0026 3.9e-05 -0.000495
-0.002542 6.8e-05 -0.000462
-0.002477 0.0001 -0.000428
-0.002442 0.000118 -0.000399
-0.002425 0.000127 -0.000372
-0.002416 0.000133 -0.000346
-0.002413 0.000136 -0.00032
-0.002414 0.000137 -0.000296
-0.002419 0.000137 -0.000271
-0.002426 0.000135 -0.000248
-0.002437 0.000131 -0.000224
-0.002454 0.000125 -0.000202
-0.002481 0.000114 -0.00018
-0.002527 9.4e-05 -0.000162
-0.002706 1.4e-05 -0.000111
-0.002738 1e-06 -9.1e-05
-0.002755 -5e-06 -6.8e-05
-0.002761 -6e-06 -4.4e-05
-0.002767 -8e-06 -2e-05
-0.00277 -8e-06 4e-06
-0.002789 -7e-06 0.000151
-0.002793 -7e-06 0.000175
-0.002795 -7e-06 0.0002
-0.002798 -7e-06 0.000224
-0.002799 -6e-06 0.000249
-0.002584 -6e-06 -0.00089
-0.002587 -6e-06 -0.000866
-0.002591 -6e-06 -0.000842
-0.002594 -6e-06 -0.000817
-0.002596 -5e-06 -0.000792
-0.002602 -6e-06 -0.000768
-0.002604 -6e-06 -0.000744
-0.002606 -5e-06 -0.000719
-0.002609 -5e-06 -0.000695
-0.002614 -6e-06 -0.000671
-0.002618 -7e-06 -0.000646
-0.002622 -6e-06 -0.000622
-0.002626 -6e-06 -0.000598
-0.002629 -6e-06 -0.000573
-0.002425 0.000552 -0.001503
-0.002627 -2e-06 -0.000523
-0.0026 1.2e-05 -0.000495
-0.002549 3.8e-05 -0.000463
-0.002441 9.1e-05 -0.000399
-0.002424 0.000101 -0.000372
-0.002416 0.000106 -0.000346
-0.002413 0.000109 -0.00032
-0.002414 0.00011 -0.000296
-0.002419 0.00011 -0.000271
-0.002426 0.000108 -0.000248
-0.002437 0.000104 -0.000224
-0.002454 9.8e-05 -0.000202
-0.002481 8.7e-05 -0.00018
-0.002526 6.7e-05 -0.000161
-0.002596 3.6e-05 -0.000146
-0.002657 8e-06 -0.00013
-0.002688 -4e-06 -0.000109
-0.002697 -7e-06 -8.5e-05
-0.002697 -5e-06 -6e-05
-0.0027 -5e-06 -3.6e-05
-0.002703 -5e-06 -1.1e-05
-0.002705 -5e-06 1.3e-05
-0.002717 -5e-06 8.6e-05
-0.002718 -4e-06 0.000111
-0.002726 -5e-06 0.00016
-0.002728 -4e-06 0.000184
-0.002738 -6e-06 0.000232
-0.002742 -6e-06 0.000257
-0.00253 0.000633 -0.000984
-0.002471 0.000658 -0.000985
-0.002526 -7e-06 -0.000907
-0.002531 -8e-06 -0.000883
-0.002535 -9e-06 -0.000859
-0.002539 -9e-06 -0.000834
-0.002544 -9e-06 -0.00081
-0.002549 -1e-05 -0.000786
-0.002548 -8e-06 -0.000761
-0.002552 -8e-06 -0.000737
-0.002552 -7e-06 -0.000712
-0.002556 -7e-06 -0.000688
-0.002562 -9e-06 -0.000664
-0.002565 -9e-06 -0.000639
-0.002568 -8e-06 -0.000615
-0.002112 -3.1e-05 -6e-06
-0.002581 -8e-06 -0.000517
-0.002577 -5e-06 -0.000492
-0.00211 -3.2e-05 -3.1e-05
-0.002441 6.4e-05 -0.000399
-0.002425 7.3e-05 -0.000372
-0.002416 7.9e-05 -0.000346
-0.002413 8.2e-05 -0.00032
-0.002414 8.3e-05 -0.000296
-0.002419 8.3e-05 -0.000271
-0.002426 8.1e-05 -0.000248
-0.002437 7.7e-05 -0.000224
-0.002454 7e-05 -0.000202
-0.00248 6e-05 -0.00018
-0.002598 3e-06 -0.000148
-0.002631 -6e-06 -0.000126
-0.00264 -9e-06 -0.000102
-0.002645 -1e-05 -7.8e-05
-0.002647 -9e-06 -5.4e-05
-0.00265 -9e-06 -2.9e-05
-0.002654 -8e-06 -5e-06
-0.002671 -9e-06 0.000117
-0.002673 -9e-06 0.000142
-0.002677 -9e-06 0.000166
-0.002676 -7e-06 0.000191
-0.002679 -7e-06 0.000216
-0.002681 -6e-06 0.00024
-0.002463 -1e-05 -0.000973
-0.002469 -1.1e-05 -0.000949
-0.002471 -9e-06 -0.0009
-0.002471 -7e-06 -0.000875
-0.002474 -7e-06 -0.00085
-0.002478 -7e-06 -0.000826
-0.00248 -7e-06 -0.000802
-0.002108 -3.2e-05 -5.5e-05
-0.0025 -6e-06 -0.000655
-0.002501 -6e-06 -0.00063
-0.002505 -6e-06 -0.000606
-0.002507 -5e-06 -0.000582
-0.002511 -6e-06 -0.000557
-0.002524 -7e-06 -0.000484
-0.002524 -5e-06 -0.00046
-0.002441 3.7e-05 -0.000399
-0.002424 4.7e-05 -0.000371
-0.002416 5.2e-05 -0.000345
-0.002412 5.5e-05 -0.00032
-0.002414 5.6e-05 -0.000295
-0.002419 5.6e-05 -0.000271
-0.002426 5.4e-05 -0.000248
-0.002437 5e-05 -0.000224
-0.002454 4.3e-05 -0.000202
-0.002479 3.3e-05 -0.00018
-0.002573 -6e-06 -0.000118
-0.002576 -6e-06 -9.4e-05
-0.002579 -6e-06 -6.9e-05
-0.002588 -5e-06 4e-06
-0.002604 -7e-06 0.000101
-0.002606 -6e-06 0.000126
-0.002612 -7e-06 0.00015
-0.002623 -8e-06 0.000223
-0.002628 -9e-06 0.000247
-0.0024 -7e-06 -0.000965
-0.002402 -7e-06 -0.00094
-0.002405 -6e-06 -0.000916
-0.002491 0.000519 -0.001668
-0.002413 -7e-06 -0.000867
-0.002417 -7e-06 -0.000843
-0.002422 -8e-06 -0.000819
-0.002426 -9e-06 -0.000794
-0.002443 0.000591 -0.001539
-0.002857 0.000507 -0.000914
-0.002404 0.000567 -0.001467
-0.002879 0.000647 -0.000843
-0.002871 0.000646 -0.000866
-0.002446 -8e-06 -0.000648
-0.002449 -8e-06 -0.000623
-0.002453 -7e-06 -0.000574
-0.002458 -8e-06 -0.00055
-0.002463 -8e-06 -0.000526
-0.00247 -8e-06 -0.000477
-0.002472 -8e-06 -0.000453
-0.002468 -6e-06 -0.000427
-0.002441 1e-05 -0.000399
-0.002423 2e-05 -0.000371
-0.002415 2.5e-05 -0.000345
-0.002412 2.8e-05 -0.00032
-0.002414 2.9e-05 -0.000295
-0.002419 2.9e-05 -0.000271
-0.002425 2.7e-05 -0.000248
-0.002436 2.3e-05 -0.000224
-0.002454 1.6e-05 -0.000201
-0.002483 4e-06 -0.000181
-0.002522 -1.2e-05 -0.000161
-0.002525 -9e-06 -0.000112
-0.002524 -9e-06 -8.7e-05
-0.002525 -8e-06 -6.2e-05
-0.002547 -8e-06 8.4e-05
-0.002547 -7e-06 0.000109
-0.00255 -7e-06 0.000134
-0.002554 -7e-06 0.000158
-0.002106 -3.3e-05 -8e-05
-0.002561 -6e-06 0.000232
-0.002345 -1e-05 -0.000982
-0.002351 -1.1e-05 -0.000958
-0.00235 -9e-06 -0.000933
-0.002352 -9e-06 -0.000909
-0.002357 -9e-06 -0.000884
-0.002582 0.000611 -0.00098
-0.002103 -3.3e-05 -0.000104
-0.002369 -7e-06 -0.000762
-0.002372 -7e-06 -0.000737
-0.002375 -7e-06 -0.000713
-0.002861 0.000646 -0.000889
-0.002281 0.000654 -0.001794
-0.002387 -6e-06 -0.000615
-0.002392 -7e-06 -0.000591
-0.002395 -7e-06 -0.000566
-0.002398 -7e-06 -0.000542
-0.002402 -7e-06 -0.000518
-0.002405 -7e-06 -0.000493
-0.002407 -6e-06 -0.000469
-0.002411 -6e-06 -0.000444
-0.002416 -7e-06 -0.00042
-0.00242 -8e-06 -0.000396
-0.002417 -4e-06 -0.00037
-0.002413 -1e-06 -0.000345
-0.002412 1e-06 -0.00032
-0.002416 1e-06 -0.000296
-0.002421 0.0 -0.000271
-0.002425 -0.0 -0.000247
-0.002436 -4e-06 -0.000224
-0.002451 -1e-05 -0.000201
-0.00246 -6e-06 -7.8e-05
-0.002471 -6e-06 -5e-06
-0.002474 -6e-06 2e-05
-0.002477 -6e-06 4.4e-05
-0.002492 -7e-06 0.000141
-0.002494 -7e-06 0.000166
-0.002507 -8e-06 0.000239
-0.002511 -8e-06 0.000263
-0.002294 -1.3e-05 -0.000975
-0.002292 -1.1e-05 -0.00095
-0.002293 -8e-06 -0.000901
-0.002293 -7e-06 -0.000876
-0.002297 -6e-06 -0.000851
-0.002829 0.000712 -0.000902
-0.002787 0.000723 -0.000937
-0.002798 0.000581 -0.000942
-0.002312 -7e-06 -0.000754
-0.002314 -7e-06 -0.000729
-0.002316 -7e-06 -0.000705
-0.00232 -7e-06 -0.000681
-0.00253 0.000687 -0.000984
-0.002101 -3.4e-05 -0.000129
-0.002335 -7e-06 -0.000583
-0.002327 0.000704 -0.001352
-0.002296 0.000725 -0.001311
-0.002404 0.000649 -0.001467
-0.002443 0.000618 -0.001539
-0.002359 -8e-06 -0.000412
-0.002362 -7e-06 -0.000388
-0.002365 -7e-06 -0.000363
-0.002372 -8e-06 -0.000315
-0.002385 -9e-06 -0.000242
-0.002385 -7e-06 -0.000217
-0.002411 -7e-06 -2.2e-05
-0.002414 -7e-06 3e-06
-0.002419 -8e-06 2.7e-05
-0.002422 -8e-06 5.1e-05
-0.002438 -7e-06 0.000174
-0.002442 -7e-06 0.000198
-0.002446 -6e-06 0.000247
-0.00245 -6e-06 0.000271
-0.002455 -7e-06 0.000296
-0.002097 -3.3e-05 -0.000153
-0.002237 -7e-06 -0.000868
-0.002241 -8e-06 -0.000844
-0.002245 -8e-06 -0.000819
-0.002248 -8e-06 -0.000795
-0.002252 -8e-06 -0.000771
-0.002257 -9e-06 -0.000747
-0.002261 -9e-06 -0.000722
-0.002183 0.000748 -0.001153
-0.002267 -9e-06 -0.000673
-0.002883 0.000537 -0.000845
-0.001957 0.000739 -0.001713
-0.002301 -7e-06 -0.000404
-0.002302 -6e-06 -0.00038
-0.002308 -8e-06 -0.000356
-0.00231 -7e-06 -0.000331
-0.002314 -7e-06 -0.000307
-0.002317 -7e-06 -0.000282
-0.00236 -1e-05 -1.5e-05
-0.002363 -1e-05 1e-05
-0.002365 -9e-06 3.4e-05
-0.002366 -8e-06 5.9e-05
-0.002095 -3.4e-05 -0.000178
-0.002381 -7e-06 0.000181
-0.002384 -7e-06 0.000206
-0.002387 -7e-06 0.00023
-0.002396 -7e-06 0.000304
-0.002166 -8e-06 -0.000958
-0.002172 -9e-06 -0.000934
-0.002178 -1e-05 -0.00091
-0.002183 -9e-06 -0.000861
-0.002184 -8e-06 -0.000836
-0.002186 -7e-06 -0.000811
-0.00219 -8e-06 -0.000787
-0.002202 -7e-06 -0.000689
-0.002206 -8e-06 -0.000665
-0.002324 0.000692 -0.001798
-0.002093 -3.5e-05 -0.000202
-0.002216 -8e-06 -0.000592
-0.00222 -7e-06 -0.000567
-0.002222 -7e-06 -0.000543
-0.002227 -8e-06 -0.000519
-0.002232 -8e-06 -0.000494
-0.002235 -9e-06 -0.00047
-0.002239 -9e-06 -0.000446
-0.002251 -1e-05 -0.000373
-0.002253 -9e-06 -0.000348
-0.002256 -8e-06 -0.000324
-0.002263 -9e-06 -0.000275
-0.002267 -9e-06 -0.000251
-0.002275 -9e-06 -0.000177
-0.002279 -9e-06 -0.000153
-0.002282 -9e-06 -0.000128
-0.002285 -8e-06 -0.000104
-0.002089 -3.4e-05 -0.000227
-0.002086 -3.5e-05 -0.000251
-0.002301 -8e-06 1.8e-05
-0.002303 -7e-06 4.3e-05
-0.002083 -3.5e-05 -0.000275
-0.002326 -7e-06 0.000214
-0.00208 -3.5e-05 -0.0003
-0.002109 -8e-06 -0.00095
-0.002112 -8e-06 -0.000926
-0.002118 -9e-06 -0.000902
-0.002119 -8e-06 -0.000877
-0.002123 -9e-06 -0.000853
-0.002129 -9e-06 -0.000829
-0.002381 0.000611 -0.00143
-0.002813 0.000715 -0.000921
-0.002147 -9e-06 -0.000682
-0.002151 -9e-06 -0.000658
-0.002842 0.00071 -0.00088
-0.002675 0.000601 -0.000968
-0.002163 -8e-06 -0.00056
-0.002167 -8e-06 -0.000535
-0.002169 -8e-06 -0.000511
-0.002174 -9e-06 -0.000487
-0.002177 -8e-06 -0.000462
-0.002183 -1e-05 -0.000438
-0.002184 -9e-06 -0.000414
-0.002186 -8e-06 -0.000389
-0.002191 -9e-06 -0.000365
-0.002195 -9e-06 -0.00034
-0.002198 -9e-06 -0.000316
-0.002201 -9e-06 -0.000291
-0.002205 -9e-06 -0.000267
-0.002209 -9e-06 -0.000243
-0.00221 -8e-06 -0.000218
-0.002215 -9e-06 -0.000194
-0.002218 -9e-06 -0.00017
-0.002222 -9e-06 -0.000145
-0.002223 -8e-06 -0.00012
-0.002226 -8e-06 -9.6e-05
-0.002077 -3.5e-05 -0.000324
-0.002073 -3.5e-05 -0.000349
-0.00207 -3.5e-05 -0.000373
-0.002065 -3.4e-05 -0.000397
-0.002061 -3.4e-05 -0.000422
-0.002057 -3.4e-05 -0.000446
-0.001957 0.000712 -0.001713
-0.001702 0.00075 -0.001884
-0.002834 0.000514 -0.000931
-0.002067 -9e-06 -0.000845
-0.002355 0.00063 -0.001391
-0.00179 0.000665 -0.002153
-0.002247 0.000752 -0.000993
-0.002425 0.000606 -0.001503
-0.002138 0.00063 -0.00177
-0.002089 -1e-05 -0.000699
-0.002094 -1e-05 -0.000675
-0.002098 -1.1e-05 -0.00065
-0.002103 -1.1e-05 -0.000626
-0.002834 0.000541 -0.000931
-0.002425 0.000633 -0.001504
-0.002281 0.000681 -0.001794
-0.002119 -1.3e-05 -0.000529
-0.002122 -1.3e-05 -0.000505
-0.002126 -1.3e-05 -0.00048
-0.00213 -1.4e-05 -0.000456
-0.002134 -1.4e-05 -0.000432
-0.002138 -1.4e-05 -0.000407
-0.002142 -1.4e-05 -0.000383
-0.002145 -1.4e-05 -0.000358
-0.002148 -1.4e-05 -0.000334
-0.002152 -1.4e-05 -0.00031
-0.002156 -1.4e-05 -0.000285
-0.002158 -1.4e-05 -0.000261
-0.002162 -1.4e-05 -0.000236
-0.002166 -1.5e-05 -0.000212
-0.002168 -1.4e-05 -0.000188
-0.002171 -1.4e-05 -0.000163
-0.002175 -1.4e-05 -0.000139
-0.002178 -1.4e-05 -0.000114
-0.002053 -3.3e-05 -0.00047
-0.002481 0.000546 -0.00169
-0.002876 0.000562 -0.000868
-0.002474 0.000538 -0.001606
-0.002856 0.000562 -0.000913
-0.002834 0.000568 -0.000931
-0.002868 0.000534 -0.000892
-0.001849 0.000725 -0.001977
-0.002461 0.000531 -0.00172
-0.002188 0.000664 -0.00178
-0.001791 0.000611 -0.002153
-0.002047 -1.7e-05 -0.000693
-0.002051 -1.8e-05 -0.000669
-0.002057 -1.8e-05 -0.000645
-0.002061 -1.9e-05 -0.000621
-0.00285 0.000711 -0.000857
-0.00207 -2e-05 -0.000572
-0.002074 -2.1e-05 -0.000548
-0.002079 -2.1e-05 -0.000523
-0.002083 -2.2e-05 -0.000499
-0.002087 -2.2e-05 -0.000475
-0.002092 -2.2e-05 -0.000451
-0.002095 -2.3e-05 -0.000426
-0.002099 -2.3e-05 -0.000402
-0.002102 -2.3e-05 -0.000377
-0.002105 -2.3e-05 -0.000353
-0.00211 -2.3e-05 -0.000329
-0.002114 -2.4e-05 -0.000305
-0.002117 -2.3e-05 -0.00028
-0.00212 -2.3e-05 -0.000256
-0.002124 -2.4e-05 -0.000231
-0.002126 -2.3e-05 -0.000207
-0.00213 -2.3e-05 -0.000182
-0.002132 -2.3e-05 -0.000158
-0.002134 -2.2e-05 -0.000133
-0.002138 -2.2e-05 -0.000109
-0.002141 -2.2e-05 -8.4e-05
-0.002142 -2.1e-05 -6e-05
-0.002144 -2.1e-05 -3.5e-05
-0.002147 -2e-05 -1.1e-05
-0.002481 0.000492 -0.00169
-0.002423 0.000671 -0.001753
-0.002489 0.000526 -0.001639
-0.002629 0.00062 -0.000974
-0.002581 0.000639 -0.00098
-0.002443 0.000537 -0.001539
-0.002856 0.000535 -0.000914
-0.002444 0.000564 -0.001539
-0.002461 0.00055 -0.001573
-0.002382 0.000584 -0.00143
-0.002581 0.000666 -0.00098
-0.002629 0.000647 -0.000974
-0.002189 0.000637 -0.00178
-0.002381 0.000665 -0.00143
-0.002473 0.000512 -0.001606
-0.002035 -3.1e-05 -0.000567
-0.002039 -3.1e-05 -0.000543
-0.002044 -3.2e-05 -0.000519
-0.002049 -3.3e-05 -0.000495
-0.002327 0.000622 -0.001352
-0.002296 0.000643 -0.001311
-0.002256 0.000668 -0.001267
-0.002207 0.000699 -0.001218
-0.00218 0.000717 -0.001179
-0.002173 0.000726 -0.001149
-0.002171 0.000732 -0.001121
-0.002428 0.000704 -0.001725
-0.001691 0.000703 -0.001875
-0.002193 0.000736 -0.00105
-0.002207 0.000735 -0.001029
-0.002224 0.000731 -0.00101
-0.002246 0.000725 -0.000992
-0.002275 0.000715 -0.000978
-0.00253 0.000606 -0.000984
-0.002582 0.000584 -0.00098
-0.002629 0.000565 -0.000974
-0.002675 0.000547 -0.000968
-0.002717 0.000531 -0.000959
-0.002758 0.000515 -0.000951
-0.002798 0.0005 -0.000941
-0.002834 0.000487 -0.000931
-0.002857 0.00048 -0.000914
-0.002869 0.000479 -0.000892
-0.002877 0.000481 -0.000868
-0.001781 0.000626 -0.002113
-0.002086 0.000679 -0.001758
-0.002026 0.000734 -0.001739
-0.00181 0.000678 -0.002267
-0.002237 0.000726 -0.001789
-0.002481 0.000465 -0.00169
-0.002491 0.000465 -0.001668
-0.002488 0.000472 -0.001639
-0.002473 0.000485 -0.001606
-0.002461 0.000496 -0.001573
-0.002443 0.00051 -0.001539
-0.002425 0.000524 -0.001503
-0.002404 0.00054 -0.001467
-0.002382 0.000557 -0.00143
-0.002356 0.000575 -0.001392
-0.002327 0.000595 -0.001352
-0.002296 0.000616 -0.001311
-0.002257 0.000641 -0.001267
-0.00221 0.00067 -0.001219
-0.002182 0.000689 -0.00118
-0.002171 0.0007 -0.001148
-0.002171 0.000705 -0.001121
-0.002175 0.000708 -0.001095
-0.002182 0.00071 -0.001072
-0.002193 0.000709 -0.00105
-0.002206 0.000707 -0.001029
-0.002224 0.000704 -0.00101
-0.002245 0.000698 -0.000992
-0.002275 0.000688 -0.000978
-0.002471 0.000603 -0.000985
-0.00253 0.000579 -0.000984
-0.002582 0.000557 -0.00098
-0.002629 0.000538 -0.000974
-0.002676 0.00052 -0.000968
-0.002717 0.000504 -0.000959
-0.002757 0.000488 -0.00095
-0.002798 0.000473 -0.000941
-0.002834 0.000459 -0.000931
-0.002857 0.000453 -0.000914
-0.002869 0.000452 -0.000892
-0.002877 0.000453 -0.000868
-0.00174 0.000653 -0.001981
-0.002026 0.000707 -0.001739
-0.001978 0.000754 -0.00173
-0.001804 0.000692 -0.002229
-0.002187 0.000746 -0.001779
-0.002481 0.000437 -0.00169
-0.002491 0.000437 -0.001668
-0.002488 0.000444 -0.001639
-0.002473 0.000457 -0.001606
-0.002461 0.000469 -0.001573
-0.002444 0.000482 -0.001539
-0.002425 0.000497 -0.001503
-0.002404 0.000513 -0.001467
-0.002382 0.000529 -0.00143
-0.002355 0.000548 -0.001392
-0.002328 0.000567 -0.001352
-0.002297 0.000588 -0.001312
-0.002208 0.000644 -0.001218
-0.002182 0.000662 -0.00118
-0.002171 0.000673 -0.001148
-0.00217 0.000678 -0.001121
-0.002175 0.000681 -0.001095
-0.002182 0.000683 -0.001072
-0.002193 0.000682 -0.00105
-0.002207 0.00068 -0.001029
-0.002224 0.000677 -0.001009
-0.002246 0.000671 -0.000992
-0.002275 0.000661 -0.000978
-0.002469 0.000577 -0.000984
-0.00253 0.000551 -0.000984
-0.002582 0.00053 -0.00098
-0.00263 0.00051 -0.000975
-0.002675 0.000493 -0.000968
-0.002717 0.000477 -0.000959
-0.002758 0.000461 -0.00095
-0.002798 0.000445 -0.000942
-0.002834 0.000432 -0.000931
-0.002857 0.000426 -0.000914
-0.002869 0.000425 -0.000892
-0.002877 0.000426 -0.000868
-0.002487 0.000562 -0.001677
-0.001769 0.000698 -0.002071
-0.001977 0.000744 -0.001762
-0.001781 0.000735 -0.002113
-0.002281 0.000708 -0.001794
-0.002481 0.00041 -0.00169
-0.002491 0.00041 -0.001668
-0.002489 0.000417 -0.001639
-0.002473 0.00043 -0.001605
-0.00246 0.000442 -0.001573
-0.002444 0.000455 -0.001539
-0.002425 0.00047 -0.001504
-0.002404 0.000486 -0.001467
-0.002381 0.000503 -0.00143
-0.002356 0.000521 -0.001392
-0.002328 0.00054 -0.001352
-0.002297 0.000561 -0.001311
-0.002257 0.000586 -0.001267
-0.002209 0.000616 -0.001219
-0.002181 0.000635 -0.001179
-0.002171 0.000646 -0.001148
-0.00217 0.000651 -0.00112
-0.002174 0.000654 -0.001095
-0.002182 0.000656 -0.001072
-0.002193 0.000655 -0.00105
-0.002206 0.000653 -0.001029
-0.002223 0.00065 -0.001009
-0.002246 0.000643 -0.000992
-0.002276 0.000633 -0.000979
-0.002469 0.00055 -0.000984
-0.00253 0.000524 -0.000984
-0.002582 0.000503 -0.00098
-0.002631 0.000483 -0.000975
-0.002675 0.000466 -0.000968
-0.002716 0.00045 -0.000959
-0.002758 0.000433 -0.000951
-0.002798 0.000418 -0.000941
-0.002834 0.000405 -0.000931
-0.002857 0.000398 -0.000914
-0.002868 0.000398 -0.000892
-0.002876 0.000399 -0.000868
-0.002884 0.0004 -0.000845
-0.001817 0.000574 -0.002336
-0.001755 0.000716 -0.002026
-0.00179 0.000693 -0.002153
-0.001465 0.00054 -0.002382
-0.00181 0.000723 -0.002299
-0.002481 0.000383 -0.00169
-0.002492 0.000383 -0.001668
-0.002488 0.00039 -0.001639
-0.002473 0.000403 -0.001605
-0.00246 0.000415 -0.001573
-0.002444 0.000428 -0.001539
-0.002425 0.000443 -0.001503
-0.002405 0.000458 -0.001467
-0.002381 0.000475 -0.00143
-0.002356 0.000493 -0.001392
-0.002327 0.000513 -0.001352
-0.002295 0.000535 -0.001311
-0.002258 0.000558 -0.001267
-0.002181 0.000608 -0.001179
-0.00217 0.000619 -0.001148
-0.00217 0.000624 -0.00112
-0.002174 0.000627 -0.001095
-0.002181 0.000628 -0.001072
-0.002193 0.000628 -0.00105
-0.002206 0.000626 -0.001029
-0.002223 0.000623 -0.001009
-0.002246 0.000616 -0.000992
-0.002276 0.000606 -0.000979
-0.002323 0.000587 -0.000973
-0.002469 0.000523 -0.000984
-0.00253 0.000497 -0.000984
-0.002582 0.000475 -0.00098
-0.00263 0.000456 -0.000974
-0.002675 0.000438 -0.000967
-0.002717 0.000422 -0.000959
-0.002759 0.000406 -0.000951
-0.002798 0.000391 -0.000941
-0.002834 0.000378 -0.00093
-0.002857 0.000371 -0.000914
-0.002868 0.000371 -0.000892
-0.002876 0.000372 -0.000868
-0.002883 0.000374 -0.000844
-0.001814 0.000585 -0.002302
-0.001799 0.00065 -0.002192
-0.001816 0.000619 -0.002368
-0.002236 0.000699 -0.001788
-0.002468 0.000358 -0.001711
-0.002482 0.000356 -0.00169
-0.002492 0.000356 -0.001668
-0.002488 0.000363 -0.001639
-0.002473 0.000376 -0.001605
-0.002461 0.000387 -0.001573
-0.002444 0.000401 -0.001539
-0.002424 0.000416 -0.001503
-0.002405 0.000431 -0.001467
-0.002381 0.000448 -0.00143
-0.002355 0.000466 -0.001391
-0.002327 0.000486 -0.001352
-0.002295 0.000508 -0.001311
-0.002257 0.000532 -0.001267
-0.002181 0.000581 -0.001179
-0.002171 0.000591 -0.001148
-0.002169 0.000597 -0.00112
-0.002174 0.0006 -0.001095
-0.002181 0.000601 -0.001071
-0.002192 0.000601 -0.001049
-0.002206 0.000599 -0.001028
-0.002223 0.000595 -0.001009
-0.002245 0.000589 -0.000992
-0.002276 0.000579 -0.000979
-0.002323 0.00056 -0.000973
-0.002406 0.000523 -0.000983
-0.00247 0.000495 -0.000984
-0.00253 0.00047 -0.000984
-0.002583 0.000448 -0.00098
-0.00263 0.000429 -0.000974
-0.002675 0.000411 -0.000967
-0.002717 0.000395 -0.000959
-0.002759 0.000379 -0.000951
-0.002798 0.000364 -0.000941
-0.002834 0.000351 -0.00093
-0.002857 0.000344 -0.000914
-0.002868 0.000344 -0.000892
-0.002876 0.000345 -0.000868
-0.002883 0.000346 -0.000844
-0.001804 0.00061 -0.002229
-0.001814 0.000612 -0.002302
-0.001817 0.000506 -0.002378
-0.001512 0.000517 -0.002408
-0.002468 0.00033 -0.001711
-0.002482 0.000329 -0.00169
-0.002492 0.000329 -0.001668
-0.002488 0.000336 -0.001639
-0.002473 0.000349 -0.001605
-0.00246 0.00036 -0.001573
-0.002444 0.000374 -0.001539
-0.002425 0.000389 -0.001503
-0.002404 0.000404 -0.001467
-0.002382 0.000421 -0.00143
-0.002355 0.000439 -0.001391
-0.002328 0.000459 -0.001352
-0.002294 0.000481 -0.00131
-0.002258 0.000504 -0.001268
-0.002181 0.000554 -0.001179
-0.002171 0.000564 -0.001148
-0.002169 0.00057 -0.00112
-0.002174 0.000573 -0.001095
-0.002181 0.000574 -0.001071
-0.002192 0.000574 -0.001049
-0.002206 0.000572 -0.001028
-0.002223 0.000568 -0.001009
-0.002245 0.000562 -0.000992
-0.002276 0.000552 -0.000979
-0.002324 0.000532 -0.000973
-0.002405 0.000496 -0.000982
-0.002471 0.000468 -0.000984
-0.002528 0.000443 -0.000983
-0.002583 0.000421 -0.00098
-0.00263 0.000402 -0.000974
-0.002675 0.000384 -0.000967
-0.002718 0.000367 -0.00096
-0.00276 0.000351 -0.000951
-0.002798 0.000337 -0.000941
-0.002834 0.000324 -0.00093
-0.002857 0.000317 -0.000914
-0.002868 0.000317 -0.000892
-0.002876 0.000318 -0.000868
-0.002883 0.000319 -0.000844
-0.002026 0.00068 -0.001739
-0.001817 0.000591 -0.002369
-0.002473 0.000615 -0.001698
-0.002438 0.000671 -0.001733
-0.002468 0.000303 -0.001711
-0.002482 0.000301 -0.00169
-0.002492 0.000302 -0.001668
-0.002488 0.000309 -0.001639
-0.002473 0.000321 -0.001605
-0.002461 0.000333 -0.001573
-0.002444 0.000347 -0.001539
-0.002424 0.000362 -0.001503
-0.002404 0.000377 -0.001467
-0.002381 0.000394 -0.00143
-0.002357 0.000411 -0.001392
-0.002327 0.000432 -0.001352
-0.002259 0.000477 -0.001268
-0.002213 0.000505 -0.00122
-0.002181 0.000527 -0.001179
-0.002171 0.000537 -0.001148
-0.00217 0.000543 -0.00112
-0.002174 0.000546 -0.001095
-0.002181 0.000547 -0.001071
-0.002192 0.000547 -0.001049
-0.002206 0.000545 -0.001028
-0.002223 0.000541 -0.001009
-0.002245 0.000535 -0.000992
-0.002275 0.000525 -0.000978
-0.002472 0.00044 -0.000985
-0.002529 0.000416 -0.000983
-0.002583 0.000394 -0.00098
-0.00263 0.000375 -0.000974
-0.002675 0.000357 -0.000968
-0.002718 0.00034 -0.00096
-0.00276 0.000324 -0.000951
-0.002798 0.000309 -0.000941
-0.002834 0.000297 -0.00093
-0.002857 0.00029 -0.000914
-0.002868 0.00029 -0.000891
-0.002876 0.000291 -0.000868
-0.002883 0.000292 -0.000844
-0.002416 0.000529 -0.001779
-0.002491 0.000595 -0.00165
-0.00246 0.000613 -0.001719
-0.002386 0.000673 -0.001786
-0.002468 0.000276 -0.001711
-0.002482 0.000274 -0.00169
-0.002491 0.000275 -0.001668
-0.002487 0.000282 -0.001639
-0.002473 0.000294 -0.001606
-0.00246 0.000306 -0.001573
-0.002444 0.000319 -0.001539
-0.002425 0.000334 -0.001503
-0.002404 0.00035 -0.001467
-0.002381 0.000367 -0.00143
-0.002356 0.000385 -0.001392
-0.002326 0.000405 -0.001351
-0.002294 0.000427 -0.00131
-0.002207 0.000481 -0.001218
-0.00218 0.0005 -0.001179
-0.002171 0.00051 -0.001148
-0.00217 0.000515 -0.00112
-0.002174 0.000519 -0.001095
-0.002181 0.00052 -0.001071
-0.002192 0.000519 -0.001049
-0.002206 0.000518 -0.001028
-0.002223 0.000514 -0.001009
-0.002245 0.000508 -0.000992
-0.002276 0.000497 -0.000979
-0.002323 0.000478 -0.000973
-0.002406 0.000441 -0.000983
-0.002471 0.000413 -0.000985
-0.002528 0.000389 -0.000983
-0.002583 0.000366 -0.000981
-0.002629 0.000348 -0.000974
-0.002675 0.00033 -0.000967
-0.002718 0.000313 -0.000959
-0.002759 0.000297 -0.000951
-0.002799 0.000282 -0.000942
-0.002834 0.000269 -0.000931
-0.002857 0.000263 -0.000914
-0.002868 0.000262 -0.000892
-0.002876 0.000263 -0.000868
-0.002883 0.000265 -0.000844
-0.001676 0.00053 -0.002477
-0.002446 0.000585 -0.00174
-0.002446 0.000612 -0.001739
-0.00236 0.000679 -0.001796
-0.002468 0.000249 -0.001711
-0.002482 0.000247 -0.00169
-0.002491 0.000247 -0.001668
-0.002487 0.000255 -0.001639
-0.002473 0.000267 -0.001605
-0.00246 0.000279 -0.001573
-0.002444 0.000292 -0.001538
-0.002425 0.000307 -0.001503
-0.002404 0.000323 -0.001467
-0.002382 0.000339 -0.00143
-0.002356 0.000358 -0.001392
-0.002326 0.000378 -0.001352
-0.002294 0.000399 -0.00131
-0.00218 0.000473 -0.001179
-0.002171 0.000483 -0.001148
-0.00217 0.000488 -0.00112
-0.002173 0.000492 -0.001095
-0.002181 0.000493 -0.001071
-0.002192 0.000492 -0.001049
-0.002206 0.00049 -0.001028
-0.002223 0.000487 -0.001009
-0.002246 0.00048 -0.000992
-0.002276 0.00047 -0.000979
-0.002326 0.000449 -0.000974
-0.002408 0.000413 -0.000983
-0.002471 0.000386 -0.000984
-0.002528 0.000362 -0.000983
-0.002582 0.000339 -0.00098
-0.00263 0.00032 -0.000974
-0.002675 0.000303 -0.000967
-0.002718 0.000286 -0.00096
-0.00276 0.00027 -0.000951
-0.002799 0.000255 -0.000942
-0.002835 0.000242 -0.000931
-0.002857 0.000236 -0.000914
-0.002868 0.000235 -0.000891
-0.002876 0.000236 -0.000868
-0.001781 0.000572 -0.002113
-0.002486 0.000589 -0.001677
-0.002394 0.000614 -0.001793
-0.002405 0.000671 -0.00177
-0.002468 0.000222 -0.001711
-0.002481 0.00022 -0.00169
-0.002491 0.000221 -0.001667
-0.002488 0.000227 -0.001639
-0.002473 0.00024 -0.001605
-0.00246 0.000252 -0.001573
-0.002443 0.000265 -0.001538
-0.002425 0.00028 -0.001503
-0.002404 0.000295 -0.001467
-0.002382 0.000312 -0.00143
-0.002356 0.00033 -0.001392
-0.002327 0.00035 -0.001352
-0.002294 0.000372 -0.00131
-0.00218 0.000446 -0.001179
-0.002171 0.000455 -0.001148
-0.002169 0.000461 -0.00112
-0.002173 0.000464 -0.001095
-0.002181 0.000466 -0.001071
-0.002192 0.000465 -0.001049
-0.002206 0.000463 -0.001028
-0.002223 0.000459 -0.001009
-0.002246 0.000453 -0.000992
-0.002276 0.000443 -0.000979
-0.002328 0.000422 -0.000975
-0.002406 0.000387 -0.000983
-0.002472 0.000358 -0.000985
-0.00253 0.000334 -0.000984
-0.002582 0.000312 -0.00098
-0.00263 0.000293 -0.000974
-0.002675 0.000275 -0.000967
-0.002718 0.000258 -0.00096
-0.00276 0.000242 -0.000951
-0.002799 0.000228 -0.000942
-0.002835 0.000215 -0.000931
-0.002857 0.000208 -0.000913
-0.002868 0.000208 -0.000891
-0.002876 0.000209 -0.000868
-0.001873 0.000699 -0.001674
-0.002474 0.000587 -0.001699
-0.00243 0.000612 -0.001759
-0.001814 0.000694 -0.002302
-0.002468 0.000195 -0.001711
-0.002481 0.000193 -0.00169
-0.00249 0.000194 -0.001667
-0.002488 0.0002 -0.001639
-0.002474 0.000212 -0.001606
-0.00246 0.000224 -0.001573
-0.002443 0.000238 -0.001538
-0.002425 0.000253 -0.001503
-0.002404 0.000268 -0.001467
-0.002381 0.000285 -0.00143
-0.002356 0.000303 -0.001392
-0.002327 0.000323 -0.001352
-0.002295 0.000344 -0.001311
-0.00218 0.000419 -0.001179
-0.002171 0.000428 -0.001148
-0.002169 0.000434 -0.00112
-0.002173 0.000437 -0.001095
-0.002181 0.000439 -0.001071
-0.002192 0.000438 -0.001049
-0.002206 0.000436 -0.001028
-0.002223 0.000432 -0.001009
-0.002246 0.000426 -0.000992
-0.002276 0.000416 -0.000979
-0.002407 0.000359 -0.000983
-0.002472 0.000331 -0.000985
-0.002529 0.000307 -0.000983
-0.002583 0.000285 -0.00098
-0.002631 0.000265 -0.000975
-0.002676 0.000248 -0.000968
-0.002719 0.000231 -0.00096
-0.00276 0.000215 -0.000951
-0.0028 0.0002 -0.000942
-0.002834 0.000188 -0.00093
-0.002855 0.000182 -0.000913
-0.002867 0.000181 -0.000891
-0.002876 0.000182 -0.000868
-0.002325 0.000528 -0.001798
-0.00181 0.000624 -0.002267
-0.001816 0.000628 -0.002336
-0.002391 0.000643 -0.00179
-0.002466 0.000168 -0.00171
-0.002479 0.000167 -0.001689
-0.002488 0.000168 -0.001666
