-0.001493 0.000162 0.001901
-0.001478 0.000162 0.00192
-0.001465 0.00016 0.001942
-0.001456 0.000155 0.001967
-0.001451 0.000148 0.001995
-0.001455 0.000136 0.002031
-0.001471 0.000116 0.002078
-0.001487 9.6e-05 0.002125
-0.002747 0.000466 0.001224
-0.002389 2.1e-05 0.001244
-0.002358 3e-05 0.00125
-0.002316 4.6e-05 0.001247
-0.002269 6.5e-05 0.001238
-0.002217 8.8e-05 0.001225
-0.002167 0.000108 0.001215
-0.002133 0.000119 0.001217
-0.002106 0.000126 0.001227
-0.002084 0.00013 0.00124
-0.002066 0.000131 0.001257
-0.00205 0.000131 0.001276
-0.002036 0.000129 0.001297
-0.002784 0.000631 0.001133
-0.002765 0.000576 0.001042
-0.002015 0.000748 0.001373
-0.002686 0.000541 0.00125
-0.002108 1.5e-05 0.001588
-0.00209 1.6e-05 0.001605
-0.002025 1.6e-05 0.001679
-0.002009 1.6e-05 0.001698
-0.001992 1.6e-05 0.001716
-0.001977 1.6e-05 0.001735
-0.001961 1.6e-05 0.001754
-0.001946 1.5e-05 0.001774
-0.00193 1.5e-05 0.001792
-0.001913 1.5e-05 0.00181
-0.001895 1.6e-05 0.001828
-0.00188 1.6e-05 0.001847
-0.001493 0.000135 0.001902
-0.001478 0.000135 0.00192
-0.001465 0.000133 0.001942
-0.001457 0.000128 0.001967
-0.001452 0.000121 0.001995
-0.001455 0.000108 0.002032
-0.00147 8.9e-05 0.002077
-0.001488 6.8e-05 0.002126
-0.002724 0.000472 0.001241
-0.002161 0.000689 0.001632
-0.002337 1.6e-05 0.001232
-0.00231 2.3e-05 0.001242
-0.002269 3.8e-05 0.001238
-0.002217 6e-05 0.001225
-0.002167 8.1e-05 0.001215
-0.002133 9.2e-05 0.001218
-0.002106 9.9e-05 0.001227
-0.002084 0.000103 0.00124
-0.002065 0.000104 0.001256
-0.00205 0.000104 0.001275
-0.002036 0.000102 0.001296
-0.002739 0.00066 0.001221
-0.002758 0.000574 0.001202
-0.002113 0.000697 0.001555
-0.002796 0.000526 0.000377
-0.002057 1.9e-05 0.001543
-0.00204 2e-05 0.001561
-0.002025 1.9e-05 0.001581
-0.002007 1.9e-05 0.001598
-0.001991 2e-05 0.001617
-0.001975 2e-05 0.001635
-0.001958 2.1e-05 0.001653
-0.001943 1.9e-05 0.001673
-0.001927 1.9e-05 0.001692
-0.001911 1.9e-05 0.001711
-0.001895 1.9e-05 0.001729
-0.001847 1.9e-05 0.001785
-0.00183 1.9e-05 0.001804
-0.001813 2e-05 0.001821
-0.001798 1.9e-05 0.001841
-0.001782 1.9e-05 0.001859
-0.001768 1.8e-05 0.00188
-0.001511 0.000107 0.001884
-0.001493 0.000108 0.001901
-0.001477 0.000108 0.00192
-0.001465 0.000106 0.001942
-0.001456 0.000101 0.001967
-0.001453 9.4e-05 0.001995
-0.001454 8.2e-05 0.002031
-0.001469 6.3e-05 0.002076
-0.001491 3.9e-05 0.002128
-0.002347 0.00075 0.000633
-0.002368 0.000757 0.000686
-0.002083 0.000745 0.001514
-0.002114 0.000723 0.001556
-0.002166 5.5e-05 0.001213
-0.002133 6.5e-05 0.001217
-0.002106 7.2e-05 0.001226
-0.002084 7.6e-05 0.00124
-0.002065 7.7e-05 0.001256
-0.002773 0.000659 0.001155
-0.002764 0.000658 0.001178
-0.002664 0.000549 0.00093
-0.002777 0.00063 0.001157
-0.002752 0.000724 0.001145
-0.001698 -2.1e-05 0.001197
-0.002352 0.000775 0.000634
-0.002463 0.000766 0.000441
-0.001996 2e-05 0.001523
-0.001979 2e-05 0.001541
-0.001964 2e-05 0.00156
-0.002594 0.000524 0.001262
-0.001883 1.9e-05 0.001653
-0.001867 1.9e-05 0.001672
-0.001714 -2e-05 0.001178
-0.001786 1.9e-05 0.001765
-0.001771 1.9e-05 0.001784
-0.001756 1.8e-05 0.001804
-0.001739 1.9e-05 0.001822
-0.001723 1.9e-05 0.00184
-0.001708 1.8e-05 0.00186
-0.001511 8e-05 0.001884
-0.001493 8.1e-05 0.001901
-0.001477 8.1e-05 0.00192
-0.001464 7.9e-05 0.001941
-0.001455 7.4e-05 0.001966
-0.00145 6.7e-05 0.001995
-0.001454 5.5e-05 0.002031
-0.001729 -2e-05 0.001159
-0.002275 2e-05 0.001113
-0.002259 2e-05 0.001132
-0.002636 0.000591 0.000901
-0.00214 0.000705 0.001594
-0.001744 -1.9e-05 0.001139
-0.002134 3.7e-05 0.001218
-0.002106 4.5e-05 0.001226
-0.002084 4.9e-05 0.001241
-0.002183 0.000754 0.001669
-0.002958 0.000484 0.000302
-0.002745 0.000603 0.001223
-0.002406 0.00077 0.000686
-0.002758 0.000466 0.001203
-0.002744 0.000723 0.001168
-0.002758 0.000726 0.001121
-0.002464 0.000711 0.000441
-0.001951 2e-05 0.001484
-0.001935 2e-05 0.001502
-0.002082 0.000691 0.001513
-0.002508 0.000694 0.000435
-0.002014 0.000742 0.0014
-0.002843 0.000669 0.000359
-0.002788 0.000477 0.00108
-0.00184 1.9e-05 0.001616
-0.001823 1.9e-05 0.001634
-0.002199 0.000632 0.001703
-0.001758 1.9e-05 0.001708
-0.001742 1.9e-05 0.001727
-0.001726 1.9e-05 0.001745
-0.001709 2e-05 0.001763
-0.001693 2e-05 0.001781
-0.001677 2e-05 0.001801
-0.001663 1.9e-05 0.001821
-0.001649 1.7e-05 0.001841
-0.001531 5e-05 0.001869
-0.001511 5.3e-05 0.001884
-0.001492 5.4e-05 0.001901
-0.001477 5.4e-05 0.00192
-0.001464 5.2e-05 0.001941
-0.001455 4.7e-05 0.001966
-0.001451 4e-05 0.001995
-0.001456 2.6e-05 0.002033
-0.002687 0.000514 0.001251
-0.002233 1.9e-05 0.001076
-0.002216 1.9e-05 0.001094
-0.002201 1.9e-05 0.001113
-0.002161 0.000662 0.001631
-0.00214 0.000678 0.001595
-0.002368 0.000729 0.000686
-0.002778 0.000521 0.001157
-0.002101 2.4e-05 0.001222
-0.002732 0.000724 0.00119
-0.002764 0.000549 0.001042
-0.002401 0.000733 0.000467
-0.002724 0.000609 0.001241
-0.002023 1.9e-05 0.001318
-0.002024 0.000759 0.001432
-0.002016 0.000768 0.001401
-0.001909 1.9e-05 0.001447
-0.001892 1.9e-05 0.001465
-0.001763 2e-05 0.001614
-0.001716 1.9e-05 0.001671
-0.001699 1.9e-05 0.001689
-0.001682 1.9e-05 0.001707
-0.001666 1.9e-05 0.001725
-0.00165 1.9e-05 0.001744
-0.001634 1.9e-05 0.001762
-0.001618 1.9e-05 0.001782
-0.001604 1.8e-05 0.001802
-0.00159 1.6e-05 0.001823
-0.001571 1.9e-05 0.001838
-0.001511 2.5e-05 0.001885
-0.001493 2.6e-05 0.001902
-0.001479 2.5e-05 0.001921
-0.001445 1.6e-05 0.00199
0.000912 -7e-06 0.001903
-0.002188 2e-05 0.001036
-0.00217 2.1e-05 0.001053
-0.002156 2e-05 0.001074
-0.002141 1.8e-05 0.001094
-0.002123 2e-05 0.001111
-0.002108 1.9e-05 0.00113
-0.0022 0.000604 0.001704
-0.002199 0.000659 0.001704
-0.002787 0.000532 0.00108
-0.002758 0.00052 0.001203
-0.001978 1.9e-05 0.001279
-0.001962 1.9e-05 0.001297
-0.001947 1.9e-05 0.001316
-0.002182 0.000645 0.001669
-0.002428 0.000751 0.000452
-0.002183 0.000618 0.001669
-0.002015 0.000774 0.001374
-0.002778 0.000493 0.001157
-0.00185 1.8e-05 0.001428
-0.001832 1.9e-05 0.001445
-0.002765 0.000494 0.001043
-0.002787 0.000504 0.00108
-0.001751 1.9e-05 0.001538
-0.001736 1.9e-05 0.001558
-0.00172 1.9e-05 0.001576
-0.001704 1.9e-05 0.001595
-0.001688 1.9e-05 0.001614
-0.001671 1.9e-05 0.001631
-0.001655 1.9e-05 0.00165
-0.001589 1.9e-05 0.001723
-0.001572 2e-05 0.001741
-0.001558 1.9e-05 0.001762
-0.001541 1.9e-05 0.00178
-0.001526 1.9e-05 0.001799
-0.001479 1.8e-05 0.001856
-0.001463 1.7e-05 0.001875
-0.001445 1.9e-05 0.001893
-0.002768 0.00052 0.00118
0.000889 -7e-06 0.001912
0.000866 -8e-06 0.001921
-0.002146 1.8e-05 0.001
-0.002131 1.8e-05 0.001019
-0.002115 1.8e-05 0.001038
-0.002094 2e-05 0.001053
-0.002079 2e-05 0.001072
-0.002064 1.9e-05 0.001092
-0.002049 1.8e-05 0.001111
-0.002016 1.9e-05 0.001148
-0.001999 1.9e-05 0.001166
-0.002747 0.000493 0.001224
-0.002793 0.000469 0.00111
-0.002761 0.000735 0.001068
-0.001937 1.8e-05 0.001242
-0.00192 1.8e-05 0.001261
-0.002764 0.000728 0.001096
-0.001802 2.1e-05 0.001386
-0.001785 2.1e-05 0.001404
-0.001771 1.9e-05 0.001425
-0.002746 0.000521 0.001224
-0.001709 1.8e-05 0.001501
-0.001692 1.9e-05 0.001519
-0.001676 1.9e-05 0.001537
-0.001659 1.9e-05 0.001556
-0.001643 1.9e-05 0.001574
-0.001627 1.9e-05 0.001593
-0.001611 1.9e-05 0.001612
-0.001593 2e-05 0.001629
-0.001498 1.9e-05 0.001742
-0.001483 1.8e-05 0.001762
-0.001466 1.9e-05 0.001779
-0.002542 0.000545 0.001265
-0.001432 1.9e-05 0.001816
-0.001417 1.9e-05 0.001835
-0.0014 2e-05 0.001852
-0.002484 0.000569 0.001265
-0.002777 0.000439 0.001157
0.000843 -8e-06 0.001929
-0.002383 0.000764 0.000485
-0.002404 0.000759 0.000468
-0.002071 1.9e-05 0.001
-0.002055 1.8e-05 0.001019
-0.002038 1.8e-05 0.001036
-0.002021 1.8e-05 0.001054
-0.002003 2e-05 0.001071
-0.001972 1.9e-05 0.00111
-0.001956 1.9e-05 0.001128
-0.00194 1.9e-05 0.001147
-0.001923 1.9e-05 0.001165
-0.001907 1.9e-05 0.001183
-0.001891 1.9e-05 0.001202
-0.002787 0.000576 0.001134
-0.002883 0.000624 0.000341
-0.001844 1.7e-05 0.001259
-0.001826 1.9e-05 0.001276
-0.001812 1.8e-05 0.001297
-0.002362 0.000765 0.000666
-0.002367 0.000769 0.000512
-0.002993 0.000615 0.000134
-0.001747 1.8e-05 0.001371
-0.001731 1.8e-05 0.00139
-0.001715 1.7e-05 0.001408
-0.002368 0.00074 0.000506
-0.002719 0.000725 0.001211
-0.001666 1.6e-05 0.001464
-0.001651 1.7e-05 0.001483
-0.001634 1.7e-05 0.001501
-0.001618 1.7e-05 0.00152
-0.001602 1.7e-05 0.001539
-0.001586 1.7e-05 0.001557
-0.00157 1.7e-05 0.001576
-0.001554 1.7e-05 0.001595
-0.001536 1.8e-05 0.001612
-0.001519 1.9e-05 0.00163
-0.001502 1.8e-05 0.001647
-0.001471 1.9e-05 0.001686
-0.001455 1.8e-05 0.001705
-0.001439 1.8e-05 0.001724
-0.001373 1.8e-05 0.001797
-0.001357 1.9e-05 0.001815
-0.00134 1.9e-05 0.001833
0.00082 -9e-06 0.001938
0.000796 -9e-06 0.001946
-0.00205 0.000713 0.001471
-0.002788 0.000558 0.00108
-0.002781 0.00066 0.001131
-0.001994 1.8e-05 0.000998
-0.001978 1.8e-05 0.001016
-0.002786 0.00044 0.001134
-0.002787 0.000467 0.001134
-0.002699 0.00073 0.001229
-0.001917 1.6e-05 0.001094
-0.001901 1.5e-05 0.001113
-0.001885 1.5e-05 0.001131
-0.001871 1.4e-05 0.001152
-0.001855 1.4e-05 0.001171
-0.002642 0.000721 0.001257
-0.002764 0.000685 0.001042
-0.001808 1.3e-05 0.001228
-0.001793 1.2e-05 0.001248
-0.001777 1.2e-05 0.001266
-0.001761 1.2e-05 0.001285
-0.002753 0.000659 0.0012
-0.002719 0.000665 0.001239
-0.001714 1.1e-05 0.001342
-0.001699 1.1e-05 0.001361
-0.001683 1e-05 0.00138
-0.001666 1e-05 0.001398
-0.001651 1e-05 0.001418
-0.001634 1e-05 0.001436
-0.001618 1e-05 0.001454
-0.001601 1.1e-05 0.001472
-0.001585 1.1e-05 0.001491
-0.001569 1.1e-05 0.00151
-0.001553 1.1e-05 0.001528
-0.001536 1.1e-05 0.001546
-0.00152 1.1e-05 0.001565
-0.001503 1.2e-05 0.001583
-0.001486 1.2e-05 0.001601
-0.00147 1.2e-05 0.001619
-0.001453 1.3e-05 0.001637
-0.001435 1.3e-05 0.001655
-0.001419 1.4e-05 0.001673
-0.001402 1.4e-05 0.001691
-0.001333 1.6e-05 0.001762
-0.001316 1.7e-05 0.00178
-0.0013 1.7e-05 0.001798
-0.002746 0.00063 0.000395
-0.002793 0.000523 0.00111
-0.002536 0.000616 0.000811
-0.002484 0.000705 0.001265
-0.002713 0.000696 0.001236
-0.002684 0.000705 0.001249
-0.002686 0.00065 0.00125
-0.002637 0.000564 0.000901
-0.00269 0.000535 0.000959
-0.002671 0.000739 0.001243
-0.00187 8e-06 0.001085
-0.001854 7e-06 0.001105
-0.001839 7e-06 0.001124
-0.001824 6e-06 0.001143
-0.001808 6e-06 0.001163
-0.001793 5e-06 0.001182
-0.001778 4e-06 0.001201
-0.001762 4e-06 0.00122
-0.001747 3e-06 0.00124
-0.001732 3e-06 0.00126
-0.001717 2e-06 0.001279
-0.001701 2e-06 0.001298
-0.001685 2e-06 0.001317
-0.001669 2e-06 0.001335
-0.001653 2e-06 0.001354
-0.001637 2e-06 0.001373
-0.001621 1e-06 0.001392
-0.001605 1e-06 0.00141
-0.001588 1e-06 0.001429
-0.001572 2e-06 0.001447
-0.001556 1e-06 0.001466
-0.001539 2e-06 0.001484
-0.001523 2e-06 0.001502
-0.001506 2e-06 0.00152
-0.001489 3e-06 0.001538
-0.001472 3e-06 0.001556
-0.001456 3e-06 0.001574
-0.001439 4e-06 0.001592
-0.001422 4e-06 0.00161
-0.001405 5e-06 0.001628
-0.001387 6e-06 0.001646
-0.001371 6e-06 0.001663
-0.001301 9e-06 0.001734
-0.001285 9e-06 0.001752
-0.001266 1.1e-05 0.001768
-0.001249 1.1e-05 0.001786
-0.002663 0.00074 0.00093
-0.002758 0.000547 0.001202
-0.002339 0.000776 0.000607
-0.002724 0.000581 0.001241
-0.002768 0.000574 0.00118
-0.002722 0.000637 0.00124
-0.002595 0.000686 0.001262
-0.002642 0.000667 0.001257
-0.002742 0.000631 0.001222
-0.002542 0.000708 0.001265
-0.002787 0.000613 0.00108
-0.002746 0.000602 0.000395
-0.002768 0.000602 0.00118
-0.002791 0.000606 0.001109
-0.002687 0.000622 0.001251
-0.001767 -6e-06 0.00116
-0.001752 -7e-06 0.001179
-0.001736 -7e-06 0.001198
-0.001721 -8e-06 0.001218
-0.001706 -8e-06 0.001237
-0.001691 -9e-06 0.001256
-0.001675 -9e-06 0.001275
-0.001659 -9e-06 0.001294
-0.001643 -1e-05 0.001313
-0.001628 -1e-05 0.001332
-0.001611 -1e-05 0.00135
-0.001595 -1e-05 0.001369
-0.001578 -9e-06 0.001387
-0.001563 -1e-05 0.001406
-0.001547 -1e-05 0.001425
-0.001531 -1e-05 0.001443
-0.001514 -9e-06 0.001461
-0.001497 -9e-06 0.001479
-0.001481 -9e-06 0.001498
-0.001464 -9e-06 0.001516
-0.001447 -8e-06 0.001534
-0.00143 -8e-06 0.001552
-0.001413 -7e-06 0.00157
-0.001395 -6e-06 0.001587
-0.001378 -6e-06 0.001604
-0.001255 1e-06 0.001726
-0.001237 2e-06 0.001743
-0.001219 3e-06 0.00176
-0.002758 0.000439 0.001202
-0.002746 0.000439 0.001224
-0.002724 0.000445 0.001241
-0.002686 0.000459 0.001251
-0.002641 0.000477 0.001257
-0.002594 0.000496 0.001262
-0.002541 0.000518 0.001265
-0.002484 0.000542 0.001266
-0.002014 0.000721 0.001372
-0.002015 0.000714 0.0014
-0.002024 0.000704 0.001432
-0.002049 0.000686 0.001471
-0.002082 0.000664 0.001513
-0.002112 0.000643 0.001554
-0.00214 0.000623 0.001595
-0.002162 0.000607 0.001632
-0.002183 0.000591 0.001669
-0.0022 0.000576 0.001704
-0.002509 0.000666 0.000435
-0.002465 0.000684 0.000442
-0.002428 0.000697 0.000452
-0.002401 0.000706 0.000467
-0.002382 0.000711 0.000485
-0.002367 0.000713 0.000505
-0.002991 0.000664 0.000232
-0.002991 0.000668 0.000158
-0.002985 0.000672 0.000133
-0.002993 0.000664 0.000208
-0.002633 0.000755 0.000901
-0.002994 0.000525 0.000258
-0.002997 0.000525 0.000233
-0.002764 0.00044 0.001043
-0.002788 0.000422 0.001081
-0.002794 0.000414 0.00111
-0.002787 0.000413 0.001134
-0.002777 0.000412 0.001157
-0.002768 0.000412 0.00118
-0.002758 0.000411 0.001203
-0.002746 0.000412 0.001224
-0.002724 0.000418 0.001241
-0.002686 0.000432 0.001251
-0.002641 0.00045 0.001257
-0.002593 0.000469 0.001262
-0.002542 0.00049 0.001265
-0.002484 0.000515 0.001265
-0.002018 0.000697 0.001347
-0.002013 0.000694 0.001372
-0.002015 0.000687 0.001401
-0.002024 0.000677 0.001432
-0.002047 0.00066 0.00147
-0.002083 0.000636 0.001514
-0.002114 0.000615 0.001555
-0.00214 0.000596 0.001595
-0.002162 0.000579 0.001632
-0.002183 0.000564 0.001669
-0.0022 0.000549 0.001704
-0.002508 0.00064 0.000435
-0.002464 0.000657 0.000442
-0.002428 0.00067 0.000452
-0.002401 0.000678 0.000467
-0.002382 0.000683 0.000485
-0.002367 0.000686 0.000505
-0.002356 0.000686 0.000527
-0.002967 0.00073 0.000229
-0.002955 0.000732 0.000277
-0.002977 0.000667 0.00028
-0.002999 0.00058 0.000209
-0.002711 0.000693 -0.00051
-0.003 0.000444 0.000209
-0.003001 0.000446 0.000159
-0.002896 0.000617 6.1e-05
-0.002765 0.000413 0.001043
-0.002789 0.000395 0.001081
-0.002794 0.000387 0.00111
-0.002787 0.000385 0.001134
-0.002777 0.000385 0.001157
-0.002768 0.000384 0.00118
-0.002758 0.000384 0.001203
-0.002747 0.000385 0.001224
-0.002724 0.000391 0.001241
-0.002686 0.000405 0.001251
-0.00264 0.000423 0.001257
-0.002594 0.000442 0.001262
-0.002541 0.000464 0.001265
-0.002484 0.000488 0.001266
-0.001757 -1.8e-05 0.001119
-0.002025 0.000671 0.001324
-0.002017 0.00067 0.001347
-0.002013 0.000667 0.001372
-0.002015 0.00066 0.001401
-0.002024 0.00065 0.001432
-0.002048 0.000632 0.001471
-0.002082 0.000609 0.001514
-0.002114 0.000588 0.001555
-0.002139 0.000569 0.001594
-0.002162 0.000552 0.001632
-0.002183 0.000536 0.001669
-0.002203 0.000522 0.001702
-0.002507 0.000613 0.000434
-0.002464 0.00063 0.000441
-0.002426 0.000644 0.000451
-0.002401 0.000651 0.000467
-0.002382 0.000656 0.000485
-0.002367 0.000658 0.000505
-0.002356 0.000659 0.000527
-0.002349 0.000657 0.000551
-0.002982 0.0007 0.000156
-0.002796 0.000716 0.000377
-0.003001 0.000555 0.000159
-0.001758 0.000699 -0.0019
-0.003001 0.000445 0.000184
-0.002995 0.00045 0.000135
-0.00291 0.000615 -0.000736
-0.002765 0.000385 0.001043
-0.002789 0.000368 0.001081
-0.002793 0.00036 0.00111
-0.002786 0.000358 0.001134
-0.002777 0.000358 0.001157
-0.002768 0.000357 0.00118
-0.002758 0.000357 0.001202
-0.002746 0.000358 0.001224
-0.002724 0.000364 0.001241
-0.002686 0.000378 0.001251
-0.00264 0.000396 0.001257
-0.002594 0.000415 0.001262
-0.002541 0.000436 0.001265
-0.002484 0.00046 0.001266
-0.002035 0.000644 0.001301
-0.002024 0.000644 0.001323
-0.002017 0.000643 0.001347
-0.002013 0.000639 0.001373
-0.002016 0.000632 0.001401
-0.002024 0.000623 0.001432
-0.002047 0.000605 0.00147
-0.002114 0.000561 0.001555
-0.002139 0.000542 0.001594
-0.002162 0.000525 0.001632
-0.002183 0.000509 0.001669
-0.0022 0.000495 0.001704
-0.002507 0.000586 0.000434
-0.002464 0.000603 0.000441
-0.002426 0.000617 0.000451
-0.0024 0.000625 0.000466
-0.002381 0.000629 0.000485
-0.002367 0.000631 0.000505
-0.002356 0.000632 0.000527
-0.002349 0.00063 0.000551
-0.002496 0.000685 -0.001643
-0.002959 0.000619 0.000302
-0.002574 0.000733 0.000842
-0.002607 0.000634 0.000872
-0.002496 0.000637 0.00078
-0.002842 0.000561 0.000359
-0.002765 0.000358 0.001043
-0.002788 0.000341 0.001081
-0.002793 0.000333 0.00111
-0.002787 0.000331 0.001134
-0.002777 0.00033 0.001157
-0.002768 0.00033 0.00118
-0.002758 0.00033 0.001202
-0.002746 0.00033 0.001224
-0.002724 0.000337 0.001241
-0.002686 0.000351 0.001251
-0.00264 0.000369 0.001257
-0.002595 0.000387 0.001263
-0.002541 0.000409 0.001265
-0.002486 0.000432 0.001267
-0.002035 0.000617 0.001302
-0.002024 0.000617 0.001324
-0.002017 0.000616 0.001347
-0.002013 0.000612 0.001373
-0.002015 0.000606 0.0014
-0.002023 0.000596 0.001432
-0.002048 0.000578 0.001471
-0.002084 0.000554 0.001514
-0.002113 0.000534 0.001555
-0.00214 0.000515 0.001595
-0.002161 0.000498 0.001632
-0.002183 0.000482 0.001669
-0.0022 0.000468 0.001704
-0.002509 0.000558 0.000435
-0.002463 0.000576 0.000441
-0.002426 0.00059 0.000451
-0.0024 0.000598 0.000466
-0.002381 0.000602 0.000485
-0.002367 0.000604 0.000505
-0.002356 0.000604 0.000527
-0.002348 0.000603 0.000551
-0.002809 0.000727 -0.000866
-0.002923 0.000635 0.000322
-0.002995 0.000559 0.000134
-0.002796 0.00058 0.000377
-0.001768 -1.9e-05 0.001097
-0.002607 0.000579 0.000872
-0.002368 0.000702 0.000686
-0.002606 0.000661 0.000872
-0.002765 0.000331 0.001043
-0.002789 0.000313 0.001081
-0.002793 0.000306 0.00111
-0.002787 0.000304 0.001135
-0.002778 0.000303 0.001157
-0.002768 0.000303 0.00118
-0.002758 0.000302 0.001203
-0.002746 0.000303 0.001224
-0.002723 0.00031 0.001241
-0.002686 0.000324 0.001251
-0.002641 0.000342 0.001257
-0.002594 0.00036 0.001262
-0.002542 0.000382 0.001265
-0.002487 0.000405 0.001267
-0.002035 0.00059 0.001302
-0.002024 0.00059 0.001323
-0.002017 0.000588 0.001347
-0.002013 0.000585 0.001373
-0.002014 0.000579 0.0014
-0.002023 0.000569 0.001432
-0.002049 0.00055 0.001471
-0.002083 0.000527 0.001514
-0.002114 0.000506 0.001556
-0.002139 0.000488 0.001594
-0.002161 0.000471 0.001632
-0.002183 0.000455 0.001669
-0.002204 0.00044 0.001703
-0.002509 0.00053 0.00044
-0.002463 0.000549 0.000441
-0.002426 0.000563 0.000451
-0.0024 0.00057 0.000466
-0.002381 0.000575 0.000485
-0.002366 0.000577 0.000505
-0.002355 0.000577 0.000527
-0.002348 0.000576 0.000551
-0.002986 0.000664 0.000256
-0.002689 0.000699 0.000959
-0.002562 0.000741 -0.000416
-0.002558 0.000659 0.000441
-0.00178 -2e-05 0.001075
-0.002664 0.000576 0.00093
-0.002399 0.000686 0.000716
-0.002573 0.000678 0.000842
-0.002765 0.000304 0.001043
-0.002789 0.000286 0.001081
-0.002793 0.000279 0.00111
-0.002787 0.000276 0.001135
-0.002778 0.000276 0.001158
-0.002768 0.000275 0.00118
-0.002758 0.000275 0.001203
-0.002746 0.000276 0.001224
-0.002724 0.000282 0.001241
-0.002686 0.000297 0.00125
-0.00264 0.000315 0.001257
-0.002595 0.000333 0.001263
-0.002542 0.000355 0.001265
-0.002486 0.000378 0.001267
-0.002422 0.000405 0.001256
-0.002035 0.000563 0.001302
-0.002024 0.000563 0.001324
-0.002016 0.000561 0.001347
-0.002013 0.000558 0.001372
-0.002014 0.000552 0.0014
-0.002023 0.000542 0.001432
-0.002048 0.000523 0.001471
-0.002085 0.000499 0.001515
-0.002115 0.000478 0.001556
-0.002139 0.000461 0.001595
-0.002161 0.000444 0.001632
-0.002183 0.000428 0.001669
-0.002201 0.000413 0.001705
-0.00251 0.000503 0.000436
-0.002462 0.000522 0.000441
-0.002426 0.000535 0.000452
-0.002401 0.000543 0.000467
-0.002381 0.000548 0.000485
-0.002366 0.00055 0.000505
-0.002355 0.00055 0.000527
-0.002348 0.000548 0.000551
-0.002843 0.000723 0.000359
-0.002713 0.000686 0.000987
-0.00297 0.000572 0.000108
-0.002449 0.000742 0.000748
-0.002995 0.000532 0.000135
-0.002654 0.000731 -0.000904
-0.002985 0.000446 0.000281
-0.002766 0.000276 0.001043
-0.002789 0.000259 0.001081
-0.002792 0.000252 0.00111
-0.002786 0.00025 0.001134
-0.002778 0.000249 0.001157
-0.002768 0.000248 0.00118
-0.002758 0.000248 0.001203
-0.002746 0.000249 0.001224
-0.002723 0.000255 0.001241
-0.002685 0.00027 0.00125
-0.00264 0.000287 0.001257
-0.002594 0.000306 0.001262
-0.002542 0.000327 0.001265
-0.002485 0.000351 0.001266
-0.002034 0.000535 0.001301
-0.002024 0.000536 0.001323
-0.002016 0.000534 0.001347
-0.002013 0.000531 0.001372
-0.002014 0.000524 0.0014
-0.002023 0.000514 0.001432
-0.002048 0.000496 0.001471
-0.002083 0.000473 0.001514
-0.002114 0.000451 0.001556
-0.00214 0.000433 0.001595
-0.002163 0.000416 0.001633
-0.002183 0.0004 0.001669
-0.0022 0.000386 0.001704
-0.002511 0.000475 0.000436
-0.002461 0.000495 0.00044
-0.002426 0.000508 0.000452
-0.002401 0.000516 0.000467
-0.002382 0.000521 0.000485
-0.002366 0.000523 0.000505
-0.002356 0.000523 0.000527
-0.002348 0.000521 0.000551
-0.002885 0.000705 0.000341
-0.002661 0.000582 -5.6e-05
-0.002664 0.000685 0.00093
-0.002664 0.000658 0.00093
-0.002353 0.000711 0.000659
-0.002736 0.000619 0.001015
-0.002552 0.000634 0.00044
-0.002883 0.000543 0.000341
-0.002765 0.000249 0.001043
-0.002788 0.000232 0.001081
-0.002792 0.000225 0.00111
-0.002786 0.000223 0.001134
-0.002778 0.000221 0.001158
-0.002768 0.000221 0.00118
-0.002757 0.000221 0.001202
-0.002745 0.000223 0.001224
-0.002723 0.000229 0.001241
-0.002685 0.000243 0.00125
-0.002641 0.00026 0.001257
-0.002594 0.000279 0.001262
-0.002542 0.0003 0.001265
-0.002485 0.000324 0.001266
-0.001791 -2e-05 0.001054
-0.002047 0.000507 0.00128
-0.002034 0.000508 0.001301
-0.002023 0.000509 0.001323
-0.002016 0.000507 0.001347
-0.002012 0.000503 0.001373
-0.002014 0.000497 0.001401
-0.002023 0.000487 0.001432
-0.002047 0.00047 0.00147
-0.002083 0.000446 0.001514
-0.002115 0.000424 0.001556
-0.00214 0.000406 0.001595
-0.002163 0.000389 0.001633
-0.002183 0.000373 0.001669
-0.002201 0.000359 0.001704
-0.002508 0.000449 0.000435
-0.002463 0.000467 0.000441
-0.002425 0.000481 0.000451
-0.002401 0.000489 0.000467
-0.002381 0.000493 0.000485
-0.002366 0.000496 0.000505
-0.002356 0.000496 0.000527
-0.002348 0.000494 0.000551
-0.002957 0.000675 0.000302
-0.002997 0.000607 0.000233
-0.002796 0.000662 0.000377
-0.002797 0.000607 0.000377
-0.00266 0.000637 -5.6e-05
-0.002713 0.000631 0.000988
-0.002628 0.0006 0.000427
-0.002994 0.000579 0.000258
-0.002764 0.000222 0.001043
-0.002787 0.000205 0.001081
-0.00279 0.000199 0.001109
-0.002784 0.000196 0.001133
-0.002776 0.000195 0.001157
-0.002767 0.000195 0.00118
-0.002756 0.000195 0.001202
-0.002743 0.000196 0.001223
-0.002723 0.000201 0.001241
-0.002685 0.000215 0.00125
-0.002641 0.000233 0.001257
-0.002593 0.000252 0.001262
-0.002542 0.000273 0.001266
-0.002485 0.000297 0.001266
-0.002047 0.00048 0.00128
-0.002034 0.000481 0.001301
-0.002023 0.000482 0.001323
-0.002016 0.00048 0.001347
-0.002012 0.000476 0.001373
-0.002014 0.00047 0.001401
-0.002023 0.00046 0.001432
-0.002048 0.000442 0.001471
-0.002084 0.000418 0.001515
-0.002114 0.000397 0.001556
-0.00214 0.000379 0.001595
-0.002163 0.000362 0.001633
-0.002183 0.000346 0.001669
-0.002201 0.000332 0.001705
-0.002509 0.000421 0.000436
-0.002462 0.00044 0.000441
-0.002425 0.000454 0.000451
-0.0024 0.000462 0.000467
-0.002381 0.000466 0.000485
-0.002366 0.000469 0.000505
-0.002356 0.000469 0.000527
-0.002348 0.000467 0.000551
-0.002982 0.000695 0.000231
-0.002983 0.00061 0.000281
-0.002923 0.000607 0.000322
-0.00269 0.000627 0.000411
-0.002995 0.000504 0.000135
-0.002843 0.000615 0.000359
-0.002731 0.000216 0.001004
-0.002765 0.000195 0.001043
-0.002786 0.000179 0.00108
-0.002787 0.000173 0.001108
-0.002781 0.000171 0.001132
-0.002773 0.000169 0.001156
-0.002764 0.000169 0.001178
-0.002753 0.000169 0.0012
-0.00274 0.000171 0.001221
-0.002721 0.000175 0.00124
-0.002685 0.000188 0.00125
-0.002641 0.000206 0.001257
-0.002593 0.000225 0.001262
-0.00254 0.000247 0.001264
-0.002485 0.00027 0.001266
-0.002047 0.000453 0.00128
-0.002034 0.000454 0.001301
-0.002023 0.000454 0.001323
-0.002016 0.000453 0.001347
-0.002012 0.000449 0.001373
-0.002014 0.000443 0.001401
-0.002023 0.000433 0.001432
-0.002048 0.000415 0.001471
-0.002084 0.000391 0.001515
-0.002115 0.000369 0.001556
-0.00214 0.000352 0.001595
-0.002163 0.000335 0.001633
-0.002184 0.000318 0.00167
-0.002201 0.000304 0.001705
-0.002508 0.000395 0.000435
-0.002462 0.000413 0.000441
-0.002425 0.000427 0.000451
-0.0024 0.000435 0.000466
-0.002381 0.000439 0.000485
-0.002366 0.000441 0.000505
-0.002355 0.000442 0.000527
-0.002348 0.00044 0.000551
-0.002952 0.000704 0.000301
-0.002923 0.000662 0.000322
-0.002606 0.000716 0.000872
-0.002775 0.000739 -0.000877
-0.001803 -2.1e-05 0.001032
-0.001814 -2.1e-05 0.00101
-0.002736 0.000592 0.001015
-0.002605 0.000743 0.000872
-0.002731 0.000189 0.001003
-0.002764 0.000168 0.001043
-0.002783 0.000153 0.001079
-0.002782 0.000148 0.001105
-0.002776 0.000146 0.00113
-0.002768 0.000145 0.001153
-0.002759 0.000144 0.001176
-0.002748 0.000145 0.001198
-0.002735 0.000146 0.001219
-0.002717 0.00015 0.001238
-0.002684 0.000161 0.00125
-0.002641 0.000178 0.001257
-0.002593 0.000198 0.001262
-0.002539 0.00022 0.001264
-0.002485 0.000242 0.001266
-0.001825 -2.2e-05 0.000988
-0.002034 0.000427 0.001301
-0.002023 0.000427 0.001323
-0.002016 0.000425 0.001347
-0.002013 0.000422 0.001373
-0.002014 0.000416 0.001401
-0.002024 0.000405 0.001432
-0.002049 0.000387 0.001471
-0.002085 0.000363 0.001515
-0.002115 0.000343 0.001556
-0.00214 0.000324 0.001595
-0.002163 0.000307 0.001633
-0.002184 0.000291 0.00167
-0.002202 0.000277 0.001705
-0.002509 0.000367 0.000435
-0.002463 0.000385 0.000441
-0.002425 0.0004 0.000451
-0.0024 0.000408 0.000466
-0.002381 0.000412 0.000485
-0.002366 0.000414 0.000505
-0.002355 0.000414 0.000527
-0.002348 0.000413 0.000551
-0.002841 0.000752 0.000359
-0.002992 0.000607 0.000257
-0.002689 0.000671 0.000959
-0.002886 0.000622 -0.000819
-0.001836 -2.2e-05 0.000966
-0.002689 0.000617 0.000959
-0.002688 0.000737 0.000411
-0.002731 0.000162 0.001003
-0.002764 0.000141 0.001042
-0.002778 0.000129 0.001076
-0.002775 0.000125 0.001102
-0.002769 0.000123 0.001126
-0.002761 0.000122 0.00115
-0.002752 0.000121 0.001173
-0.00274 0.000121 0.001195
-0.002727 0.000123 0.001216
-0.002712 0.000126 0.001236
-0.002683 0.000135 0.00125
-0.002642 0.000151 0.001258
-0.002593 0.000171 0.001262
-0.002541 0.000192 0.001265
-0.002485 0.000215 0.001266
-0.002034 0.0004 0.001301
-0.002023 0.0004 0.001323
-0.002016 0.000398 0.001347
-0.002013 0.000395 0.001373
-0.002014 0.000388 0.001401
-0.002024 0.000378 0.001432
-0.002049 0.00036 0.001471
-0.002085 0.000336 0.001515
-0.002116 0.000315 0.001557
-0.00214 0.000297 0.001595
-0.002163 0.00028 0.001633
-0.002184 0.000264 0.00167
-0.002201 0.00025 0.001705
-0.002509 0.00034 0.000435
-0.002464 0.000358 0.000442
-0.002425 0.000373 0.000451
-0.0024 0.00038 0.000466
-0.002381 0.000385 0.000485
-0.002366 0.000387 0.000505
-0.002355 0.000387 0.000527
-0.002348 0.000385 0.000551
-0.002978 0.000695 0.000255
-0.002796 0.000689 0.000377
-0.002713 0.000659 0.000988
-0.002627 0.000628 0.000427
-0.002998 0.00047 0.000233
-0.002958 0.000565 0.000302
-0.002731 0.000135 0.001002
-0.002762 0.000115 0.001042
-0.00277 0.000106 0.001073
-0.002766 0.000102 0.001098
-0.002759 0.0001 0.001122
-0.002751 9.9e-05 0.001145
-0.002742 9.9e-05 0.001168
-0.002731 9.9e-05 0.00119
-0.002718 0.0001 0.001212
-0.002703 0.000103 0.001232
-0.00268 0.000109 0.001248
-0.002641 0.000124 0.001257
-0.002593 0.000143 0.001262
-0.00254 0.000165 0.001265
-0.002485 0.000188 0.001266
-0.00242 0.000216 0.001255
-0.001847 -2.2e-05 0.000943
-0.002034 0.000373 0.001301
-0.002023 0.000373 0.001323
-0.002016 0.000371 0.001347
-0.002012 0.000368 0.001373
-0.002014 0.000361 0.001401
-0.002024 0.000351 0.001433
-0.002049 0.000332 0.001471
-0.002085 0.000309 0.001515
-0.002116 0.000288 0.001557
-0.00214 0.00027 0.001595
-0.002163 0.000253 0.001633
-0.002185 0.000236 0.00167
-0.002509 0.000313 0.000436
-0.002464 0.000331 0.000442
-0.002426 0.000345 0.000451
-0.0024 0.000353 0.000467
-0.002381 0.000357 0.000485
-0.002366 0.00036 0.000505
-0.002356 0.00036 0.000527
-0.002348 0.000358 0.000551
-0.002885 0.000733 0.000341
-0.002994 0.000587 0.000134
-0.003 0.000554 0.000184
-0.002922 0.000527 0.000322
-0.001857 -2.2e-05 0.000921
-0.003001 0.000501 0.000159
-0.00273 0.000108 0.001003
-0.002757 9e-05 0.001039
-0.002759 8.4e-05 0.001068
-0.002754 8.1e-05 0.001093
-0.002748 7.9e-05 0.001116
-0.002739 7.8e-05 0.00114
-0.00273 7.8e-05 0.001162
-0.002719 7.8e-05 0.001185
-0.002706 7.9e-05 0.001206
-0.002692 8.1e-05 0.001227
-0.002673 8.6e-05 0.001245
-0.002639 9.8e-05 0.001256
-0.002593 0.000116 0.001262
-0.002541 0.000138 0.001265
-0.002485 0.000161 0.001266
-0.002034 0.000346 0.001301
-0.002023 0.000346 0.001323
-0.002016 0.000344 0.001347
-0.002012 0.00034 0.001373
-0.002015 0.000334 0.001401
-0.002024 0.000323 0.001433
-0.00205 0.000305 0.001472
-0.002085 0.000282 0.001515
-0.002116 0.00026 0.001557
-0.002139 0.000243 0.001594
-0.002163 0.000226 0.001633
-0.002184 0.000209 0.00167
-0.002509 0.000286 0.000436
-0.002464 0.000303 0.000442
-0.002426 0.000318 0.000451
-0.0024 0.000326 0.000467
-0.002381 0.00033 0.000485
-0.002367 0.000332 0.000506
-0.002356 0.000333 0.000527
-0.002348 0.000331 0.000551
-0.00293 0.000685 7.9e-05
-0.003 0.000583 0.000159
-0.002797 0.000635 0.000377
-0.002922 0.000499 0.000322
-0.002842 0.000534 0.000359
-0.002884 0.000516 0.000341
-0.002728 8.2e-05 0.001002
-0.002746 6.9e-05 0.001034
-0.002746 6.4e-05 0.001061
-0.00274 6.1e-05 0.001086
-0.002733 6e-05 0.00111
-0.002724 5.9e-05 0.001133
-0.002715 5.8e-05 0.001156
-0.002704 5.9e-05 0.001178
-0.002692 5.9e-05 0.001199
-0.002679 6.1e-05 0.00122
-0.002661 6.5e-05 0.001239
-0.002635 7.3e-05 0.001254
-0.002592 9e-05 0.001261
-0.002541 0.000111 0.001265
-0.001868 -2.2e-05 0.000899
-0.002033 0.000318 0.001301
-0.002023 0.000319 0.001323
-0.002016 0.000317 0.001347
-0.002013 0.000313 0.001373
-0.002014 0.000307 0.001401
-0.002024 0.000296 0.001433
-0.002051 0.000277 0.001472
-0.002086 0.000254 0.001516
-0.002116 0.000233 0.001557
-0.002139 0.000216 0.001595
-0.002162 0.000199 0.001633
-0.002186 0.000182 0.001671
-0.002202 0.000168 0.001705
-0.002465 0.000276 0.000442
-0.002426 0.00029 0.000452
-0.002401 0.000298 0.000467
-0.002382 0.000303 0.000485
-0.002367 0.000305 0.000506
-0.002356 0.000305 0.000528
-0.002349 0.000303 0.000551
-0.002984 0.000697 0.000181
-0.00297 0.0006 0.000108
-0.002923 0.00058 0.000322
-0.002365 0.000743 0.000511
-0.001878 -2.3e-05 0.000877
-0.002667 0.000525 -0.000479
-0.002997 0.000552 0.000233
-0.002721 5.9e-05 0.000999
-0.002731 5e-05 0.001027
-0.002728 4.5e-05 0.001053
-0.002722 4.3e-05 0.001078
-0.002714 4.2e-05 0.001101
-0.002706 4.1e-05 0.001124
-0.002696 4.1e-05 0.001147
-0.002685 4.1e-05 0.001169
-0.002674 4.2e-05 0.001191
-0.002661 4.3e-05 0.001212
-0.002645 4.6e-05 0.001232
-0.002623 5.2e-05 0.001249
-0.002588 6.4e-05 0.00126
-0.002541 8.3e-05 0.001265
-0.001888 -2.2e-05 0.000854
-0.002046 0.00029 0.00128
-0.002033 0.000291 0.001301
-0.002023 0.000291 0.001323
-0.002016 0.00029 0.001347
-0.002012 0.000286 0.001373
-0.002014 0.00028 0.001401
-0.002024 0.000269 0.001433
-0.00205 0.00025 0.001472
-0.002085 0.000227 0.001515
-0.002115 0.000206 0.001556
-0.002163 0.000172 0.001633
-0.002186 0.000154 0.001671
-0.002202 0.000141 0.001705
-0.002507 0.000233 0.000435
-0.002464 0.000249 0.000442
-0.002427 0.000263 0.000452
-0.002401 0.000271 0.000467
-0.002382 0.000276 0.000485
-0.002367 0.000278 0.000506
-0.002356 0.000278 0.000528
-0.002348 0.000276 0.000551
-0.002974 0.000705 0.000131
-0.002911 0.000616 -0.000711
-0.002994 0.000552 0.000258
-0.002572 0.000598 0.000842
-0.002347 0.000721 0.000559
-0.002999 0.000553 0.000209
-0.002706 4.1e-05 0.000991
-0.00271 3.3e-05 0.001018
-0.002706 3e-05 0.001043
-0.002698 2.8e-05 0.001067
-0.002689 2.8e-05 0.00109
-0.00268 2.7e-05 0.001112
-0.00267 2.7e-05 0.001135
-0.002659 2.7e-05 0.001157
-0.002649 2.7e-05 0.001179
-0.002637 2.8e-05 0.001201
-0.002623 3e-05 0.001222
-0.002604 3.4e-05 0.00124
-0.002577 4.3e-05 0.001255
-0.002538 5.8e-05 0.001264
-0.002482 8.1e-05 0.001265
-0.001898 -2.2e-05 0.000832
-0.002046 0.000263 0.00128
-0.002033 0.000264 0.001301
-0.002023 0.000264 0.001323
-0.002016 0.000262 0.001347
-0.002012 0.000259 0.001373
-0.002015 0.000252 0.001401
-0.002024 0.000242 0.001433
-0.00205 0.000224 0.001472
-0.002086 0.0002 0.001516
-0.002114 0.00018 0.001556
-0.002141 0.000161 0.001595
-0.002163 0.000144 0.001633
-0.002186 0.000127 0.001671
-0.002202 0.000113 0.001705
-0.002506 0.000206 0.000434
-0.002465 0.000222 0.000442
-0.002427 0.000236 0.000452
-0.0024 0.000244 0.000467
-0.002382 0.000249 0.000485
-0.002367 0.000251 0.000506
-0.002356 0.000251 0.000528
-0.002348 0.000249 0.000551
-0.002969 0.000698 0.000279
-0.002745 0.000711 0.000394
-0.002958 0.000483 0.000102
-0.002999 0.000499 0.000209
-0.003001 0.000472 0.000184
-0.002995 0.000477 0.000135
-0.002985 0.000473 0.000281
-0.002777 0.000629 -0.000879
-0.002672 2.1e-05 0.001027
-0.002664 1.9e-05 0.001051
-0.002653 1.9e-05 0.001073
-0.002644 1.8e-05 0.001096
-0.002634 1.8e-05 0.001118
-0.002622 1.9e-05 0.00114
-0.002612 1.9e-05 0.001162
-0.00259 2e-05 0.001206
-0.002577 2.1e-05 0.001228
-0.002556 2.6e-05 0.001245
-0.002527 3.6e-05 0.001259
-0.002481 5.4e-05 0.001265
-0.001908 -2.2e-05 0.000809
-0.002046 0.000236 0.00128
-0.002033 0.000237 0.001301
-0.002023 0.000237 0.001323
-0.002016 0.000235 0.001347
-0.002013 0.000231 0.001373
-0.002014 0.000225 0.001401
-0.002024 0.000215 0.001433
-0.00205 0.000196 0.001472
-0.002085 0.000173 0.001515
-0.002114 0.000153 0.001556
-0.00214 0.000134 0.001595
-0.002166 0.000115 0.001634
-0.002185 0.0001 0.00167
-0.002202 8.6e-05 0.001705
-0.002508 0.000178 0.000435
-0.002464 0.000195 0.000442
-0.002426 0.000209 0.000452
-0.002401 0.000217 0.000467
-0.002381 0.000221 0.000485
-0.002367 0.000224 0.000505
-0.002356 0.000224 0.000528
-0.002348 0.000222 0.000551
-0.002922 0.000716 0.000321
-0.002884 0.000651 0.000341
-0.002998 0.000579 0.000233
-0.002883 0.00057 0.000341
-0.003001 0.000474 0.000159
-0.003 0.000471 0.000209
-0.002636 0.000673 0.000901
-0.002606 0.000689 0.000872
-0.002579 1.9e-05 0.001093
-0.002568 2e-05 0.001115
-0.002559 1.9e-05 0.001138
-0.002547 2e-05 0.001159
-0.002537 2e-05 0.001182
-0.002514 2.1e-05 0.001225
-0.0025 2.3e-05 0.001246
-0.00247 3.3e-05 0.001259
-0.001919 -2.2e-05 0.000787
-0.002046 0.000208 0.00128
-0.002034 0.00021 0.001301
-0.002023 0.00021 0.001324
-0.002016 0.000208 0.001347
-0.002012 0.000204 0.001373
-0.002014 0.000198 0.001401
-0.002025 0.000187 0.001433
-0.002049 0.000169 0.001472
-0.002085 0.000146 0.001515
-0.002114 0.000126 0.001556
-0.00214 0.000107 0.001595
-0.002165 8.9e-05 0.001634
-0.002185 7.3e-05 0.00167
-0.002202 5.9e-05 0.001705
-0.002509 0.00015 0.000436
-0.002464 0.000168 0.000442
-0.002427 0.000181 0.000452
-0.0024 0.00019 0.000467
-0.002381 0.000194 0.000485
-0.002367 0.000197 0.000505
-0.002356 0.000197 0.000528
-0.002348 0.000195 0.000551
-0.002985 0.000695 0.000206
-0.002999 0.000607 0.000209
-0.002537 0.000752 0.000811
-0.002709 0.000588 -3.8e-05
-0.002745 0.000576 0.000395
-0.002797 0.000553 0.000377
-0.002364 0.000716 0.000511
-0.002572 0.000706 0.000842
-0.002998 0.000443 0.000233
-0.002541 2.2e-05 0.001021
-0.002531 2.2e-05 0.001044
-0.002522 2.1e-05 0.001066
-0.002512 2.1e-05 0.001089
-0.002503 2.1e-05 0.001112
-0.002491 2.1e-05 0.001134
-0.00248 2.2e-05 0.001156
-0.002469 2.2e-05 0.001178
-0.00246 2.2e-05 0.0012
-0.00245 2.1e-05 0.001223
-0.002437 2.3e-05 0.001244
-0.002034 0.000182 0.001302
-0.002023 0.000182 0.001324
-0.002016 0.000181 0.001347
-0.002012 0.000177 0.001373
-0.002014 0.000171 0.001401
-0.002024 0.00016 0.001433
-0.002047 0.000143 0.001471
-0.002085 0.000119 0.001515
-0.00214 8e-05 0.001595
-0.002165 6.1e-05 0.001634
-0.002184 4.7e-05 0.00167
-0.002196 3.5e-05 0.001703
-0.00251 0.000122 0.000436
-0.002464 0.00014 0.000442
-0.002426 0.000154 0.000452
-0.0024 0.000163 0.000467
-0.002381 0.000167 0.000485
-0.002366 0.00017 0.000505
-0.002356 0.00017 0.000528
-0.002348 0.000168 0.000551
-0.002895 0.000536 6.2e-05
-0.002689 0.000726 0.000959
-0.002984 0.000582 0.000281
-0.002398 0.000714 0.000716
-0.002537 0.000643 0.000812
-0.002923 0.000472 0.000322
-0.002841 0.000507 0.000359
-0.001928 -2.2e-05 0.000764
-0.002343 0.000748 0.000583
-0.002347 0.000748 0.000559
-0.002995 0.00047 0.000258
-0.002502 1.5e-05 0.001003
-0.002492 1.5e-05 0.001025
-0.002482 1.5e-05 0.001048
-0.002473 1.4e-05 0.001071
-0.002461 1.5e-05 0.001092
-0.002451 1.5e-05 0.001115
-0.002441 1.5e-05 0.001137
-0.00243 1.5e-05 0.00116
-0.00242 1.5e-05 0.001182
-0.00241 1.5e-05 0.001204
-0.002399 1.5e-05 0.001226
-0.002034 0.000155 0.001301
-0.002023 0.000156 0.001323
-0.002016 0.000154 0.001347
-0.002012 0.00015 0.001373
-0.002014 0.000144 0.001401
-0.002024 0.000133 0.001433
-0.002047 0.000116 0.001471
-0.002086 9.1e-05 0.001516
-0.002112 7.2e-05 0.001555
-0.002143 5.1e-05 0.001596
-0.002163 3.6e-05 0.001633
-0.002172 2.5e-05 0.001664
-0.002171 2.1e-05 0.001691
-0.002509 9.5e-05 0.000436
-0.002465 0.000113 0.000442
-0.002426 0.000128 0.000452
-0.002399 0.000136 0.000466
-0.002381 0.00014 0.000485
-0.002366 0.000142 0.000505
-0.002355 0.000143 0.000527
-0.002348 0.000141 0.000551
-0.002914 0.000451 -0.000712
-0.002714 0.000713 0.000986
-0.002737 0.000674 0.001014
-0.002995 0.000443 0.000258
-0.002571 0.000625 0.000842
-0.002496 0.000664 0.00078
-0.002345 0.000717 0.000633
-0.002883 0.000489 0.000341
-0.001937 -2.1e-05 0.000741
-0.002538 0.000697 0.000812
-0.002448 1.6e-05 0.000978
-0.002439 1.5e-05 0.001001
-0.002427 1.6e-05 0.001022
-0.002407 1.5e-05 0.001067
-0.002395 1.6e-05 0.001089
-0.002383 1.7e-05 0.001111
-0.002374 1.7e-05 0.001133
-0.002364 1.6e-05 0.001156
-0.002356 1.5e-05 0.001179
-0.002345 1.5e-05 0.001202
-0.002334 1.6e-05 0.001223
-0.002034 0.000128 0.001301
-0.002023 0.000128 0.001323
-0.002016 0.000127 0.001347
-0.002012 0.000123 0.001373
-0.002014 0.000117 0.001401
-0.002023 0.000107 0.001432
-0.002048 8.8e-05 0.001471
-0.002086 6.4e-05 0.001516
-0.002114 4.4e-05 0.001556
-0.002139 2.6e-05 0.001594
-0.002144 1.8e-05 0.001624
-0.002139 1.5e-05 0.001649
-0.002126 1.7e-05 0.00167
-0.002509 6.8e-05 0.000436
-0.002464 8.6e-05 0.000442
-0.002426 0.0001 0.000452
-0.0024 0.000109 0.000467
-0.002381 0.000113 0.000485
-0.002366 0.000115 0.000505
-0.002355 0.000115 0.000527
-0.002348 0.000114 0.000551
-0.002343 0.000111 0.000576
-0.002999 0.00061 0.000159
-0.002958 0.000593 0.000302
-0.002787 0.000573 -0.00057
-0.001947 -2.1e-05 0.000718
-0.002496 0.000718 0.00078
-0.002922 0.000554 0.000322
-0.001956 -2e-05 0.000696
-0.002422 1.8e-05 0.000884
-0.002411 1.8e-05 0.000906
-0.002497 0.000745 0.000781
-0.002389 1.9e-05 0.00095
-0.002379 1.9e-05 0.000973
-0.001965 -2e-05 0.000673
-0.002338 1.8e-05 0.001063
-0.002328 1.8e-05 0.001085
-0.002318 1.8e-05 0.001108
-0.002307 1.8e-05 0.00113
-0.002297 1.8e-05 0.001152
-0.002286 1.8e-05 0.001174
-0.002276 1.8e-05 0.001197
-0.002267 1.9e-05 0.001219
-0.002062 9.7e-05 0.00126
-0.002046 0.0001 0.00128
-0.002033 0.000101 0.001301
-0.002023 0.000101 0.001323
-0.002015 0.0001 0.001347
-0.002011 9.6e-05 0.001373
-0.002013 9e-05 0.001401
-0.002023 7.9e-05 0.001432
-0.002049 6.1e-05 0.001472
-0.002082 3.8e-05 0.001514
-0.002104 2.2e-05 0.001552
-0.002086 1.5e-05 0.001624
-0.002077 1.5e-05 0.001647
-0.002514 3.9e-05 0.000438
-0.002464 5.9e-05 0.000442
-0.002425 7.3e-05 0.000451
-0.0024 8.1e-05 0.000467
-0.002381 8.6e-05 0.000485
-0.002366 8.8e-05 0.000505
-0.002355 8.8e-05 0.000527
-0.002348 8.7e-05 0.000551
-0.002343 8.4e-05 0.000576
-0.002636 0.000727 0.000901
-0.002354 0.000774 0.000535
-0.002348 0.000774 0.000559
-0.001975 -1.9e-05 0.00065
-0.001984 -1.8e-05 0.000627
-0.002398 1.9e-05 0.000792
-0.002387 1.9e-05 0.000814
-0.002366 1.9e-05 0.000858
-0.002356 1.9e-05 0.000881
-0.002342 0.000775 0.000583
-0.002997 0.000498 0.000233
-0.002342 0.000747 0.000607
-0.002284 1.9e-05 0.001037
-0.002273 1.9e-05 0.001059
-0.002244 1.8e-05 0.001127
-0.002233 1.9e-05 0.00115
-0.002223 1.8e-05 0.001172
-0.002213 1.9e-05 0.001194
-0.002204 1.8e-05 0.001217
-0.002061 7e-05 0.00126
-0.002046 7.3e-05 0.00128
-0.002033 7.4e-05 0.001301
-0.002022 7.4e-05 0.001323
-0.002015 7.3e-05 0.001347
-0.002011 6.9e-05 0.001372
-0.002013 6.3e-05 0.001401
-0.002022 5.3e-05 0.001432
-0.002066 1.9e-05 0.001507
-0.002057 1.9e-05 0.00153
-0.002027 1.9e-05 0.001597
-0.002018 1.8e-05 0.00162
-0.002499 1.9e-05 0.000431
-0.002467 3e-05 0.000443
-0.002425 4.6e-05 0.000451
-0.002399 5.5e-05 0.000466
-0.002381 5.9e-05 0.000486
-0.002366 6.1e-05 0.000505
-0.002355 6.1e-05 0.000527
-0.002347 6e-05 0.000551
-0.002402 0.000773 -0.00022
-0.002342 5.2e-05 0.000603
-0.002343 4.4e-05 0.000634
-0.001993 -1.8e-05 0.000604
-0.002751 0.000591 -0.000541
-0.002333 2e-05 0.000789
-0.002322 2e-05 0.000811
-0.002312 2e-05 0.000833
-0.002303 1.9e-05 0.000856
-0.002985 0.0005 0.000281
-0.002994 0.000497 0.000258
-0.002346 0.000744 0.000632
-0.002636 0.000646 0.000901
-0.002231 1.9e-05 0.001013
-0.00222 1.9e-05 0.001035
-0.002401 0.000767 0.000716
-0.002842 0.000588 0.000359
-0.002178 1.9e-05 0.001124
-0.002169 1.9e-05 0.001147
-0.002158 2e-05 0.001169
-0.002148 1.9e-05 0.001192
-0.002137 2e-05 0.001214
-0.002083 3.6e-05 0.001243
-0.002061 4.2e-05 0.00126
-0.002045 4.6e-05 0.00128
-0.002033 4.7e-05 0.001301
-0.002021 4.7e-05 0.001323
-0.002015 4.5e-05 0.001347
-0.002017 3.3e-05 0.001403
-0.002026 2.4e-05 0.001434
-0.002627 0.000709 0.000426
-0.00202 1.6e-05 0.001485
-0.002005 1.8e-05 0.001506
-0.001961 2e-05 0.001594
-0.002421 2.1e-05 0.000449
-0.0024 2.7e-05 0.000468
-0.002381 3.2e-05 0.000486
-0.002365 3.4e-05 0.000505
-0.002355 3.4e-05 0.000527
-0.002347 3.2e-05 0.000551
-0.002746 0.000548 0.000395
-0.002958 0.000457 0.000302
-0.002349 1.6e-05 0.000633
-0.002344 1.3e-05 0.000658
-0.002739 0.000537 0.001013
-0.002354 0.000746 0.000535
-0.002739 0.000564 0.001014
-0.002965 0.000735 0.000154
-0.002271 1.9e-05 0.000787
-0.002259 1.9e-05 0.000809
-0.003001 0.000527 0.000184
-0.002999 0.000526 0.000209
-0.002691 0.000563 0.000958
-0.002914 0.000397 -0.000712
-0.002689 0.000644 0.000959
-0.003001 0.000528 0.000159
-0.002105 1.9e-05 0.001144
-0.002096 1.9e-05 0.001168
-0.002087 1.8e-05 0.001191
-0.002078 1.8e-05 0.001213
-0.002067 1.8e-05 0.001235
-0.002055 1.9e-05 0.001257
-0.002041 2e-05 0.001278
-0.00202 2.1e-05 0.001322
-0.002017 1.7e-05 0.001348
-0.00196 2e-05 0.001457
-0.001949 2e-05 0.00148
-0.001929 1.9e-05 0.001525
-0.001917 2.1e-05 0.001546
-0.001907 2.1e-05 0.001569
-0.002617 0.000551 -0.000448
-0.002664 0.000604 0.00093
-0.002374 1.8e-05 0.000427
-0.002366 1.7e-05 0.000451
-0.002713 0.000577 0.000987
-0.00269 0.00059 0.000958
-0.002689 0.000573 0.000411
-0.002279 2e-05 0.000628
-0.00227 1.9e-05 0.000651
-0.002259 1.9e-05 0.000673
-0.002451 0.000675 -0.000127
-0.002715 0.00055 0.000986
-0.002606 0.000607 0.000872
-0.002155 1.9e-05 0.000896
-0.002145 1.9e-05 0.000919
-0.002134 2e-05 0.000941
-0.002123 2e-05 0.000963
-0.002114 1.9e-05 0.000986
-0.00269 0.0006 0.000411
-0.002051 2e-05 0.00112
-0.002041 2e-05 0.001142
-0.002031 2e-05 0.001164
-0.002021 1.9e-05 0.001187
-0.002011 1.9e-05 0.00121
-0.002001 1.9e-05 0.001232
-0.001993 1.8e-05 0.001256
-0.00194 1.9e-05 0.001367
-0.001929 1.9e-05 0.001389
-0.00192 1.9e-05 0.001412
-0.00191 1.9e-05 0.001434
-0.001887 1.9e-05 0.001478
-0.001877 1.9e-05 0.0015
-0.001865 2e-05 0.001522
-0.002617 0.000714 -0.000448
-0.002636 0.000618 0.000901
-0.002321 1.9e-05 0.000403
-0.002311 1.8e-05 0.000425
-0.002298 2e-05 0.000447
-0.002288 1.9e-05 0.000469
-0.002279 1.9e-05 0.000492
-0.002269 1.8e-05 0.000515
-0.0024 0.00074 0.000716
-0.002237 1.9e-05 0.000581
-0.002226 1.9e-05 0.000603
-0.002219 1.8e-05 0.000627
-0.002208 1.8e-05 0.000649
-0.002198 1.8e-05 0.000672
-0.002495 0.000692 0.00078
-0.002906 0.000425 -0.00076
-0.002737 0.000701 0.001014
-0.002113 1.9e-05 0.00085
-0.002103 1.9e-05 0.000872
-0.002093 1.9e-05 0.000895
-0.002082 1.9e-05 0.000917
-0.002073 1.9e-05 0.00094
-0.00206 2e-05 0.000961
-0.00205 2e-05 0.000983
-0.002039 1.9e-05 0.001006
-0.001962 1.8e-05 0.001187
-0.001951 1.8e-05 0.001209
-0.001909 1.8e-05 0.001298
-0.001886 1.9e-05 0.001342
-0.001875 2e-05 0.001364
-0.001866 1.9e-05 0.001387
-0.001856 1.9e-05 0.001409
-0.001834 1.9e-05 0.001454
-0.001823 2e-05 0.001475
-0.002277 1.9e-05 0.000355
-0.002267 1.9e-05 0.000378
-0.00226 1.8e-05 0.000402
-0.002248 1.8e-05 0.000423
-0.002238 1.8e-05 0.000446
-0.002226 1.9e-05 0.000467
-0.002215 1.9e-05 0.00049
-0.002571 0.000652 0.000842
-0.002184 1.9e-05 0.000557
-0.002173 1.9e-05 0.000579
-0.002152 1.9e-05 0.000624
-0.002143 1.9e-05 0.000646
-0.002135 1.8e-05 0.00067
-0.002124 1.8e-05 0.000692
-0.002342 0.00072 0.000607
-0.002428 0.000657 -0.000149
-0.002653 0.000704 -0.000905
-0.003001 0.000581 0.000184
-0.002686 0.000754 0.000958
-0.002052 1.8e-05 0.000848
-0.002042 1.8e-05 0.000871
-0.002031 1.8e-05 0.000893
-0.002021 1.8e-05 0.000916
-0.002012 1.8e-05 0.000938
-0.002001 1.7e-05 0.000961
-0.00199 1.8e-05 0.000983
-0.001961 1.7e-05 0.001051
-0.001949 1.8e-05 0.001072
-0.001886 1.9e-05 0.001206
-0.001876 1.8e-05 0.001228
-0.001865 1.9e-05 0.001251
-0.001854 1.9e-05 0.001273
-0.001835 1.8e-05 0.001318
-0.001822 2e-05 0.001339
-0.001812 1.9e-05 0.001362
-0.0018 2e-05 0.001384
-0.001784 1.8e-05 0.00143
-0.001775 1.7e-05 0.001453
-0.001764 1.8e-05 0.001475
-0.001753 1.8e-05 0.001497
-0.002226 1.8e-05 0.000332
-0.002215 1.8e-05 0.000354
-0.002205 1.8e-05 0.000376
-0.002195 1.8e-05 0.000399
-0.002184 1.8e-05 0.000421
-0.002174 1.8e-05 0.000443
-0.002167 1.7e-05 0.000467
-0.002538 0.00067 0.000812
-0.002958 0.000511 0.000302
-0.002664 0.000631 0.00093
-0.002712 0.000605 0.000987
-0.00263 0.000681 0.000427
-0.002537 0.000724 0.000812
-0.0021 1.4e-05 0.000626
-0.00209 1.4e-05 0.000649
-0.00208 1.3e-05 0.000672
-0.002691 0.000681 0.000411
-0.002343 0.000721 0.000583
-0.002736 0.000646 0.001015
-0.002924 0.000689 0.000322
-0.002032 1.2e-05 0.000785
-0.002022 1.2e-05 0.000807
-0.002012 1.1e-05 0.00083
-0.002002 1.1e-05 0.000853
-0.001991 1.1e-05 0.000875
-0.001981 1.1e-05 0.000897
-0.001972 1.1e-05 0.00092
-0.001961 1.1e-05 0.000942
-0.001951 1.1e-05 0.000964
-0.001939 1.1e-05 0.000986
-0.001929 1.1e-05 0.001009
-0.001918 1.2e-05 0.001031
-0.001908 1.2e-05 0.001053
-0.001896 1.2e-05 0.001075
-0.001842 1.4e-05 0.001186
-0.00183 1.4e-05 0.001207
-0.00182 1.4e-05 0.00123
-0.001775 1.6e-05 0.001318
-0.001763 1.7e-05 0.001339
-0.00172 1.8e-05 0.001428
-0.001709 1.9e-05 0.00145
-0.002986 0.000526 0.000123
-0.002752 0.000624 -1.9e-05
-0.002171 1.4e-05 0.000334
-0.002161 1.4e-05 0.000356
-0.002152 1.3e-05 0.000379
-0.002144 1.2e-05 0.000402
-0.002135 1.1e-05 0.000425
-0.002125 1.1e-05 0.000448
-0.002958 0.000647 0.000302
-0.002996 0.000639 0.000159
-0.00299 0.000643 0.000134
-0.002998 0.000636 0.000184
-0.002969 0.000627 0.000108
-0.002814 0.00048 -0.000868
-0.002994 0.000666 0.000183
-0.002939 0.000737 0.000299
-0.002044 5e-06 0.000655
-0.002035 4e-06 0.000678
-0.002024 4e-06 0.0007
-0.002015 4e-06 0.000723
-0.002005 3e-06 0.000746
-0.001996 3e-06 0.000768
-0.001986 3e-06 0.000791
-0.001976 3e-06 0.000813
-0.001966 3e-06 0.000836
-0.001956 2e-06 0.000858
-0.001946 2e-06 0.000881
-0.001935 2e-06 0.000903
-0.001925 2e-06 0.000926
-0.001915 2e-06 0.000948
-0.001904 2e-06 0.00097
-0.001894 2e-06 0.000992
-0.001882 3e-06 0.001014
-0.001872 3e-06 0.001036
-0.001861 3e-06 0.001059
-0.00185 3e-06 0.001081
-0.001839 4e-06 0.001103
-0.001827 4e-06 0.001125
-0.001816 5e-06 0.001147
-0.001805 6e-06 0.001168
-0.001794 6e-06 0.00119
-0.001736 9e-06 0.0013
-0.001723 1e-05 0.001321
-0.001678 1.3e-05 0.001408
-0.001665 1.4e-05 0.00143
-0.002447 0.000716 0.000748
-0.002746 0.000684 0.000395
-0.002798 0.000743 0.000377
-0.002712 0.000741 0.000987
-0.002906 0.000397 -0.00076
-0.002995 0.000635 0.000233
-0.002871 0.000652 -0.000839
-0.002843 0.000696 0.000359
