-0.00089 0.000321 0.002282
-0.000864 0.000324 0.002281
-0.000839 0.000326 0.002285
-0.000816 0.000326 0.002292
-0.000793 0.000324 0.002302
-0.000772 0.000321 0.002316
-0.000751 0.000315 0.002335
-0.000734 0.000305 0.002362
-0.00072 0.000288 0.002404
-0.000714 0.000219 0.00256
-0.000708 0.000191 0.002625
-0.000698 0.000168 0.002681
-0.000686 0.000148 0.002727
-0.000673 0.000131 0.002771
-0.000661 0.000112 0.002816
-0.000647 9.6e-05 0.002856
-0.000632 8.2e-05 0.002892
-0.000612 7.5e-05 0.002914
-0.00059 7.3e-05 0.002925
-0.000567 7.2e-05 0.002934
-0.000543 7.2e-05 0.00294
-0.000519 7.3e-05 0.002946
-0.000494 7.4e-05 0.00295
-0.00047 7.6e-05 0.002953
-0.001405 0.000547 0.002669
-0.001537 0.000595 0.002463
-0.001535 0.000641 0.002415
-0.001537 0.000649 0.002463
-0.001535 0.000723 0.002415
-0.001328 7.5e-05 0.002642
-0.001297 8.7e-05 0.002626
-0.001265 0.000101 0.002603
-0.001234 0.000114 0.002582
-0.001202 0.000128 0.002561
-0.001169 0.000143 0.002537
-0.001137 0.000157 0.002515
-0.001104 0.000174 0.002487
-0.001066 0.000197 0.002445
-0.001027 0.000223 0.002399
-0.000985 0.000253 0.002345
-0.000948 0.000275 0.002307
-0.000918 0.000287 0.002289
-0.00089 0.000293 0.002282
-0.000864 0.000297 0.002282
-0.000839 0.000299 0.002285
-0.000816 0.000298 0.002293
-0.000793 0.000297 0.002302
-0.000772 0.000293 0.002316
-0.000752 0.000288 0.002335
-0.000733 0.000278 0.002362
-0.00072 0.000262 0.002402
-0.000713 0.000194 0.002557
-0.000708 0.000164 0.002625
-0.000698 0.000141 0.00268
-0.000686 0.000121 0.002728
-0.000673 0.000103 0.002772
-0.00066 8.5e-05 0.002815
-0.000646 6.9e-05 0.002856
-0.000629 5.9e-05 0.002884
-0.000608 5.4e-05 0.002901
-0.000586 5.2e-05 0.002912
-0.000563 5.1e-05 0.00292
-0.000539 5.2e-05 0.002926
-0.000515 5.2e-05 0.002932
-0.00049 5.3e-05 0.002936
-0.000466 5.6e-05 0.002939
-0.001427 0.000464 0.002658
-0.001536 0.000577 0.002508
-0.001513 0.000571 0.002609
-0.001427 0.0006 0.002658
-0.001425 0.000657 0.002654
-0.001396 0.000691 0.002654
-0.001296 6.1e-05 0.002623
-0.001265 7.3e-05 0.002604
-0.001234 8.7e-05 0.002582
-0.001202 0.000101 0.002561
-0.001169 0.000116 0.002536
-0.001137 0.00013 0.002515
-0.001104 0.000147 0.002487
-0.001065 0.000171 0.002443
-0.001027 0.000196 0.002399
-0.000986 0.000225 0.002346
-0.000948 0.000248 0.002307
-0.000918 0.000259 0.002289
-0.00089 0.000266 0.002283
-0.000864 0.00027 0.002282
-0.00084 0.000271 0.002286
-0.000816 0.000271 0.002293
-0.000793 0.00027 0.002303
-0.000772 0.000266 0.002317
-0.000752 0.00026 0.002336
-0.000733 0.000251 0.002361
-0.00072 0.000234 0.002404
-0.000717 0.000199 0.002482
-0.000713 0.000167 0.002555
-0.000707 0.000137 0.002624
-0.000698 0.000114 0.00268
-0.000686 9.4e-05 0.002728
-0.000673 7.6e-05 0.002772
-0.00066 5.9e-05 0.002814
-0.000644 4.5e-05 0.002848
-0.000625 3.8e-05 0.002869
-0.000603 3.5e-05 0.002884
-0.000581 3.3e-05 0.002894
-0.000557 3.3e-05 0.002902
-0.000533 3.4e-05 0.002907
-0.000509 3.4e-05 0.002913
-0.000485 3.5e-05 0.002918
-0.00046 3.7e-05 0.002921
-0.001405 0.000466 0.002669
-0.001537 0.000541 0.002463
-0.001726 0.000754 0.001936
-0.001492 0.000571 0.002623
-0.001512 0.000599 0.002608
-0.001526 0.000659 0.002583
-0.001294 3.8e-05 0.002614
-0.001264 4.8e-05 0.0026
-0.001234 6e-05 0.002582
-0.001202 7.4e-05 0.00256
-0.001169 8.9e-05 0.002537
-0.001137 0.000103 0.002515
-0.001104 0.000119 0.002487
-0.001065 0.000144 0.002443
-0.001026 0.000169 0.002398
-0.000986 0.000198 0.002347
-0.000948 0.000221 0.002306
-0.000918 0.000232 0.002289
-0.00089 0.000238 0.002283
-0.000864 0.000242 0.002282
-0.00084 0.000244 0.002286
-0.000816 0.000244 0.002293
-0.000793 0.000242 0.002303
-0.000772 0.000239 0.002316
-0.000751 0.000233 0.002335
-0.000733 0.000224 0.002362
-0.00072 0.000207 0.002404
-0.000718 0.000172 0.002483
-0.000713 0.00014 0.002556
-0.000707 0.00011 0.002625
-0.000698 8.7e-05 0.00268
-0.000686 6.7e-05 0.002727
-0.000673 4.9e-05 0.002771
-0.000658 3.5e-05 0.002806
-0.000639 2.6e-05 0.002831
-0.000618 2.2e-05 0.002847
-0.000596 2e-05 0.002859
-0.000573 1.9e-05 0.002868
-0.00055 1.9e-05 0.002875
-0.000526 1.9e-05 0.002881
-0.000502 2e-05 0.002887
-0.000478 2.1e-05 0.002892
-0.000453 2.2e-05 0.002897
-0.000428 2.4e-05 0.0029
-0.001547 0.000738 0.001884
-0.001571 0.000735 0.001876
-0.00189 0.000603 0.002009
-0.001529 0.000575 0.002588
-0.001534 0.000643 0.002551
-0.001526 0.000739 0.002309
-0.001261 2.6e-05 0.002589
-0.001232 3.5e-05 0.002577
-0.001201 4.8e-05 0.002558
-0.001169 6.1e-05 0.002537
-0.001137 7.6e-05 0.002514
-0.001104 9.2e-05 0.002488
-0.001065 0.000117 0.002443
-0.001026 0.000142 0.002397
-0.000948 0.000194 0.002304
-0.000917 0.000205 0.002289
-0.00089 0.000212 0.002283
-0.000864 0.000215 0.002283
-0.00084 0.000217 0.002286
-0.000816 0.000217 0.002293
-0.000793 0.000215 0.002303
-0.000771 0.000212 0.002316
-0.000751 0.000206 0.002335
-0.000734 0.000197 0.002362
-0.00072 0.000179 0.002405
-0.000698 6e-05 0.002679
-0.000685 4.1e-05 0.002725
-0.00067 2.7e-05 0.002761
-0.000651 1.9e-05 0.002784
-0.00063 1.5e-05 0.002798
-0.000607 1.4e-05 0.002807
-0.000583 1.4e-05 0.002814
-0.000559 1.5e-05 0.002821
-0.000536 1.5e-05 0.002827
-0.000512 1.4e-05 0.002835
-0.000489 1.4e-05 0.002842
-0.000465 1.4e-05 0.00285
-0.000441 1.4e-05 0.002857
-0.000417 1.5e-05 0.002862
-0.001488 0.000762 0.001929
-0.002198 0.000574 0.001699
-0.001926 0.000616 0.002021
-0.001405 0.00052 0.002669
-0.001449 0.000518 0.002647
-0.001513 0.000516 0.002609
-0.001252 1.4e-05 0.002558
-0.001227 1.7e-05 0.002558
-0.001199 2.4e-05 0.00255
-0.001169 3.5e-05 0.002534
-0.001137 4.9e-05 0.002513
-0.001104 6.5e-05 0.002487
-0.001065 8.9e-05 0.002445
-0.001026 0.000115 0.002398
-0.000947 0.000168 0.002303
-0.000917 0.000178 0.002289
-0.00089 0.000184 0.002283
-0.000864 0.000188 0.002283
-0.00084 0.000189 0.002286
-0.000816 0.000189 0.002293
-0.000793 0.000188 0.002303
-0.000771 0.000185 0.002316
-0.000751 0.000179 0.002335
-0.000733 0.00017 0.002362
-0.00072 0.000152 0.002404
-0.000717 0.000118 0.002482
-0.000714 8.3e-05 0.00256
-0.000707 5.7e-05 0.002622
-0.000697 3.4e-05 0.002676
-0.000681 2e-05 0.002711
-0.000662 1.3e-05 0.002733
-0.00064 1e-05 0.002746
-0.000569 1e-05 0.002766
-0.000545 1.1e-05 0.002773
-0.000521 1.1e-05 0.002779
-0.000498 1.1e-05 0.002785
-0.000474 1.2e-05 0.002791
-0.00045 1.2e-05 0.002798
-0.001528 0.000763 0.0019
-0.00155 0.000763 0.001888
-0.001963 0.000602 0.002032
-0.001998 0.00059 0.002041
-0.001428 0.000519 0.002658
-0.001762 0.000659 0.001946
-0.001239 9e-06 0.002513
-0.001215 9e-06 0.002518
-0.001191 1.1e-05 0.002522
-0.001164 1.6e-05 0.002518
-0.001134 2.6e-05 0.002505
-0.001103 3.9e-05 0.002485
-0.001065 6.2e-05 0.002444
-0.001026 8.9e-05 0.002396
-0.000986 0.000116 0.002346
-0.000948 0.00014 0.002305
-0.000917 0.000151 0.002289
-0.00089 0.000157 0.002283
-0.000864 0.000161 0.002282
-0.00084 0.000162 0.002286
-0.000816 0.000162 0.002293
-0.000793 0.000161 0.002302
-0.000771 0.000158 0.002316
-0.000751 0.000152 0.002334
-0.000733 0.000143 0.002362
-0.000716 5.4e-05 0.002565
-0.000707 3e-05 0.002622
-0.000691 1.6e-05 0.002657
-0.00067 1.2e-05 0.002672
-0.000647 1.2e-05 0.00268
-0.000553 1.1e-05 0.00271
-0.000528 1.2e-05 0.002715
-0.000505 1e-05 0.002724
-0.000482 1e-05 0.002731
-0.000459 1e-05 0.00274
-0.001575 0.000759 0.001882
-0.001506 0.000765 0.001911
-0.00134 1e-05 0.00242
-0.001316 1e-05 0.002425
-0.001486 0.000685 0.002612
-0.001513 0.000489 0.002609
-0.001222 1e-05 0.002453
-0.001198 1.1e-05 0.002459
-0.001175 1e-05 0.002467
-0.001151 1e-05 0.002474
-0.001127 1.2e-05 0.002478
-0.001098 1.5e-05 0.002472
-0.001025 6.3e-05 0.002392
-0.000985 9e-05 0.002345
-0.000947 0.000113 0.002304
-0.000917 0.000124 0.002288
-0.00089 0.00013 0.002283
-0.000864 0.000134 0.002282
-0.00084 0.000135 0.002286
-0.000816 0.000135 0.002293
-0.000793 0.000134 0.002302
-0.000771 0.000131 0.002316
-0.000751 0.000125 0.002335
-0.000733 0.000115 0.002362
-0.0007 1.3e-05 0.0026
-0.000678 1e-05 0.002613
-0.000655 1e-05 0.00262
-0.000631 1e-05 0.002626
-0.000512 1.2e-05 0.002658
-0.000488 1.2e-05 0.002665
-0.000465 1.2e-05 0.002672
-0.00044 1.3e-05 0.002677
-0.00029 -2.5e-05 0.002075
-0.001324 1e-05 0.002362
-0.0013 1.1e-05 0.002368
-0.001276 1e-05 0.002376
-0.000793 0.000762 0.002305
-0.002776 0.000483 0.001075
-0.001206 9e-06 0.0024
-0.001183 9e-06 0.002408
-0.00116 7e-06 0.002417
-0.001136 7e-06 0.002424
-0.001534 0.000615 0.002551
-0.001535 0.000561 0.002552
-0.002034 0.00055 0.002051
-0.000947 8.6e-05 0.002303
-0.000917 9.7e-05 0.002288
-0.00089 0.000103 0.002283
-0.000864 0.000107 0.002282
-0.000839 0.000108 0.002286
-0.000816 0.000108 0.002293
-0.000793 0.000107 0.002302
-0.000771 0.000104 0.002315
-0.000751 9.8e-05 0.002334
-0.000733 8.8e-05 0.002361
-0.000709 1e-05 0.002543
-0.000689 5e-06 0.002561
-0.000666 4e-06 0.002569
-0.000641 5e-06 0.002574
-0.000618 5e-06 0.002582
-0.000594 5e-06 0.002591
-0.000499 7e-06 0.002614
-0.000475 6e-06 0.002621
-0.000451 7e-06 0.002627
-0.000427 8e-06 0.002632
-0.000403 8e-06 0.002638
-0.001357 7e-06 0.0023
-0.001334 6e-06 0.002308
-0.00131 5e-06 0.002317
-0.001287 5e-06 0.002325
-0.001264 5e-06 0.002332
-0.00124 5e-06 0.002338
-0.001536 0.000714 0.002507
-0.001193 4e-06 0.002355
-0.001169 5e-06 0.002359
-0.001145 5e-06 0.002365
-0.001121 5e-06 0.002372
-0.001097 7e-06 0.002376
-0.001465 0.000685 0.002625
-0.002068 0.000538 0.002061
-0.000986 3.5e-05 0.002347
-0.000947 5.9e-05 0.002303
-0.000917 7e-05 0.002287
-0.00089 7.6e-05 0.002282
-0.000864 8e-05 0.002282
-0.000839 8.1e-05 0.002285
-0.000816 8.1e-05 0.002293
-0.000793 8e-05 0.002301
-0.000771 7.7e-05 0.002315
-0.000751 7.1e-05 0.002335
-0.000733 6.2e-05 0.00236
-0.000717 9e-06 0.002483
-0.000696 6e-06 0.002497
-0.0006 8e-06 0.002519
-0.000482 7e-06 0.002557
-0.000388 7e-06 0.002585
-0.000365 6e-06 0.002593
-0.000341 6e-06 0.0026
-0.001342 5e-06 0.002248
-0.001317 7e-06 0.002251
-0.001293 6e-06 0.002259
-0.001245 8e-06 0.002269
-0.001221 8e-06 0.002275
-0.001532 0.000699 0.002547
-0.00115 9e-06 0.002295
-0.001126 1e-05 0.0023
-0.001102 1e-05 0.002307
-0.001078 1e-05 0.002313
-0.001055 1e-05 0.002321
-0.001808 0.000692 0.001973
-0.001007 1e-05 0.002333
-0.000981 1.4e-05 0.002333
-0.000947 3.2e-05 0.002303
-0.000917 4.3e-05 0.002287
-0.000889 4.9e-05 0.002281
-0.000864 5.3e-05 0.002281
-0.000839 5.4e-05 0.002285
-0.000816 5.4e-05 0.002292
-0.000792 5.3e-05 0.002301
-0.000771 5e-05 0.002315
-0.000751 4.4e-05 0.002334
-0.000733 3.5e-05 0.002359
-0.000703 5e-06 0.002435
-0.000339 -2.6e-05 0.002064
-0.000534 1.2e-05 0.00247
-0.00051 1.3e-05 0.002475
-0.000485 1.1e-05 0.002484
-0.00037 9e-06 0.002524
-0.000346 1e-05 0.002529
-0.000322 1e-05 0.002536
-0.000363 -2.7e-05 0.002059
-0.001322 9e-06 0.002182
-0.001299 1e-05 0.002188
-0.001274 1.1e-05 0.002193
-0.001251 1.1e-05 0.002201
-0.001998 0.000617 0.002042
-0.00189 0.000657 0.002009
-0.001109 1.1e-05 0.002241
-0.001085 1.1e-05 0.002248
-0.001061 1.1e-05 0.002255
-0.001038 1.1e-05 0.002263
-0.001014 1.1e-05 0.002269
-0.00099 1.1e-05 0.002276
-0.000968 1e-05 0.002286
-0.000943 1.2e-05 0.002288
-0.000915 1.8e-05 0.002282
-0.000889 2.3e-05 0.00228
-0.000863 2.6e-05 0.00228
-0.000839 2.7e-05 0.002284
-0.000816 2.7e-05 0.002292
-0.000792 2.6e-05 0.0023
-0.00077 2.3e-05 0.002313
-0.000751 1.7e-05 0.002334
-0.000732 9e-06 0.002356
-0.000685 9e-06 0.002371
-0.00066 1e-05 0.002376
-0.000637 1e-05 0.002383
-0.000518 1e-05 0.002417
-0.000495 1.1e-05 0.002423
-0.000471 1e-05 0.00243
-0.000352 1.1e-05 0.002463
-0.000329 1.1e-05 0.002472
-0.000386 -2.7e-05 0.002053
-0.001434 0.000721 0.002623
-0.001258 1e-05 0.002138
-0.001235 1e-05 0.002147
-0.001211 1e-05 0.002154
-0.001386 0.000727 0.002638
-0.000817 0.00076 0.002296
-0.001628 0.000749 0.001873
-0.001498 0.00072 0.002586
-0.001071 7e-06 0.002201
-0.001048 6e-06 0.002209
-0.001025 6e-06 0.002217
-0.001853 0.000753 0.001996
-0.001536 0.000532 0.002416
-0.001478 0.000719 0.002599
-0.000931 5e-06 0.002248
-0.000908 4e-06 0.002256
-0.000884 4e-06 0.002263
-0.00086 4e-06 0.002269
-0.000837 4e-06 0.002276
-0.000813 4e-06 0.002283
-0.00141 0.000724 0.002631
-0.002022 0.00076 0.001382
-0.000744 1e-06 0.00231
-0.00072 1e-06 0.002317
-0.00041 -2.8e-05 0.002047
-0.000673 1e-06 0.002332
-0.000649 1e-06 0.002337
-0.000625 2e-06 0.002344
-0.000602 3e-06 0.00235
-0.001427 0.000546 0.002658
-0.001537 0.000731 0.002463
-0.001245 4e-06 0.002094
-0.001222 4e-06 0.002103
-0.001199 2e-06 0.002113
-0.001176 2e-06 0.002121
-0.001153 1e-06 0.002128
-0.001129 1e-06 0.002136
-0.001058 2e-06 0.002156
-0.001034 2e-06 0.002163
-0.00101 3e-06 0.002168
-0.000986 3e-06 0.002174
-0.001529 0.000466 0.002588
-0.000916 3e-06 0.002195
-0.000893 1e-06 0.002207
-0.000869 2e-06 0.002211
-0.000845 3e-06 0.002215
-0.000821 3e-06 0.002222
-0.000797 3e-06 0.002229
-0.001998 0.000562 0.002042
-0.000725 5e-06 0.002247
-0.000702 4e-06 0.002256
-0.000631 4e-06 0.002274
-0.000607 4e-06 0.002281
-0.000584 4e-06 0.002289
-0.000434 -2.8e-05 0.002041
-0.000458 -2.9e-05 0.002035
-0.000482 -2.9e-05 0.002029
-0.000506 -3e-05 0.002023
-0.001278 2e-06 0.00203
-0.001255 1e-06 0.002038
-0.001231 2e-06 0.002043
-0.001208 1e-06 0.002053
-0.001183 3e-06 0.002056
-0.00116 2e-06 0.002064
-0.001135 4e-06 0.002067
-0.001112 3e-06 0.002076
-0.001088 4e-06 0.002082
-0.001039 5e-06 0.002092
-0.001015 6e-06 0.002097
-0.000991 7e-06 0.002103
-0.000968 7e-06 0.002111
-0.000944 7e-06 0.002117
-0.000921 7e-06 0.002124
-0.001505 0.000687 0.002596
-0.000802 7e-06 0.002159
-0.000778 8e-06 0.002164
-0.001534 0.00067 0.002551
-0.001492 0.000543 0.002623
-0.001514 0.000724 0.002565
-0.000684 7e-06 0.002192
-0.000448 7e-06 0.002263
-0.000424 6e-06 0.00227
-0.000401 7e-06 0.002277
-0.000377 6e-06 0.002284
-0.000353 7e-06 0.002291
-0.000307 5e-06 0.002308
-0.000283 6e-06 0.002312
-0.000236 5e-06 0.002329
-0.000213 5e-06 0.002337
-0.00053 -3e-05 0.002016
-0.00126 5e-06 0.001967
-0.001235 7e-06 0.00197
-0.001211 7e-06 0.001977
-0.001139 1e-05 0.001992
-0.001116 9e-06 0.002001
-0.001522 0.00069 0.002577
-0.001021 9e-06 0.002028
-0.000997 1e-05 0.002033
-0.000973 1e-05 0.00204
-0.001525 0.000732 0.002536
-0.000902 1e-05 0.002061
-0.000878 1.1e-05 0.002067
-0.001809 0.000637 0.001974
-0.001535 0.000587 0.002415
-0.001533 0.000607 0.002366
-0.001492 0.000598 0.002622
-0.001537 0.000686 0.002509
-0.001527 0.000685 0.00231
-0.001528 0.000575 0.002312
-0.000596 9e-06 0.002154
-0.000572 9e-06 0.002161
-0.000406 1e-05 0.002208
-0.000383 9e-06 0.002216
-0.000359 9e-06 0.002223
-0.000335 9e-06 0.002229
-0.000288 1e-05 0.002243
-0.000265 9e-06 0.002251
-0.00024 1.1e-05 0.002254
-0.000217 9e-06 0.002264
-0.000194 9e-06 0.002272
-0.000553 -2.9e-05 0.002009
-0.000147 8e-06 0.002287
-0.001241 9e-06 0.001903
-0.001217 9e-06 0.00191
-0.001194 9e-06 0.001917
-0.001169 1.1e-05 0.00192
-0.001146 1e-05 0.001928
-0.001123 9e-06 0.001938
-0.001528 0.000602 0.002311
-0.001671 0.00073 0.001895
-0.001537 0.00055 0.002509
-0.001537 0.000568 0.002463
-0.000982 7e-06 0.001984
-0.000959 7e-06 0.001991
-0.001449 0.000464 0.002646
-0.001533 0.000552 0.002367
-0.002203 0.000657 0.001246
-0.001534 0.000507 0.002551
-0.001529 0.000493 0.002589
-0.001853 0.000617 0.001997
-0.001962 0.000684 0.002034
-0.001401 0.000659 0.002662
-0.00149 0.000655 0.002618
-0.001509 0.000656 0.002603
-0.001515 0.000713 0.002246
-0.001529 0.000521 0.002588
-0.001853 0.000671 0.001997
-0.000582 4e-06 0.002108
-0.000559 4e-06 0.002115
-0.000534 5e-06 0.00212
-0.000511 4e-06 0.002127
-0.000392 5e-06 0.002161
-0.000368 6e-06 0.002167
-0.000345 6e-06 0.002173
-0.000249 7e-06 0.002198
-0.000225 8e-06 0.002203
-0.000202 8e-06 0.002211
-0.000178 8e-06 0.002217
-0.00013 9e-06 0.002229
-0.000106 9e-06 0.002236
-0.001513 0.000544 0.002609
-0.001202 7e-06 0.001858
-0.001179 7e-06 0.001866
-0.001156 6e-06 0.001875
-0.001132 6e-06 0.001883
-0.001109 5e-06 0.001891
-0.001535 0.000534 0.002551
-0.0016 0.000755 0.001875
-0.001678 0.000751 0.001905
-0.001455 0.000761 0.002025
-0.001471 0.000626 0.002634
-0.000969 1e-06 0.00194
-0.000946 0.0 0.001948
-0.001421 0.000688 0.002647
-0.002033 0.00074 0.002051
-0.000876 -1e-06 0.001973
-0.000853 -2e-06 0.001981
-0.00083 -2e-06 0.001989
-0.000807 -3e-06 0.001997
-0.000783 -3e-06 0.002005
-0.00076 -4e-06 0.002013
-0.000736 -4e-06 0.00202
-0.000713 -4e-06 0.002027
-0.000689 -4e-06 0.002035
-0.000666 -5e-06 0.002042
-0.000642 -5e-06 0.002049
-0.000618 -5e-06 0.002056
-0.000595 -5e-06 0.002063
-0.000571 -5e-06 0.00207
-0.000547 -5e-06 0.002077
-0.000524 -5e-06 0.002083
-0.0005 -4e-06 0.00209
-0.000476 -4e-06 0.002096
-0.000452 -4e-06 0.002102
-0.000428 -4e-06 0.002109
-0.000405 -3e-06 0.002115
-0.000381 -3e-06 0.002121
-0.000357 -2e-06 0.002127
-0.000333 -2e-06 0.002133
-0.000309 -1e-06 0.002139
-0.000237 1e-06 0.002155
-0.000213 1e-06 0.002161
-0.000117 4e-06 0.002184
-9.3e-05 4e-06 0.00219
-0.001506 0.000737 0.001912
-0.002034 0.000658 0.002054
-0.001533 0.000716 0.002365
-0.001535 0.000696 0.002415
-0.001536 0.000677 0.002463
-0.001449 0.000627 0.002646
-0.002034 0.000604 0.002052
-0.002068 0.000592 0.002063
-0.0024 0.000738 0.001286
-0.00189 0.000738 0.002009
-0.001491 0.000626 0.002621
-0.002101 0.000521 0.002072
-0.001443 0.000686 0.002637
-0.00218 0.00072 0.002043
-0.002069 0.000728 0.00206
-0.000867 -1.2e-05 0.001939
-0.000843 -1.3e-05 0.001948
-0.00082 -1.4e-05 0.001956
-0.000797 -1.4e-05 0.001964
-0.000773 -1.5e-05 0.001972
-0.00075 -1.5e-05 0.001979
-0.000727 -1.5e-05 0.001987
-0.000703 -1.6e-05 0.001995
-0.00068 -1.6e-05 0.002003
-0.000656 -1.6e-05 0.00201
-0.000633 -1.6e-05 0.002017
-0.000609 -1.7e-05 0.002025
-0.000585 -1.6e-05 0.002031
-0.000562 -1.6e-05 0.002038
-0.000538 -1.6e-05 0.002044
-0.000514 -1.6e-05 0.00205
-0.00049 -1.6e-05 0.002057
-0.000467 -1.6e-05 0.002064
-0.000443 -1.6e-05 0.002071
-0.000419 -1.5e-05 0.002077
-0.000395 -1.5e-05 0.002082
-0.000371 -1.4e-05 0.002088
-0.000347 -1.3e-05 0.002094
-0.000323 -1.3e-05 0.0021
-0.000299 -1.2e-05 0.002105
-0.001488 0.000735 0.001929
-0.001762 0.000686 0.001947
-0.00189 0.00063 0.002009
-0.002068 0.000565 0.002061
-0.001471 0.000517 0.002635
-0.001492 0.000516 0.002622
-0.001528 0.000629 0.002312
-0.002714 0.000687 0.000995
-0.001963 0.000629 0.002033
-0.001449 0.000545 0.002646
-0.001471 0.000544 0.002635
-0.001529 0.000548 0.002588
-0.001534 0.000479 0.002551
-0.001471 0.000463 0.002634
-0.001513 0.000462 0.002609
-0.000858 -2.5e-05 0.001909
-0.000835 -2.6e-05 0.001919
-0.000812 -2.7e-05 0.001927
-0.000788 -2.7e-05 0.001935
-0.000765 -2.8e-05 0.001942
-0.000742 -2.8e-05 0.001951
-0.000718 -2.9e-05 0.001959
-0.000695 -2.9e-05 0.001967
-0.000671 -2.9e-05 0.001973
-0.000648 -2.9e-05 0.001981
-0.000624 -2.9e-05 0.001988
-0.0006 -2.9e-05 0.001995
-0.000577 -2.9e-05 0.002002
-0.002068 0.000511 0.002061
-0.002034 0.000523 0.002052
-0.001998 0.000535 0.002042
-0.001963 0.000548 0.002032
-0.001926 0.000562 0.002021
-0.00189 0.000576 0.002009
-0.001852 0.00059 0.001996
-0.001809 0.00061 0.001974
-0.001762 0.000632 0.001946
-0.001665 0.00068 0.001886
-0.001626 0.000696 0.001871
-0.001596 0.000704 0.001871
-0.00157 0.000709 0.001875
-0.001547 0.000711 0.001884
-0.001526 0.000711 0.001896
-0.001506 0.00071 0.001911
-0.001488 0.000708 0.001929
-0.001472 0.000703 0.001951
-0.002242 0.000685 0.001999
-0.002257 0.000508 0.001849
-0.001514 0.000577 0.002245
-0.001527 0.000548 0.002311
-0.001534 0.000525 0.002367
-0.001536 0.000505 0.002416
-0.001537 0.000486 0.002463
-0.001537 0.000468 0.002509
-0.001535 0.000452 0.002552
-0.001529 0.000439 0.002589
-0.001513 0.000435 0.002609
-0.001492 0.000435 0.002622
-0.00147 0.000436 0.002634
-0.001449 0.000436 0.002646
-0.001427 0.000437 0.002658
-0.001405 0.000438 0.002669
-0.000815 0.000734 0.002294
-0.000792 0.000736 0.002304
-0.000771 0.000737 0.002316
-0.002233 0.000718 0.001991
-0.002068 0.000484 0.002062
-0.002033 0.000496 0.002052
-0.001998 0.000508 0.002042
-0.001963 0.000521 0.002033
-0.001926 0.000535 0.002021
-0.00189 0.000548 0.002009
-0.001852 0.000563 0.001996
-0.001809 0.000582 0.001975
-0.001762 0.000605 0.001945
-0.001665 0.000653 0.001886
-0.001626 0.000669 0.001871
-0.001596 0.000677 0.00187
-0.00157 0.000682 0.001875
-0.001547 0.000684 0.001883
-0.001525 0.000684 0.001896
-0.001506 0.000683 0.001911
-0.001487 0.000681 0.001929
-0.001472 0.000676 0.00195
-0.002239 0.000665 0.0018
-0.002221 0.000523 0.001751
-0.001514 0.000551 0.002244
-0.001526 0.000522 0.002309
-0.001534 0.000497 0.002367
-0.001536 0.000478 0.002416
-0.001537 0.000459 0.002463
-0.001537 0.000441 0.002509
-0.001535 0.000425 0.002552
-0.001529 0.000412 0.002589
-0.001513 0.000408 0.002609
-0.001492 0.000408 0.002622
-0.00147 0.000409 0.002634
-0.001449 0.000409 0.002646
-0.001427 0.00041 0.002658
-0.001405 0.000411 0.002669
-0.000815 0.000707 0.002294
-0.000792 0.000709 0.002303
-0.002789 0.000634 0.001108
-0.002251 0.00057 0.002007
-0.002033 0.000468 0.002053
-0.001998 0.000481 0.002043
-0.001962 0.000494 0.002031
-0.001926 0.000507 0.002021
-0.00189 0.000521 0.002009
-0.001852 0.000535 0.001996
-0.001808 0.000556 0.001973
-0.001762 0.000578 0.001946
-0.001715 0.000601 0.001918
-0.001664 0.000626 0.001885
-0.001626 0.000641 0.001871
-0.001596 0.00065 0.00187
-0.00157 0.000655 0.001874
-0.001547 0.000657 0.001883
-0.001525 0.000657 0.001896
-0.001506 0.000656 0.001911
-0.001487 0.000653 0.001928
-0.002196 0.000739 0.001697
-0.002282 0.000581 0.001936
-0.002257 0.00048 0.001849
-0.001515 0.000522 0.002246
-0.001526 0.000495 0.002309
-0.001534 0.00047 0.002368
-0.001536 0.00045 0.002416
-0.001537 0.000432 0.002464
-0.001537 0.000414 0.002509
-0.001535 0.000397 0.002552
-0.001529 0.000385 0.002589
-0.001513 0.00038 0.002609
-0.001492 0.000381 0.002622
-0.001471 0.000381 0.002635
-0.001449 0.000382 0.002646
-0.001427 0.000383 0.002658
-0.001405 0.000384 0.002669
-0.001456 0.000723 0.002065
-0.002257 0.00059 0.001848
-0.002033 0.000441 0.002053
-0.001998 0.000454 0.002042
-0.001962 0.000467 0.002031
-0.001926 0.000481 0.00202
-0.001889 0.000494 0.002009
-0.001853 0.000508 0.001997
-0.001808 0.000529 0.001973
-0.001762 0.000551 0.001946
-0.001715 0.000574 0.001918
-0.001664 0.000599 0.001885
-0.001626 0.000614 0.001871
-0.001596 0.000623 0.001869
-0.001569 0.000628 0.001874
-0.001546 0.00063 0.001883
-0.001525 0.00063 0.001896
-0.001506 0.000629 0.001911
-0.00219 0.000687 0.002051
-0.002051 0.000678 0.002059
-0.002357 0.000728 0.001281
-0.002532 0.000626 0.001288
-0.001535 0.000442 0.002369
-0.001536 0.000423 0.002416
-0.001537 0.000405 0.002463
-0.001537 0.000386 0.00251
-0.001534 0.000371 0.002552
-0.001529 0.000357 0.002588
-0.001513 0.000353 0.00261
-0.001492 0.000353 0.002623
-0.001471 0.000354 0.002635
-0.001449 0.000355 0.002647
-0.001427 0.000356 0.002658
-0.001405 0.000357 0.002669
-0.00225 0.000516 0.002006
-0.002148 0.000584 0.002081
-0.002033 0.000414 0.002052
-0.001998 0.000427 0.002041
-0.001962 0.00044 0.00203
-0.001926 0.000453 0.00202
-0.001889 0.000467 0.002009
-0.001852 0.000481 0.001996
-0.001808 0.000501 0.001973
-0.001762 0.000523 0.001946
-0.001714 0.000547 0.001916
-0.001665 0.000572 0.001886
-0.001626 0.000587 0.001871
-0.001596 0.000596 0.001869
-0.001569 0.000601 0.001873
-0.001546 0.000603 0.001883
-0.001525 0.000603 0.001895
-0.001506 0.000602 0.001911
-0.002247 0.000654 0.002004
-0.002218 0.000598 0.002043
-0.002234 0.000544 0.002025
-0.002436 0.00059 0.001287
-0.001534 0.000415 0.002368
-0.001536 0.000396 0.002417
-0.001537 0.000377 0.002463
-0.001537 0.000359 0.00251
-0.001534 0.000344 0.002551
-0.001529 0.00033 0.002589
-0.001513 0.000326 0.002609
-0.001492 0.000326 0.002623
-0.00147 0.000327 0.002634
-0.001449 0.000327 0.002647
-0.001427 0.000328 0.002659
-0.001405 0.00033 0.002669
-0.00138 0.000334 0.002672
-0.00145 0.000737 0.002026
-0.002051 0.000624 0.002059
-0.002033 0.000387 0.002052
-0.001998 0.0004 0.002041
-0.001962 0.000413 0.002031
-0.001925 0.000427 0.002019
-0.001889 0.00044 0.002008
-0.001852 0.000454 0.001996
-0.001808 0.000474 0.001973
-0.001762 0.000496 0.001946
-0.001713 0.00052 0.001916
-0.001665 0.000545 0.001885
-0.001626 0.00056 0.001871
-0.001596 0.000568 0.001869
-0.001569 0.000573 0.001874
-0.001546 0.000575 0.001883
-0.001525 0.000576 0.001895
-0.001505 0.000574 0.001911
-0.002279 0.000664 0.001934
-0.002052 0.000651 0.00206
-0.002192 0.000635 0.0017
-0.002218 0.000489 0.002043
0.000939 -1.2e-05 0.001907
-0.001533 0.000389 0.002367
-0.001536 0.000369 0.002417
-0.001537 0.00035 0.002464
-0.001537 0.000332 0.00251
-0.001535 0.000316 0.002552
-0.001529 0.000303 0.002589
-0.001513 0.000299 0.002609
-0.001492 0.000299 0.002623
-0.001471 0.0003 0.002635
-0.001449 0.0003 0.002647
-0.001427 0.000301 0.002658
-0.001405 0.000303 0.002669
-0.00138 0.000307 0.002672
-0.002267 0.000489 0.001988
-0.002181 0.000574 0.002076
-0.002033 0.00036 0.002052
-0.001998 0.000373 0.002041
-0.001962 0.000386 0.002031
-0.001926 0.000399 0.00202
-0.001889 0.000413 0.002009
-0.001852 0.000427 0.001996
-0.001761 0.00047 0.001945
-0.001713 0.000494 0.001915
-0.001665 0.000517 0.001885
-0.001626 0.000533 0.001871
-0.001596 0.000541 0.001869
-0.001569 0.000546 0.001874
-0.001546 0.000548 0.001883
-0.001525 0.000548 0.001896
-0.001505 0.000547 0.001911
-0.002214 0.000654 0.00204
-0.001997 0.000675 0.002045
-0.002311 0.000746 0.001274
-0.00228 0.000518 0.001967
0.000916 -1.3e-05 0.001915
0.000893 -1.3e-05 0.001924
-0.001534 0.000361 0.002367
-0.001536 0.000341 0.002417
-0.001537 0.000322 0.002465
-0.001537 0.000305 0.00251
-0.001535 0.000288 0.002553
-0.001529 0.000276 0.002589
-0.001513 0.000272 0.002609
-0.001492 0.000272 0.002622
-0.001471 0.000272 0.002635
-0.001449 0.000273 0.002647
-0.001427 0.000274 0.002659
-0.001405 0.000275 0.002669
-0.001379 0.00028 0.002672
-0.00145 0.00071 0.002027
-0.002266 0.000544 0.001988
-0.002032 0.000333 0.002053
-0.001997 0.000346 0.002041
-0.001962 0.000359 0.002031
-0.001926 0.000372 0.002021
-0.001889 0.000385 0.002009
-0.001853 0.000399 0.001997
-0.001808 0.00042 0.001973
-0.001762 0.000442 0.001947
-0.001713 0.000466 0.001915
-0.001665 0.00049 0.001885
-0.001626 0.000506 0.001871
-0.001596 0.000514 0.001869
-0.001569 0.000519 0.001874
-0.001546 0.000521 0.001883
-0.001525 0.000521 0.001896
-0.001506 0.00052 0.001911
-0.002274 0.000658 0.001961
-0.002472 0.000714 0.001284
-0.002282 0.000554 0.001936
-0.002162 0.000754 0.001242
-0.001528 0.000357 0.002313
-0.001533 0.000334 0.002367
-0.001536 0.000314 0.002417
-0.001537 0.000295 0.002465
-0.001537 0.000277 0.00251
-0.001535 0.000261 0.002552
-0.001529 0.000249 0.002589
-0.001513 0.000245 0.002609
-0.001492 0.000245 0.002623
-0.001471 0.000245 0.002635
-0.001449 0.000246 0.002647
-0.001427 0.000247 0.002658
-0.001405 0.000248 0.002669
-0.001379 0.000253 0.002672
-0.002148 0.000448 0.002081
-0.002181 0.000546 0.002077
-0.002032 0.000306 0.002053
-0.001997 0.000319 0.002042
-0.001961 0.000332 0.002031
-0.001925 0.000345 0.00202
-0.001889 0.000358 0.002009
-0.001852 0.000373 0.001996
-0.001809 0.000392 0.001974
-0.001762 0.000415 0.001946
-0.001713 0.000439 0.001915
-0.001665 0.000463 0.001886
-0.001626 0.000479 0.001871
-0.001596 0.000487 0.001869
-0.00157 0.000492 0.001874
-0.001546 0.000494 0.001883
-0.001525 0.000494 0.001896
-0.001505 0.000493 0.001911
-0.002257 0.000698 0.001849
-0.002148 0.000611 0.00208
-0.002272 0.00057 0.001894
-0.002257 0.000535 0.001849
-0.001497 0.000392 0.002173
-0.001516 0.000358 0.002248
-0.001527 0.000331 0.002311
-0.001534 0.000307 0.002367
-0.001537 0.000287 0.002418
-0.001537 0.000268 0.002465
-0.001537 0.000251 0.002509
-0.001535 0.000234 0.002553
-0.001529 0.000222 0.002588
-0.001512 0.000218 0.002609
-0.001492 0.000218 0.002622
-0.001471 0.000218 0.002635
-0.001449 0.000219 0.002647
-0.001427 0.00022 0.002658
-0.001405 0.000221 0.002669
-0.001379 0.000226 0.002671
-0.00227 0.000462 0.001893
-0.002436 0.000699 0.001286
-0.002033 0.000278 0.002052
-0.001997 0.000292 0.002041
-0.001962 0.000304 0.002031
-0.001925 0.000318 0.00202
-0.001889 0.000331 0.002009
-0.001852 0.000346 0.001996
-0.001761 0.000389 0.001945
-0.001713 0.000412 0.001916
-0.001664 0.000436 0.001885
-0.001626 0.000452 0.00187
-0.001596 0.00046 0.001869
-0.001569 0.000465 0.001874
-0.001546 0.000467 0.001883
-0.001525 0.000467 0.001896
-0.001505 0.000466 0.001911
-0.002232 0.000654 0.002023
-0.0022 0.000599 0.00206
-0.00224 0.00061 0.001801
-0.002239 0.000502 0.0018
-0.001518 0.000329 0.002251
-0.001528 0.000303 0.002312
-0.001534 0.00028 0.002367
-0.001537 0.000259 0.002418
-0.001537 0.000241 0.002464
-0.001537 0.000223 0.00251
-0.001535 0.000207 0.002552
-0.001528 0.000195 0.002588
-0.001512 0.000191 0.002608
-0.001492 0.000191 0.002622
-0.001471 0.000191 0.002635
-0.001449 0.000192 0.002647
-0.001427 0.000193 0.002658
-0.001404 0.000194 0.002668
-0.001378 0.000199 0.002671
-0.002771 0.000492 0.001181
-0.0022 0.000571 0.002061
-0.002033 0.000251 0.002053
-0.001997 0.000265 0.00204
-0.001962 0.000277 0.002031
-0.001926 0.00029 0.00202
-0.001889 0.000304 0.002008
-0.001852 0.000319 0.001996
-0.001808 0.000338 0.001973
-0.001761 0.000361 0.001944
-0.001713 0.000385 0.001916
-0.001665 0.000408 0.001887
-0.001626 0.000425 0.00187
-0.001596 0.000432 0.001869
-0.001569 0.000437 0.001874
-0.001546 0.000439 0.001883
-0.001525 0.00044 0.001896
-0.001505 0.000439 0.001911
-0.002196 0.000656 0.002057
-0.00246 0.000735 0.000467
-0.002217 0.000544 0.002043
-0.001472 0.000703 0.002111
-0.001517 0.000303 0.002249
-0.001528 0.000276 0.002313
-0.001534 0.000252 0.002368
-0.001536 0.000233 0.002417
-0.001537 0.000214 0.002464
-0.001537 0.000196 0.002509
-0.001535 0.00018 0.002552
-0.001527 0.000168 0.002587
-0.001511 0.000165 0.002606
-0.001491 0.000164 0.002621
-0.00147 0.000164 0.002634
-0.001449 0.000165 0.002646
-0.001426 0.000166 0.002657
-0.001403 0.000168 0.002667
-0.001377 0.000173 0.002669
-0.002307 0.000613 0.00127
-0.002437 0.000725 0.001286
-0.002032 0.000224 0.002052
-0.001997 0.000237 0.00204
-0.001962 0.00025 0.002031
-0.001926 0.000263 0.00202
-0.001889 0.000277 0.002008
-0.001851 0.000292 0.001995
-0.001808 0.000312 0.001972
-0.001761 0.000334 0.001945
-0.001713 0.000357 0.001916
-0.001665 0.000382 0.001886
-0.001626 0.000397 0.00187
-0.001596 0.000405 0.001869
-0.001569 0.00041 0.001874
-0.001546 0.000412 0.001883
-0.001525 0.000413 0.001896
-0.001505 0.000411 0.001911
-0.002265 0.000626 0.001986
-0.002359 0.000754 0.001283
-0.00228 0.000545 0.001967
-0.002101 0.000467 0.002072
-0.001517 0.000276 0.00225
-0.001529 0.000248 0.002313
-0.001534 0.000225 0.002368
-0.001536 0.000205 0.002417
-0.001537 0.000186 0.002465
-0.001537 0.000169 0.002509
-0.001535 0.000153 0.002552
-0.001526 0.000143 0.002584
-0.001509 0.00014 0.002603
-0.001489 0.000138 0.002618
-0.001468 0.000138 0.002631
-0.001447 0.000139 0.002644
-0.001425 0.00014 0.002654
-0.001401 0.000143 0.002664
-0.001376 0.000147 0.002667
-0.002282 0.000499 0.001936
-0.002234 0.000598 0.002025
-0.002032 0.000197 0.002052
-0.001997 0.00021 0.00204
-0.001962 0.000222 0.002032
-0.001925 0.000236 0.00202
-0.001888 0.00025 0.002014
-0.001851 0.000265 0.001995
-0.001808 0.000284 0.001973
-0.001761 0.000307 0.001945
-0.001713 0.000331 0.001915
-0.001664 0.000355 0.001885
-0.001626 0.00037 0.001871
-0.001596 0.000378 0.001869
-0.00157 0.000383 0.001874
-0.001546 0.000385 0.001883
-0.001525 0.000385 0.001896
-0.001505 0.000384 0.001911
-0.00225 0.000625 0.002006
-0.002533 0.000544 0.001288
-0.0022 0.000544 0.002061
-0.002267 0.000516 0.001988
-0.001516 0.000249 0.002249
-0.001528 0.000221 0.002313
-0.001534 0.000198 0.002368
-0.001536 0.000179 0.002417
-0.001538 0.000159 0.002465
-0.001537 0.000142 0.00251
-0.001534 0.000126 0.002551
-0.001523 0.000118 0.00258
-0.001505 0.000115 0.002598
-0.001486 0.000114 0.002613
-0.001465 0.000114 0.002627
-0.001444 0.000114 0.002639
-0.001422 0.000116 0.00265
-0.001398 0.000118 0.002659
-0.001373 0.000122 0.002663
-0.00228 0.000491 0.001967
-0.002067 0.000158 0.002061
-0.002033 0.00017 0.002051
-0.001996 0.000184 0.00204
-0.001962 0.000195 0.002032
-0.001926 0.000209 0.002022
-0.002197 0.000602 0.001698
-0.001807 0.000258 0.001971
-0.001761 0.00028 0.001945
-0.001712 0.000304 0.001914
-0.001664 0.000328 0.001884
-0.001626 0.000343 0.00187
-0.001596 0.000351 0.00187
-0.00157 0.000356 0.001874
-0.001546 0.000358 0.001883
-0.001525 0.000358 0.001896
-0.001505 0.000357 0.001911
-0.002178 0.00063 0.002074
-0.002218 0.000571 0.002043
-0.002307 0.000722 0.00127
-0.00274 0.000464 0.001248
-0.001518 0.00022 0.002252
-0.001529 0.000193 0.002314
-0.001534 0.000171 0.002368
-0.001536 0.000152 0.002416
-0.001537 0.000132 0.002465
-0.001537 0.000114 0.00251
-0.001533 0.0001 0.002549
-0.001519 9.4e-05 0.002574
-0.001501 9.2e-05 0.002591
-0.001481 9.1e-05 0.002606
-0.001461 9.1e-05 0.00262
-0.001439 9.1e-05 0.002632
-0.001417 9.3e-05 0.002642
-0.001394 9.5e-05 0.002652
-0.001369 9.9e-05 0.002658
-0.002026 0.000746 0.001352
-0.002068 0.000131 0.002059
-0.002033 0.000143 0.002051
-0.001996 0.000156 0.002039
-0.001962 0.000168 0.002031
-0.001926 0.000181 0.002021
-0.001889 0.000196 0.002008
-0.001805 0.000232 0.001968
-0.00176 0.000253 0.001944
-0.001711 0.000278 0.001913
-0.001663 0.000301 0.001884
-0.001626 0.000316 0.00187
-0.001596 0.000324 0.001869
-0.00157 0.000328 0.001874
-0.001546 0.000331 0.001883
-0.001525 0.000331 0.001896
-0.002209 0.000685 0.002036
-0.002271 0.000598 0.001894
-0.002355 0.000701 0.00128
-0.002181 0.000519 0.002077
-0.00272 0.000469 0.001266
-0.001517 0.000194 0.002249
-0.001529 0.000166 0.002315
-0.001533 0.000144 0.002367
-0.001535 0.000125 0.002415
-0.001538 0.000105 0.002465
-0.001536 8.8e-05 0.002509
-0.001529 7.6e-05 0.002543
-0.001514 7.2e-05 0.002565
-0.001495 7e-05 0.002581
-0.001475 6.9e-05 0.002596
-0.001454 6.9e-05 0.002609
-0.001433 7e-05 0.002622
-0.001411 7.1e-05 0.002633
-0.001387 7.3e-05 0.002642
-0.001363 7.6e-05 0.002649
-0.001334 8.4e-05 0.002646
-0.002258 0.000742 0.001261
-0.002067 0.000104 0.002058
-0.002033 0.000116 0.002051
-0.001997 0.000129 0.00204
-0.001962 0.000141 0.002031
-0.001926 0.000154 0.002021
-0.001889 0.000168 0.002009
-0.001852 0.000183 0.001996
-0.001807 0.000203 0.001972
-0.00176 0.000226 0.001944
-0.001711 0.000251 0.001912
-0.001663 0.000274 0.001884
-0.001625 0.000289 0.00187
-0.001596 0.000297 0.001869
-0.00157 0.000301 0.001874
-0.001546 0.000304 0.001883
-0.001525 0.000304 0.001896
-0.002101 0.000712 0.002072
-0.002257 0.000616 0.001849
-0.0024 0.000684 0.001286
-0.002148 0.000529 0.002081
-0.001516 0.000168 0.002248
-0.00153 0.000138 0.002315
-0.001534 0.000117 0.002368
-0.001535 9.8e-05 0.002415
-0.001537 7.8e-05 0.002465
-0.001534 6.3e-05 0.002505
-0.001523 5.5e-05 0.002533
-0.001506 5.1e-05 0.002553
-0.001487 4.9e-05 0.002569
-0.001467 4.9e-05 0.002583
-0.001446 4.9e-05 0.002597
-0.001425 5e-05 0.002609
-0.001403 5.1e-05 0.00262
-0.00138 5.3e-05 0.00263
-0.001356 5.6e-05 0.002638
-0.001328 6.2e-05 0.002638
-0.001458 0.000694 0.002067
-0.002067 7.6e-05 0.002059
-0.002033 8.8e-05 0.002051
-0.001997 0.000101 0.00204
-0.001962 0.000114 0.002032
-0.001926 0.000127 0.00202
-0.001889 0.000141 0.002009
-0.001852 0.000155 0.001996
-0.001808 0.000176 0.001973
-0.00176 0.000199 0.001944
-0.001711 0.000223 0.001913
-0.001663 0.000247 0.001883
-0.001625 0.000262 0.00187
-0.001596 0.000269 0.001869
-0.001569 0.000274 0.001874
-0.001546 0.000276 0.001883
-0.001525 0.000277 0.001896
-0.002222 0.00074 0.001752
-0.00224 0.000637 0.001801
-0.002437 0.000671 0.001287
-0.002201 0.00049 0.002061
-0.001518 0.000139 0.002252
-0.001528 0.000112 0.002313
-0.001535 7e-05 0.002415
-0.001536 5.2e-05 0.002462
-0.001528 4.1e-05 0.002495
-0.001513 3.5e-05 0.002519
-0.001496 3.3e-05 0.002537
-0.001476 3.1e-05 0.002553
-0.001456 3.1e-05 0.002567
-0.001436 3.1e-05 0.00258
-0.001414 3.2e-05 0.002592
-0.001392 3.2e-05 0.002604
-0.00137 3.4e-05 0.002614
-0.001346 3.7e-05 0.002622
-0.001319 4.3e-05 0.002625
-0.002281 0.000446 0.001936
-0.002065 5.1e-05 0.002056
-0.002032 6.2e-05 0.00205
-0.001997 7.4e-05 0.002041
-0.001962 8.7e-05 0.002031
-0.001926 0.0001 0.002021
-0.001889 0.000114 0.002009
-0.001852 0.000128 0.001996
-0.001807 0.000149 0.001972
-0.00176 0.000172 0.001944
-0.001711 0.000196 0.001913
-0.001662 0.00022 0.001882
-0.001625 0.000235 0.00187
-0.001595 0.000242 0.001869
-0.001569 0.000247 0.001874
-0.001546 0.000249 0.001883
-0.001525 0.00025 0.001896
-0.00214 0.000697 0.002074
-0.002839 0.000588 0.000384
-0.002098 0.000705 0.001548
-0.002217 0.000757 0.001257
-0.001529 8.4e-05 0.002315
-0.001532 6.4e-05 0.002366
-0.001533 4.5e-05 0.002412
-0.001528 3.1e-05 0.002451
-0.001516 2.4e-05 0.002477
-0.001499 2e-05 0.002497
-0.001481 1.8e-05 0.002514
-0.001461 1.7e-05 0.002529
-0.00144 1.7e-05 0.002542
-0.00142 1.7e-05 0.002556
-0.001399 1.7e-05 0.002569
-0.001377 1.8e-05 0.002581
-0.001355 1.9e-05 0.002592
-0.001332 2.2e-05 0.002601
-0.001307 2.6e-05 0.002607
-0.002239 0.000529 0.0018
-0.002058 3e-05 0.002045
-0.002029 3.7e-05 0.002045
-0.001996 4.8e-05 0.002039
-0.001961 6e-05 0.00203
-0.001925 7.3e-05 0.002019
-0.001889 8.6e-05 0.002009
-0.001852 0.0001 0.001997
-0.001807 0.000122 0.001972
-0.001759 0.000145 0.001942
-0.001711 0.000169 0.001912
-0.001662 0.000193 0.001882
-0.001625 0.000208 0.00187
-0.001595 0.000215 0.001869
-0.001569 0.00022 0.001874
-0.001546 0.000222 0.001883
-0.001525 0.000222 0.001896
-0.001505 0.000221 0.001911
-0.002198 0.000627 0.002059
-0.002279 0.000573 0.001966
-0.002101 0.000576 0.002072
-0.002022 0.000733 0.001382
-0.001528 5.8e-05 0.002313
-0.001531 3.8e-05 0.002363
-0.001526 2.4e-05 0.002401
-0.001513 1.7e-05 0.002427
-0.001494 1.5e-05 0.002443
-0.001474 1.5e-05 0.002458
-0.001454 1.4e-05 0.002472
-0.001434 1.4e-05 0.002486
-0.001413 1.4e-05 0.002499
-0.001392 1.4e-05 0.002512
-0.001371 1.4e-05 0.002525
-0.001351 1.4e-05 0.00254
-0.00133 1.4e-05 0.002552
-0.001309 1.4e-05 0.002566
-0.001287 1.6e-05 0.002576
-0.001262 2e-05 0.002582
-0.002239 0.000584 0.0018
-0.00222 0.000686 0.001751
-0.002018 1.9e-05 0.002028
-0.001991 2.5e-05 0.002031
-0.001959 3.5e-05 0.002027
-0.001925 4.7e-05 0.002019
-0.001889 5.9e-05 0.002009
-0.001852 7.3e-05 0.001997
-0.001808 9.4e-05 0.001973
-0.001711 0.000142 0.001913
-0.001662 0.000167 0.001881
-0.001625 0.000181 0.001869
-0.001595 0.000188 0.001869
-0.001569 0.000193 0.001874
-0.001546 0.000195 0.001883
-0.001525 0.000195 0.001896
-0.001505 0.000194 0.001911
-0.002102 0.000684 0.002073
-0.002101 0.00063 0.002072
-0.00225 0.000544 0.002006
-0.002133 0.000762 0.001249
-0.000883 -2.4e-05 0.001897
-0.001525 3.4e-05 0.002308
-0.001521 1.9e-05 0.002348
-0.001509 1.2e-05 0.002374
-0.00149 9e-06 0.002392
-0.001469 1e-05 0.002404
-0.001448 1e-05 0.002417
-0.001428 1e-05 0.00243
-0.001407 1e-05 0.002443
-0.001386 1e-05 0.002457
-0.001365 1.1e-05 0.002469
-0.001344 1.1e-05 0.002483
-0.001323 1.1e-05 0.002495
-0.001302 1.1e-05 0.002508
-0.001281 1.1e-05 0.002521
-0.00126 1.1e-05 0.002534
-0.002719 0.000524 0.001266
-0.002251 0.000598 0.002007
-0.001997 1.1e-05 0.001995
-0.001975 1.2e-05 0.002007
-0.001949 1.6e-05 0.002012
-0.00192 2.3e-05 0.002012
-0.001888 3.3e-05 0.002007
-0.001852 4.6e-05 0.001996
-0.001807 6.8e-05 0.001971
-0.00176 9e-05 0.001944
-0.00171 0.000116 0.001911
-0.001661 0.00014 0.001881
-0.001624 0.000154 0.001869
-0.001595 0.000161 0.001869
-0.001569 0.000166 0.001874
-0.001546 0.000168 0.001883
-0.001525 0.000168 0.001895
-0.001505 0.000167 0.001911
-0.002239 0.000719 0.0018
-0.00218 0.000601 0.002076
-0.0024 0.000711 0.001286
-0.002771 0.000518 0.001181
0.00087 -1.4e-05 0.001933
0.000847 -1.5e-05 0.001943
0.000824 -1.5e-05 0.001951
-0.00148 1e-05 0.002329
-0.001457 1.1e-05 0.00234
-0.001436 1.1e-05 0.002353
-0.001417 1e-05 0.002367
-0.001396 1e-05 0.002381
-0.001313 1e-05 0.002434
-0.001292 1e-05 0.002448
-0.001272 1e-05 0.002462
-0.001251 1e-05 0.002475
-0.002205 0.000737 0.001247
-0.001988 9e-06 0.001935
-0.001967 1e-05 0.001947
-0.001945 1.1e-05 0.001959
-0.001925 1e-05 0.001974
-0.001903 1.1e-05 0.001985
-0.001878 1.5e-05 0.001991
-0.001847 2.3e-05 0.001989
-0.001807 4e-05 0.001973
-0.00176 6.3e-05 0.001945
-0.001662 0.000112 0.001881
-0.001624 0.000127 0.001868
-0.001595 0.000134 0.001868
-0.001569 0.000139 0.001874
-0.001546 0.000141 0.001883
-0.001525 0.000141 0.001895
-0.001505 0.00014 0.001911
-0.002272 0.000652 0.001894
-0.002266 0.000598 0.001987
-0.00222 0.000659 0.001751
-0.00205 0.000719 0.001308
0.0008 -1.6e-05 0.001959
0.000777 -1.6e-05 0.001967
0.000754 -1.7e-05 0.001976
-0.001446 1.2e-05 0.002276
-0.001426 1.1e-05 0.00229
-0.001405 1.1e-05 0.002303
-0.001384 1.2e-05 0.002316
-0.001363 1.2e-05 0.002329
-0.000904 -2.5e-05 0.001885
-0.001281 1.1e-05 0.002384
-0.00126 1.1e-05 0.002398
-0.001239 1.1e-05 0.00241
-0.002355 0.00062 0.00128
-0.001953 1.2e-05 0.00188
-0.001933 1.2e-05 0.001895
-0.001912 1.2e-05 0.001908
-0.001872 1e-05 0.001936
-0.001851 1e-05 0.00195
-0.001831 1e-05 0.001963
-0.001803 1.7e-05 0.001965
-0.001761 3.5e-05 0.001945
-0.001709 6.2e-05 0.00191
-0.001662 8.5e-05 0.001882
-0.001624 0.0001 0.001868
-0.001594 0.000107 0.001868
-0.001569 0.000112 0.001874
-0.001546 0.000114 0.001883
-0.001525 0.000114 0.001895
-0.002158 0.000723 0.002057
-0.002277 0.000628 0.001964
-0.002426 0.000747 0.000478
-0.002148 0.000556 0.002081
-0.002181 0.000465 0.002077
-0.000926 -2.6e-05 0.001874
0.000731 -1.7e-05 0.001984
0.000708 -1.7e-05 0.001992
0.000684 -1.7e-05 0.002
0.000661 -1.7e-05 0.002008
-0.001401 5e-06 0.002252
-0.001381 5e-06 0.002266
-0.00136 5e-06 0.002278
-0.000947 -2.7e-05 0.001862
-0.001235 7e-06 0.002358
-0.001214 6e-06 0.002371
-0.000969 -2.7e-05 0.001849
-0.00113 7e-06 0.002421
-0.001109 7e-06 0.002434
-0.001086 9e-06 0.002445
-0.001056 1.7e-05 0.002443
-0.002222 0.00055 0.001752
-0.001928 7e-06 0.00184
-0.001909 5e-06 0.001856
-0.001805 6e-06 0.001922
-0.001782 8e-06 0.001932
-0.001754 1.4e-05 0.001934
-0.00171 3.4e-05 0.001911
-0.001661 5.8e-05 0.001881
-0.001624 7.3e-05 0.001868
-0.001594 8e-05 0.001867
-0.001569 8.4e-05 0.001874
-0.001546 8.6e-05 0.001883
-0.001524 8.7e-05 0.001895
-0.002256 0.000686 0.001978
-0.002234 0.000625 0.002025
-0.002222 0.000631 0.001752
-0.00278 0.000546 0.001158
-0.002181 0.000438 0.002077
0.000637 -1.7e-05 0.002015
0.000614 -1.7e-05 0.002023
-0.001406 1e-05 0.002168
-0.001387 9e-06 0.002183
-0.001365 9e-06 0.002195
-0.00099 -2.8e-05 0.001837
-0.001201 7e-06 0.002305
-0.001181 7e-06 0.002319
-0.001078 6e-06 0.002387
-0.001057 7e-06 0.002399
-0.001032 1.1e-05 0.002406
-0.002148 0.000475 0.002081
-0.002271 0.000489 0.001894
-0.001854 8e-06 0.001817
-0.001834 7e-06 0.00183
-0.002356 0.000647 0.001281
-0.00224 0.000556 0.001801
-0.001472 0.00073 0.002112
-0.00146 0.000747 0.002063
-0.001702 1.4e-05 0.001899
-0.001662 3.1e-05 0.001881
-0.001623 4.6e-05 0.001867
-0.001594 5.3e-05 0.001867
-0.001569 5.7e-05 0.001873
-0.001545 6e-05 0.001882
-0.001524 6e-05 0.001895
-0.002052 0.000705 0.002059
-0.001998 0.000728 0.002047
-0.002234 0.000571 0.002025
-0.001455 0.000745 0.001996
-0.001011 -2.8e-05 0.001824
0.00059 -1.7e-05 0.00203
-0.001374 1e-05 0.002118
-0.001352 1.1e-05 0.00213
-0.001332 1.1e-05 0.002143
-0.001311 1.1e-05 0.002156
-0.001228 1.1e-05 0.00221
-0.001207 1.1e-05 0.002223
-0.001186 1.1e-05 0.002235
-0.001165 1.1e-05 0.002249
-0.001145 1.1e-05 0.002263
-0.001043 9e-06 0.002332
-0.001023 9e-06 0.002346
-0.001002 9e-06 0.002359
-0.002306 0.000667 0.00127
-0.001819 1.1e-05 0.001762
-0.001798 1.1e-05 0.001774
-0.002217 0.000626 0.002043
-0.002222 0.000577 0.001752
-0.001032 -2.8e-05 0.001812
-0.001675 1e-05 0.001856
-0.001651 1.3e-05 0.001865
-0.001622 2e-05 0.001865
-0.001593 2.7e-05 0.001866
-0.001568 3.1e-05 0.001872
-0.001545 3.3e-05 0.001882
-0.001524 3.3e-05 0.001895
-0.002282 0.000608 0.001936
-0.002279 0.0006 0.001966
-0.002267 0.000435 0.001988
-0.002101 0.000494 0.002072
-0.001053 -2.9e-05 0.001799
-0.0024 0.000657 0.001286
0.000567 -1.7e-05 0.002037
0.000543 -1.7e-05 0.002045
-0.001321 1.1e-05 0.002081
-0.001301 1e-05 0.002095
-0.00128 1e-05 0.002108
-0.001198 1e-05 0.002162
-0.001176 1.1e-05 0.002174
-0.001155 1.1e-05 0.002186
-0.001134 1.1e-05 0.0022
-0.001113 1.1e-05 0.002213
-0.00101 1.1e-05 0.002279
-0.0022 0.000517 0.002061
-0.002437 0.000563 0.001287
-0.0022 0.000436 0.002061
-0.001787 1.1e-05 0.001712
-0.001768 1e-05 0.001727
-0.001747 1e-05 0.00174
-0.002198 0.000547 0.001699
-0.002104 0.000716 0.001257
-0.002128 0.000711 0.001246
-0.001074 -2.8e-05 0.001785
-0.002265 0.000727 0.001921
-0.001625 8e-06 0.001825
-0.001606 6e-06 0.00184
-0.001585 7e-06 0.001853
-0.001563 8e-06 0.001865
-0.001542 9e-06 0.001877
-0.001521 9e-06 0.00189
-0.00205 0.000746 0.001308
-0.002281 0.000473 0.001935
-0.002251 0.000435 0.002007
-0.002356 0.000674 0.00128
-0.002437 0.000644 0.001287
-0.002082 0.000719 0.001271
-0.001343 1e-06 0.002023
-0.00132 3e-06 0.002033
-0.001299 3e-06 0.002047
-0.001279 3e-06 0.00206
-0.001154 3e-06 0.002139
-0.001132 4e-06 0.00215
-0.001111 4e-06 0.002163
-0.00109 4e-06 0.002176
-0.001004 6e-06 0.002225
-0.000983 7e-06 0.002238
-0.000961 7e-06 0.00225
-0.002234 0.000516 0.002025
-0.001803 6e-06 0.001645
-0.001783 6e-06 0.001659
-0.001472 0.000676 0.002112
-0.002234 0.000435 0.002025
-0.001724 3e-06 0.001705
-0.001705 2e-06 0.00172
-0.001684 2e-06 0.001733
-0.001663 3e-06 0.001747
-0.001621 3e-06 0.001771
-0.0016 2e-06 0.001785
-0.001579 2e-06 0.001798
-0.001557 3e-06 0.00181
-0.001537 3e-06 0.001824
-0.001516 3e-06 0.001837
-0.002128 0.000738 0.001245
-0.002159 0.000729 0.001239
-0.002181 0.000492 0.002077
-0.002148 0.000502 0.002081
-0.001095 -2.9e-05 0.001772
-0.001286 5e-06 0.00198
-0.001116 -2.9e-05 0.001759
-0.001136 -2.9e-05 0.001746
-0.001157 -2.9e-05 0.001732
-0.000978 3e-06 0.002183
-0.000957 2e-06 0.002198
-0.000936 3e-06 0.00221
-0.000787 6e-06 0.002296
-0.000765 7e-06 0.002309
-0.002217 0.000517 0.002043
-0.001777 2e-06 0.001604
-0.001756 2e-06 0.001617
-0.001734 3e-06 0.001629
-0.001691 4e-06 0.001652
-0.00167 4e-06 0.001666
-0.001648 5e-06 0.001677
-0.001628 5e-06 0.001692
-0.001177 -2.8e-05 0.001718
-0.001586 5e-06 0.001717
-0.001565 5e-06 0.00173
-0.001544 6e-06 0.001742
-0.002306 0.000641 0.00127
-0.001944 0.000725 0.002027
-0.0024 0.000603 0.001286
-0.001418 7e-06 0.00182
-0.001397 8e-06 0.001832
-0.001376 8e-06 0.001845
-0.001356 7e-06 0.00186
-0.001454 0.000718 0.001996
-0.002282 0.000527 0.001936
-0.002267 0.000462 0.001988
-0.001198 -2.8e-05 0.001705
-0.001219 -2.8e-05 0.001691
-0.001085 8e-06 0.002031
-0.001065 7e-06 0.002046
-0.001239 -2.8e-05 0.001677
-0.000942 6e-06 0.002128
-0.000922 6e-06 0.002142
-0.0009 6e-06 0.002154
-0.001259 -2.7e-05 0.001663
-0.000779 3e-06 0.002239
-0.000758 4e-06 0.002252
-0.000738 3e-06 0.002267
-0.001739 7e-06 0.001545
-0.001719 7e-06 0.001559
-0.001699 6e-06 0.001574
-0.001677 7e-06 0.001585
-0.001657 7e-06 0.001599
-0.001635 8e-06 0.00161
-0.001613 9e-06 0.001622
-0.001591 9e-06 0.001634
-0.00128 -2.7e-05 0.001649
-0.00216 0.000701 0.00124
-0.002679 0.00054 0.001274
-0.002105 0.000755 0.001551
-0.002251 0.000489 0.002007
-0.001403 9e-06 0.001751
-0.001383 1e-05 0.001765
-0.001362 1e-05 0.001779
-0.001342 1e-05 0.001792
-0.001321 1e-05 0.001806
-0.001301 1e-05 0.00182
-0.002262 0.000655 0.001984
-0.002747 0.000503 0.001034
-0.002217 0.000462 0.002043
-0.001114 9e-06 0.00194
-0.001093 1e-05 0.001952
-0.001072 1.1e-05 0.001964
-0.001052 1e-05 0.001979
-0.001031 9e-06 0.001993
-0.000947 1.1e-05 0.002044
-0.000928 9e-06 0.00206
-0.000866 9e-06 0.0021
-0.000845 9e-06 0.002113
-0.000824 9e-06 0.002126
-0.000803 9e-06 0.00214
-0.000784 8e-06 0.002155
-0.000743 8e-06 0.002182
-0.000723 7e-06 0.002196
-0.0013 -2.6e-05 0.001635
-0.001643 1e-05 0.001531
-0.001622 1e-05 0.001545
-0.001601 1e-05 0.001558
-0.001581 9e-06 0.001572
-0.001561 9e-06 0.001586
-0.00154 9e-06 0.0016
-0.002217 0.000717 0.00201
-0.002257 0.000562 0.001848
-0.002271 0.000543 0.001894
-0.002257 0.000634 0.00126
-0.002528 0.000651 -0.001604
-0.002174 0.000659 0.002071
-0.002226 0.000684 0.002018
-0.001377 6e-06 0.001711
-0.001357 6e-06 0.001725
-0.001336 5e-06 0.001738
-0.001316 5e-06 0.001752
-0.001295 5e-06 0.001766
-0.001274 5e-06 0.001779
-0.001254 5e-06 0.001793
-0.001234 4e-06 0.001807
-0.001214 4e-06 0.001821
-0.001193 4e-06 0.001834
-0.001172 4e-06 0.001847
