0.002139 7e-06 -0.00115
0.002122 7e-06 -0.001168
0.002106 7e-06 -0.001186
0.002239 0.000755 -0.001121
0.002056 7e-06 -0.001241
0.00204 7e-06 -0.001259
0.002022 8e-06 -0.001276
0.002005 8e-06 -0.001295
0.001436 -2.5e-05 -0.001511
0.002383 0.000714 -0.000889
0.002505 0.000661 -0.000894
0.001452 -2.5e-05 -0.001493
0.002732 0.000571 -0.000866
0.002808 0.000543 -0.000848
0.001469 -2.5e-05 -0.001475
0.002648 0.000631 -0.00088
0.002691 0.000614 -0.000874
0.001843 7e-06 -0.00148
0.001826 7e-06 -0.001498
0.00181 7e-06 -0.001517
0.002831 0.000727 -0.000831
0.002808 0.00057 -0.000848
0.001759 8e-06 -0.00157
0.001742 8e-06 -0.001588
0.001486 -2.6e-05 -0.001457
0.001628 7e-06 -0.001717
0.001613 7e-06 -0.001737
0.001595 8e-06 -0.001754
0.001578 8e-06 -0.001772
0.001562 8e-06 -0.001791
0.001463 8e-06 -0.0019
0.001448 7e-06 -0.00192
0.001432 7e-06 -0.001938
0.001413 8e-06 -0.001955
0.001398 7e-06 -0.001974
0.001383 7e-06 -0.001994
0.001367 6e-06 -0.002013
0.001351 6e-06 -0.002031
0.001334 7e-06 -0.002049
0.001503 -2.6e-05 -0.001439
0.00211 8e-06 -0.001091
0.002094 8e-06 -0.001109
0.002077 8e-06 -0.001127
0.002062 7e-06 -0.001147
0.002047 6e-06 -0.001167
0.00252 0.000723 -0.001502
0.001994 9e-06 -0.001218
0.001979 8e-06 -0.001238
0.002648 0.000577 -0.00088
0.00152 -2.6e-05 -0.001422
0.001537 -2.6e-05 -0.001403
0.002489 0.000511 -0.001679
0.001781 8e-06 -0.001457
0.001765 8e-06 -0.001476
0.001749 8e-06 -0.001495
0.001732 8e-06 -0.001513
0.001716 8e-06 -0.001531
0.001699 8e-06 -0.001549
0.001553 -2.6e-05 -0.001385
0.00157 -2.6e-05 -0.001367
0.001586 -2.6e-05 -0.001348
0.001603 -2.6e-05 -0.00133
0.001584 8e-06 -0.001677
0.001567 8e-06 -0.001696
0.001551 8e-06 -0.001714
0.001534 8e-06 -0.001732
0.001469 8e-06 -0.001806
0.001452 8e-06 -0.001824
0.001421 7e-06 -0.001862
0.001403 8e-06 -0.00188
0.001387 8e-06 -0.001898
0.001372 7e-06 -0.001917
0.001355 7e-06 -0.001935
0.001338 8e-06 -0.001953
0.001321 8e-06 -0.001971
0.001304 8e-06 -0.001989
0.001287 8e-06 -0.002007
0.001619 -2.6e-05 -0.001311
0.002066 8e-06 -0.001051
0.002051 8e-06 -0.00107
0.002033 8e-06 -0.001088
0.002017 8e-06 -0.001106
0.002002 8e-06 -0.001125
0.001986 7e-06 -0.001144
0.001972 6e-06 -0.001165
0.00052 -1.7e-05 0.002053
0.001884 9e-06 -0.001252
0.001869 8e-06 -0.001271
0.001853 8e-06 -0.00129
0.001837 8e-06 -0.001309
0.001821 7e-06 -0.001328
0.001635 -2.6e-05 -0.001293
0.001739 7e-06 -0.001419
0.001724 7e-06 -0.001439
0.001704 8e-06 -0.001455
0.001651 -2.5e-05 -0.001274
0.001428 7e-06 -0.001769
0.001411 6e-06 -0.001787
0.001395 6e-06 -0.001806
0.001379 6e-06 -0.001824
0.001361 7e-06 -0.001841
0.001328 7e-06 -0.001878
0.001311 8e-06 -0.001896
0.001293 8e-06 -0.001913
0.001278 8e-06 -0.001932
0.001261 8e-06 -0.001951
0.001666 -2.5e-05 -0.001255
0.002024 8e-06 -0.001013
0.002007 8e-06 -0.001031
0.00199 8e-06 -0.001049
0.001974 8e-06 -0.001068
0.001957 8e-06 -0.001085
0.00194 8e-06 -0.001104
0.001926 7e-06 -0.001124
0.001909 8e-06 -0.001141
0.001892 8e-06 -0.00116
0.002542 0.000505 -0.001595
0.002922 0.000524 -0.000698
0.002876 0.000721 -0.000771
0.001828 6e-06 -0.001235
0.001813 6e-06 -0.001254
0.001797 6e-06 -0.001273
0.001781 5e-06 -0.001292
0.002892 0.000516 -0.000807
0.002488 0.000538 -0.001678
0.001732 5e-06 -0.001347
0.001716 5e-06 -0.001366
0.0017 5e-06 -0.001384
0.001683 5e-06 -0.001403
0.002506 0.000688 -0.000894
0.0014 7e-06 -0.001711
0.001384 7e-06 -0.001729
0.001366 7e-06 -0.001747
0.00135 7e-06 -0.001765
0.001333 8e-06 -0.001783
0.001268 7e-06 -0.001858
0.001251 8e-06 -0.001875
0.001235 8e-06 -0.001894
0.002835 0.000575 -0.000559
0.002567 0.000629 0.000867
0.001981 7e-06 -0.000975
0.001968 5e-06 -0.000996
0.001952 5e-06 -0.001014
0.001937 4e-06 -0.001034
0.001921 4e-06 -0.001053
0.001905 3e-06 -0.001072
0.00189 3e-06 -0.001091
0.001874 2e-06 -0.00111
0.001859 1e-06 -0.001129
0.001844 1e-06 -0.001149
0.002426 0.000732 -0.000242
0.002423 0.000724 -0.001701
0.002466 0.000712 -0.001667
0.001781 -1e-06 -0.001225
0.001765 -2e-06 -0.001244
0.001749 -2e-06 -0.001263
0.001733 -3e-06 -0.001281
0.001717 -3e-06 -0.0013
0.001701 -3e-06 -0.001319
0.001685 -3e-06 -0.001338
0.001669 -3e-06 -0.001357
0.001653 -3e-06 -0.001375
0.001636 -4e-06 -0.001393
0.00162 -3e-06 -0.001411
0.001603 -4e-06 -0.00143
0.001587 -4e-06 -0.001448
0.00157 -4e-06 -0.001466
0.001555 -4e-06 -0.001486
0.001538 -4e-06 -0.001503
0.001487 -3e-06 -0.001557
0.00147 -2e-06 -0.001575
0.001453 -2e-06 -0.001593
0.001436 -2e-06 -0.001611
0.001419 -1e-06 -0.001628
0.001401 -1e-06 -0.001646
0.001384 -0.0 -0.001664
0.001367 0.0 -0.001681
0.00135 1e-06 -0.001699
0.001332 1e-06 -0.001716
0.001227 6e-06 -0.001821
0.001211 6e-06 -0.001839
0.002921 0.000612 0.0001
0.001965 0.0 -0.000927
0.001949 -0.0 -0.000946
0.001934 -1e-06 -0.000965
0.00192 -2e-06 -0.000986
0.001905 -3e-06 -0.001005
0.00189 -4e-06 -0.001025
0.001875 -5e-06 -0.001045
0.00186 -6e-06 -0.001064
0.002888 0.000686 -0.000777
0.002864 0.000688 -0.00082
0.002878 0.000686 -0.0008
0.002841 0.000695 -0.000837
0.002605 0.000729 -0.000887
0.002381 0.000746 -0.001271
0.001752 -1.1e-05 -0.0012
0.001737 -1.1e-05 -0.001219
0.001721 -1.2e-05 -0.001238
0.001706 -1.2e-05 -0.001257
0.00169 -1.3e-05 -0.001276
0.001674 -1.3e-05 -0.001295
0.001658 -1.3e-05 -0.001313
0.001642 -1.3e-05 -0.001332
0.001626 -1.4e-05 -0.001351
0.00161 -1.4e-05 -0.001369
0.001593 -1.4e-05 -0.001388
0.001577 -1.4e-05 -0.001406
0.00156 -1.4e-05 -0.001424
0.001544 -1.4e-05 -0.001443
0.001527 -1.4e-05 -0.001461
0.00151 -1.3e-05 -0.001479
0.001493 -1.3e-05 -0.001497
0.001477 -1.3e-05 -0.001515
0.001459 -1.2e-05 -0.001532
0.001442 -1.2e-05 -0.00155
0.001425 -1.2e-05 -0.001568
0.001408 -1.1e-05 -0.001585
0.001391 -1.1e-05 -0.001603
0.001373 -1e-05 -0.00162
0.001356 -9e-06 -0.001638
0.002486 0.000561 -0.001431
0.002228 0.000761 -0.000979
0.002648 0.000604 -0.00088
0.002558 0.00064 -0.000891
0.002484 0.000589 -0.00143
0.00254 0.000544 -0.001539
0.002654 0.000611 0.000951
0.00244 0.000623 -0.001354
0.002385 0.00074 -0.00089
0.002557 0.000667 -0.000891
0.002605 0.000648 -0.000887
0.002892 0.000543 -0.000806
0.002844 0.000557 -0.000838
0.002464 0.000551 -0.001393
0.002289 0.000669 -0.001172
0.001728 -2.2e-05 -0.001178
0.001713 -2.3e-05 -0.001197
0.001697 -2.4e-05 -0.001216
0.001682 -2.4e-05 -0.001235
0.002843 0.000476 -0.000838
0.002808 0.000489 -0.000848
0.002771 0.000502 -0.000858
0.002732 0.000517 -0.000866
0.002691 0.000533 -0.000874
0.002649 0.000549 -0.000881
0.002604 0.000567 -0.000887
0.002558 0.000585 -0.000892
0.002505 0.000607 -0.000893
0.002452 0.000629 -0.000895
0.002325 0.000683 -0.000889
0.002292 0.000695 -0.0009
0.002268 0.000702 -0.000916
0.00225 0.000706 -0.000935
0.002236 0.000708 -0.000955
0.002226 0.000707 -0.000978
0.002217 0.000706 -0.001001
0.002213 0.000703 -0.001026
0.002212 0.000698 -0.001053
0.002218 0.00069 -0.001083
0.002289 0.000642 -0.001172
0.002341 0.000609 -0.001225
0.002413 0.000561 -0.001314
0.002439 0.000542 -0.001354
0.002463 0.000524 -0.001393
0.002486 0.000507 -0.001431
0.002506 0.000491 -0.001468
0.002524 0.000476 -0.001504
0.00254 0.000462 -0.001539
0.002549 0.000452 -0.001571
0.002542 0.000451 -0.001595
0.002529 0.000452 -0.001616
0.002516 0.000453 -0.001637
0.002503 0.000455 -0.001658
0.002459 0.000727 -0.000127
0.002921 0.000585 0.0001
0.002951 0.0006 0.000119
0.0025 0.000745 0.000809
0.002916 0.000634 -0.000722
0.002892 0.000434 -0.000807
0.002874 0.000438 -0.000825
0.002843 0.000449 -0.000838
0.002808 0.000462 -0.000848
0.002771 0.000475 -0.000858
0.002733 0.00049 -0.000866
0.002691 0.000506 -0.000873
0.002649 0.000522 -0.000881
0.002604 0.00054 -0.000887
0.002505 0.00058 -0.000893
0.002452 0.000602 -0.000895
0.002325 0.000657 -0.000889
0.002292 0.000668 -0.0009
0.002268 0.000675 -0.000916
0.00225 0.000679 -0.000935
0.002236 0.000681 -0.000955
0.002225 0.00068 -0.000978
0.002217 0.000679 -0.001001
0.002212 0.000676 -0.001026
0.002212 0.000671 -0.001053
0.002219 0.000662 -0.001084
0.002341 0.000582 -0.001225
0.002412 0.000535 -0.001313
0.002439 0.000515 -0.001354
0.002463 0.000497 -0.001393
0.002485 0.00048 -0.001431
0.002505 0.000464 -0.001468
0.002524 0.000449 -0.001504
0.00254 0.000435 -0.001539
0.002549 0.000425 -0.001571
0.002541 0.000424 -0.001595
0.002529 0.000425 -0.001616
0.002516 0.000426 -0.001637
0.002502 0.000428 -0.001658
0.002676 0.00063 -0.000433
0.002897 0.000556 -0.000794
0.002997 0.000547 0.000249
0.002911 0.000608 -0.000746
0.002835 0.000684 -0.000559
0.002892 0.000407 -0.000807
0.002875 0.000411 -0.000826
0.002843 0.000422 -0.000838
0.002807 0.000435 -0.000848
0.002771 0.000448 -0.000857
0.002733 0.000462 -0.000866
0.002691 0.000479 -0.000873
0.002649 0.000495 -0.000881
0.002605 0.000512 -0.000887
0.002557 0.000531 -0.000891
0.002506 0.000552 -0.000894
0.00245 0.000576 -0.000894
0.002324 0.00063 -0.000888
0.002292 0.000641 -0.0009
0.002268 0.000648 -0.000916
0.002249 0.000652 -0.000935
0.002236 0.000654 -0.000955
0.002225 0.000653 -0.000977
0.002217 0.000652 -0.001001
0.002212 0.000649 -0.001026
0.002211 0.000644 -0.001053
0.002219 0.000635 -0.001084
0.002412 0.000507 -0.001314
0.002438 0.000488 -0.001354
0.002462 0.00047 -0.001392
0.002485 0.000453 -0.00143
0.002505 0.000437 -0.001468
0.002524 0.000422 -0.001504
0.00254 0.000408 -0.001539
0.002549 0.000398 -0.001571
0.002542 0.000396 -0.001595
0.002529 0.000397 -0.001616
0.002516 0.000399 -0.001637
0.002503 0.0004 -0.001658
0.002619 0.000659 -0.000398
0.002916 0.000552 -0.000722
0.002916 0.00058 -0.000722
0.002834 0.000657 -0.000559
0.002905 0.000665 -0.000745
0.002893 0.00038 -0.000807
0.002875 0.000384 -0.000825
0.002843 0.000395 -0.000838
0.002808 0.000407 -0.000848
0.00277 0.000421 -0.000857
0.002732 0.000435 -0.000866
0.002691 0.000451 -0.000874
0.002648 0.000468 -0.00088
0.002604 0.000485 -0.000887
0.002557 0.000504 -0.000891
0.002505 0.000526 -0.000893
0.00245 0.000549 -0.000894
0.002324 0.000602 -0.000889
0.002291 0.000614 -0.0009
0.002267 0.000621 -0.000916
0.002249 0.000625 -0.000935
0.002235 0.000626 -0.000955
0.002225 0.000626 -0.000977
0.002216 0.000625 -0.001001
0.002212 0.000622 -0.001026
0.002211 0.000617 -0.001053
0.002218 0.000608 -0.001084
0.002413 0.00048 -0.001314
0.002438 0.000461 -0.001353
0.002463 0.000443 -0.001393
0.002485 0.000426 -0.001431
0.002506 0.000409 -0.001468
0.002525 0.000394 -0.001505
0.00254 0.000381 -0.001539
0.002549 0.000371 -0.001571
0.002542 0.000369 -0.001595
0.00253 0.00037 -0.001616
0.002516 0.000371 -0.001637
0.002503 0.000373 -0.001658
0.002452 0.000703 -0.000121
0.002904 0.000555 -0.00077
0.002834 0.000629 -0.000559
0.002708 0.000755 -1.4e-05
0.002901 0.000354 -0.000784
0.002893 0.000353 -0.000807
0.002874 0.000357 -0.000825
0.002843 0.000368 -0.000838
0.002807 0.000381 -0.000848
0.00277 0.000394 -0.000857
0.002733 0.000408 -0.000866
0.00269 0.000425 -0.000873
0.002648 0.000441 -0.00088
0.002604 0.000458 -0.000887
0.002556 0.000478 -0.000891
0.002507 0.000497 -0.000894
0.002381 0.000551 -0.000889
0.002324 0.000575 -0.000889
0.002291 0.000587 -0.0009
0.002267 0.000594 -0.000916
0.00225 0.000597 -0.000935
0.002236 0.000599 -0.000955
0.002225 0.000599 -0.000977
0.002216 0.000598 -0.001001
0.002212 0.000595 -0.001026
0.002212 0.00059 -0.001053
0.002219 0.00058 -0.001084
0.002238 0.000565 -0.001121
0.002341 0.0005 -0.001225
0.00238 0.000475 -0.001271
0.002412 0.000453 -0.001314
0.002438 0.000434 -0.001353
0.002463 0.000415 -0.001393
0.002485 0.000399 -0.001431
0.002505 0.000383 -0.001468
0.002524 0.000367 -0.001504
0.002541 0.000353 -0.00154
0.002549 0.000344 -0.001571
0.002542 0.000342 -0.001595
0.00253 0.000343 -0.001616
0.002517 0.000344 -0.001637
0.002503 0.000346 -0.001658
0.002926 0.000524 -0.000674
0.00291 0.000554 -0.000746
0.002799 0.000648 -0.000528
0.002917 0.000639 -0.000648
0.002901 0.000326 -0.000784
0.002893 0.000325 -0.000807
0.002875 0.000329 -0.000825
0.002842 0.000341 -0.000837
0.002807 0.000353 -0.000848
0.002769 0.000367 -0.000857
0.002732 0.000381 -0.000866
0.00269 0.000398 -0.000873
0.002647 0.000414 -0.00088
0.002604 0.000431 -0.000887
0.002555 0.000451 -0.000891
0.002505 0.000471 -0.000894
0.002449 0.000495 -0.000894
0.002382 0.000524 -0.000889
0.002323 0.000548 -0.000888
0.002291 0.00056 -0.0009
0.002267 0.000566 -0.000916
0.002249 0.00057 -0.000935
0.002235 0.000572 -0.000955
0.002225 0.000572 -0.000977
0.002216 0.000571 -0.001001
0.002212 0.000568 -0.001026
0.002212 0.000562 -0.001053
0.002219 0.000553 -0.001084
0.002235 0.000539 -0.001119
0.002342 0.000473 -0.001225
0.00238 0.000448 -0.001271
0.002412 0.000426 -0.001314
0.002438 0.000407 -0.001353
0.002463 0.000388 -0.001393
0.002486 0.000371 -0.001431
0.002506 0.000355 -0.001468
0.002524 0.00034 -0.001504
0.002541 0.000326 -0.00154
0.002549 0.000317 -0.001571
0.002542 0.000315 -0.001595
0.00253 0.000315 -0.001616
0.002516 0.000317 -0.001637
0.002503 0.000318 -0.001658
0.002453 0.000714 0.000779
0.002922 0.000552 -0.000698
0.002675 0.000712 -0.000433
0.002921 0.000694 0.0001
0.002901 0.000299 -0.000784
0.002893 0.000298 -0.000807
0.002874 0.000302 -0.000825
0.002842 0.000314 -0.000837
0.002807 0.000326 -0.000848
0.00277 0.00034 -0.000857
0.002731 0.000354 -0.000866
0.00269 0.00037 -0.000873
0.002647 0.000387 -0.00088
0.002604 0.000404 -0.000886
0.002556 0.000423 -0.000891
0.002505 0.000444 -0.000893
0.002447 0.000468 -0.000893
0.002381 0.000497 -0.000889
0.002323 0.000521 -0.000888
0.00229 0.000533 -0.0009
0.002267 0.000539 -0.000916
0.002249 0.000543 -0.000934
0.002235 0.000545 -0.000955
0.002224 0.000545 -0.000977
0.002217 0.000544 -0.001001
0.002212 0.00054 -0.001026
0.002212 0.000535 -0.001053
0.002218 0.000526 -0.001084
0.002382 0.00042 -0.001272
0.002412 0.000398 -0.001314
0.002438 0.000379 -0.001354
0.002463 0.000361 -0.001393
0.002485 0.000344 -0.001431
0.002506 0.000328 -0.001468
0.002525 0.000313 -0.001505
0.002541 0.000299 -0.00154
0.002549 0.000289 -0.001571
0.002542 0.000288 -0.001595
0.00253 0.000288 -0.001616
0.002517 0.00029 -0.001637
0.002503 0.000291 -0.001658
0.002475 0.00072 -0.0001
0.002926 0.000552 -0.000674
0.002747 0.000712 5e-06
0.002785 0.00075 2.4e-05
0.002901 0.000272 -0.000784
0.002893 0.000271 -0.000807
0.002875 0.000275 -0.000826
0.002842 0.000287 -0.000837
0.002808 0.000299 -0.000848
0.002769 0.000313 -0.000857
0.002731 0.000327 -0.000866
0.00269 0.000343 -0.000873
0.002648 0.000359 -0.000881
0.002604 0.000377 -0.000887
0.002555 0.000397 -0.00089
0.002503 0.000418 -0.000893
0.002448 0.000441 -0.000893
0.002381 0.00047 -0.000889
0.002323 0.000494 -0.000888
0.00229 0.000506 -0.0009
0.002267 0.000512 -0.000916
0.002249 0.000516 -0.000934
0.002235 0.000518 -0.000955
0.002224 0.000518 -0.000977
0.002217 0.000516 -0.001001
0.002212 0.000513 -0.001026
0.002212 0.000508 -0.001053
0.002219 0.000499 -0.001084
0.002382 0.000392 -0.001272
0.002412 0.000371 -0.001314
0.002439 0.000352 -0.001354
0.002464 0.000334 -0.001393
0.002485 0.000317 -0.001431
0.002506 0.000301 -0.001468
0.002524 0.000286 -0.001505
0.00254 0.000272 -0.00154
0.002548 0.000262 -0.001571
0.002541 0.000261 -0.001595
0.002529 0.000261 -0.001616
0.002516 0.000263 -0.001637
0.002503 0.000264 -0.001658
0.002627 0.000734 0.000924
0.002835 0.000602 -0.000559
0.002706 0.000729 -1.3e-05
0.002891 0.000706 8.1e-05
0.002901 0.000245 -0.000784
0.002892 0.000244 -0.000807
0.002874 0.000248 -0.000825
0.002842 0.000259 -0.000837
0.002807 0.000272 -0.000848
0.002769 0.000286 -0.000857
0.002731 0.0003 -0.000866
0.00269 0.000316 -0.000874
0.002647 0.000333 -0.00088
0.002604 0.00035 -0.000886
0.002554 0.00037 -0.00089
0.002503 0.00039 -0.000893
0.002447 0.000414 -0.000893
0.002382 0.000442 -0.000889
0.002323 0.000467 -0.000888
0.00229 0.000479 -0.0009
0.002267 0.000485 -0.000916
0.002249 0.000489 -0.000934
0.002235 0.000491 -0.000955
0.002224 0.000491 -0.000977
0.002217 0.000489 -0.001001
0.002212 0.000486 -0.001026
0.002212 0.00048 -0.001053
0.002219 0.000472 -0.001084
0.002382 0.000365 -0.001272
0.002412 0.000344 -0.001314
0.00244 0.000324 -0.001354
0.002464 0.000306 -0.001393
0.002485 0.00029 -0.001431
0.002507 0.000273 -0.001469
0.002524 0.000259 -0.001504
0.002541 0.000245 -0.00154
0.002548 0.000235 -0.001571
0.002541 0.000234 -0.001595
0.002529 0.000234 -0.001616
0.002516 0.000235 -0.001637
0.002503 0.000237 -0.001658
0.002429 0.000758 -0.000242
0.0028 0.00062 -0.000528
0.002618 0.000741 -0.000398
0.002821 0.000735 4.3e-05
0.0029 0.000218 -0.000783
0.002891 0.000218 -0.000806
0.002873 0.000221 -0.000825
0.002841 0.000232 -0.000837
0.002806 0.000245 -0.000848
0.002769 0.000259 -0.000857
0.002732 0.000273 -0.000866
0.002691 0.000288 -0.000874
0.002647 0.000306 -0.00088
0.002604 0.000322 -0.000887
0.002554 0.000343 -0.00089
0.002502 0.000364 -0.000892
0.002447 0.000387 -0.000893
0.002323 0.00044 -0.000888
0.00229 0.000452 -0.000899
0.002267 0.000458 -0.000916
0.002249 0.000462 -0.000934
0.002235 0.000463 -0.000955
0.002224 0.000464 -0.000977
0.002216 0.000462 -0.001001
0.002212 0.000459 -0.001026
0.002212 0.000453 -0.001054
0.002218 0.000445 -0.001084
0.002295 0.000394 -0.001175
0.002342 0.000364 -0.001225
0.002382 0.000338 -0.001272
0.002413 0.000316 -0.001314
0.00244 0.000297 -0.001355
0.002463 0.00028 -0.001393
0.002486 0.000262 -0.001431
0.002507 0.000246 -0.001469
0.002525 0.000231 -0.001505
0.002541 0.000217 -0.00154
0.002547 0.000209 -0.00157
0.00254 0.000207 -0.001594
0.002529 0.000207 -0.001616
0.002516 0.000208 -0.001637
0.002471 0.000695 -9.9e-05
0.002762 0.00064 -0.000497
0.002785 0.000696 2.4e-05
0.002976 0.000672 0.000142
0.002899 0.000192 -0.000783
0.00289 0.000191 -0.000806
0.002873 0.000195 -0.000825
0.002842 0.000205 -0.000837
0.002806 0.000218 -0.000847
0.002769 0.000232 -0.000857
0.002732 0.000246 -0.000866
0.002691 0.000261 -0.000874
0.002647 0.000278 -0.00088
0.002604 0.000295 -0.000887
0.002553 0.000316 -0.00089
0.002503 0.000336 -0.000893
0.002447 0.00036 -0.000893
0.002323 0.000413 -0.000888
0.00229 0.000424 -0.0009
0.002267 0.000431 -0.000916
0.002249 0.000435 -0.000935
0.002235 0.000436 -0.000955
0.002224 0.000436 -0.000977
0.002216 0.000435 -0.001001
0.002212 0.000432 -0.001026
0.002212 0.000426 -0.001053
0.002219 0.000417 -0.001084
0.002239 0.000401 -0.001121
0.002291 0.000369 -0.001173
0.002343 0.000337 -0.001226
0.002382 0.000311 -0.001272
0.002413 0.000289 -0.001314
0.00244 0.00027 -0.001355
0.002463 0.000253 -0.001393
0.002486 0.000235 -0.001431
0.002507 0.000219 -0.001469
0.002526 0.000204 -0.001505
0.002541 0.00019 -0.00154
0.002546 0.000182 -0.001569
0.002538 0.000181 -0.001593
0.002528 0.000181 -0.001616
0.002515 0.000182 -0.001637
0.00295 0.000492 0.00012
0.002868 0.000585 -0.000589
0.002822 0.000681 4.3e-05
0.002915 0.000664 -0.000697
0.002897 0.000165 -0.000782
0.002887 0.000165 -0.000804
0.002871 0.000168 -0.000824
0.002842 0.000178 -0.000837
0.002806 0.000191 -0.000847
0.002768 0.000205 -0.000856
0.002731 0.000219 -0.000866
0.00269 0.000234 -0.000874
0.002648 0.000251 -0.000881
0.002603 0.000269 -0.000886
0.002554 0.000288 -0.00089
0.002502 0.000309 -0.000892
0.002447 0.000332 -0.000893
0.002323 0.000385 -0.000888
0.00229 0.000397 -0.0009
0.002267 0.000404 -0.000916
0.002249 0.000407 -0.000935
0.002235 0.000409 -0.000955
0.002224 0.000409 -0.000977
0.002216 0.000408 -0.001001
0.002212 0.000405 -0.001026
0.002212 0.000399 -0.001053
0.002218 0.00039 -0.001084
0.002238 0.000374 -0.001121
0.002382 0.000284 -0.001272
0.002414 0.000262 -0.001315
0.00244 0.000243 -0.001355
0.002463 0.000225 -0.001393
0.002486 0.000208 -0.001432
0.002506 0.000192 -0.001468
0.002526 0.000176 -0.001505
0.002541 0.000163 -0.00154
0.002543 0.000157 -0.001568
0.002535 0.000155 -0.001592
0.002525 0.000155 -0.001614
0.002513 0.000156 -0.001636
0.002741 0.000682 0.000441
0.002619 0.000714 -0.000398
0.002857 0.000666 6.2e-05
0.002916 0.000665 -0.000672
0.002893 0.00014 -0.00078
0.002883 0.00014 -0.000802
0.002869 0.000142 -0.000823
0.002842 0.00015 -0.000838
0.002806 0.000164 -0.000847
0.002768 0.000178 -0.000856
0.00273 0.000192 -0.000866
0.00269 0.000207 -0.000873
0.002647 0.000224 -0.00088
0.002602 0.000242 -0.000886
0.002555 0.000261 -0.00089
0.002502 0.000282 -0.000892
0.002446 0.000306 -0.000893
0.002323 0.000358 -0.000888
0.00229 0.00037 -0.0009
0.002267 0.000376 -0.000916
0.002249 0.00038 -0.000935
0.002235 0.000382 -0.000955
0.002224 0.000382 -0.000977
0.002216 0.000381 -0.001001
0.002212 0.000377 -0.001026
0.002212 0.000372 -0.001053
0.002219 0.000363 -0.001084
0.002382 0.000256 -0.001272
0.002414 0.000234 -0.001315
0.00244 0.000215 -0.001355
0.002464 0.000198 -0.001393
0.002486 0.000181 -0.001432
0.002506 0.000165 -0.001468
0.002525 0.000149 -0.001505
0.002539 0.000137 -0.001539
0.002538 0.000132 -0.001566
0.00253 0.00013 -0.001589
0.00252 0.00013 -0.001612
0.002508 0.000131 -0.001633
0.002428 0.00076 -0.000217
0.002676 0.000685 -0.000433
0.002922 0.000639 9.9e-05
0.002913 0.000668 -0.000647
0.002887 0.000117 -0.000777
0.002877 0.000116 -0.000799
0.002863 0.000118 -0.00082
0.00284 0.000125 -0.000836
0.002806 0.000136 -0.000848
0.002767 0.000151 -0.000856
0.002731 0.000165 -0.000866
0.002691 0.00018 -0.000874
0.002647 0.000197 -0.00088
0.002603 0.000214 -0.000886
0.002554 0.000234 -0.00089
0.002503 0.000255 -0.000893
0.002446 0.000279 -0.000893
0.002322 0.000332 -0.000888
0.00229 0.000343 -0.0009
0.002267 0.000349 -0.000916
0.002249 0.000353 -0.000935
0.002235 0.000355 -0.000955
0.002224 0.000355 -0.000977
0.002216 0.000353 -0.001001
0.002212 0.00035 -0.001026
0.002212 0.000345 -0.001054
0.002219 0.000336 -0.001084
0.002239 0.00032 -0.001121
0.002343 0.000255 -0.001226
0.002382 0.000229 -0.001272
0.002413 0.000208 -0.001314
0.002439 0.000189 -0.001354
0.002463 0.000171 -0.001393
0.002486 0.000153 -0.001432
0.002506 0.000138 -0.001468
0.002525 0.000123 -0.001505
0.002535 0.000112 -0.001537
0.002532 0.000108 -0.001563
0.002523 0.000107 -0.001586
0.002512 0.000107 -0.001608
0.0025 0.000108 -0.00163
0.002555 0.000714 -6.3e-05
0.002722 0.000661 -0.000465
0.002951 0.000628 0.000119
0.002867 0.000694 -0.000589
0.002878 9.4e-05 -0.000773
0.002868 9.4e-05 -0.000795
0.002856 9.4e-05 -0.000817
0.002837 9.9e-05 -0.000835
0.002806 0.000109 -0.000847
0.002768 0.000124 -0.000856
0.002732 0.000137 -0.000866
0.00269 0.000153 -0.000874
0.002647 0.00017 -0.00088
0.002602 0.000187 -0.000886
0.002555 0.000206 -0.000891
0.002503 0.000228 -0.000893
0.002445 0.000252 -0.000892
0.00238 0.00028 -0.000888
0.002323 0.000304 -0.000888
0.00229 0.000316 -0.0009
0.002267 0.000322 -0.000916
0.002249 0.000326 -0.000935
0.002235 0.000327 -0.000955
0.002225 0.000327 -0.000978
0.002217 0.000326 -0.001001
0.002212 0.000323 -0.001026
0.002212 0.000317 -0.001054
0.002219 0.000308 -0.001084
0.00224 0.000292 -0.001122
0.002342 0.000228 -0.001225
0.002381 0.000203 -0.001271
0.002414 0.00018 -0.001315
0.002438 0.000162 -0.001354
0.002464 0.000143 -0.001393
0.002486 0.000126 -0.001432
0.002506 0.00011 -0.001469
0.002523 9.6e-05 -0.001504
0.002528 8.8e-05 -0.001534
0.002523 8.5e-05 -0.001559
0.002513 8.5e-05 -0.001581
0.002503 8.5e-05 -0.001604
0.002491 8.5e-05 -0.001625
0.002477 8.7e-05 -0.001646
0.001743 -2.2e-05 -0.001156
0.002427 0.000736 -0.000192
0.000496 -1.7e-05 0.00206
0.002357 0.000739 0.000643
0.002896 0.000678 -0.000619
0.002867 7.3e-05 -0.000767
0.002857 7.2e-05 -0.00079
0.002846 7.3e-05 -0.000812
0.00283 7.5e-05 -0.000832
0.002804 8.3e-05 -0.000846
0.002768 9.6e-05 -0.000856
0.002732 0.00011 -0.000866
0.00269 0.000126 -0.000873
0.002646 0.000143 -0.00088
0.002602 0.00016 -0.000886
0.002555 0.000179 -0.000891
0.002502 0.000201 -0.000892
0.002445 0.000225 -0.000892
0.002381 0.000252 -0.000889
0.002323 0.000277 -0.000888
0.00229 0.000288 -0.0009
0.002267 0.000295 -0.000916
0.002249 0.000299 -0.000935
0.002235 0.0003 -0.000955
0.002225 0.0003 -0.000978
0.002217 0.000299 -0.001001
0.002212 0.000296 -0.001026
0.002212 0.00029 -0.001054
0.002219 0.000281 -0.001084
0.002239 0.000266 -0.001121
0.002342 0.000201 -0.001225
0.002381 0.000175 -0.001272
0.002413 0.000153 -0.001314
0.002439 0.000135 -0.001354
0.002464 0.000116 -0.001394
0.002486 9.9e-05 -0.001432
0.002506 8.3e-05 -0.001469
0.002519 7.1e-05 -0.001502
0.002518 6.6e-05 -0.001529
0.002511 6.4e-05 -0.001553
0.002502 6.4e-05 -0.001576
0.00249 6.4e-05 -0.001598
0.002478 6.5e-05 -0.001619
0.002465 6.6e-05 -0.00164
0.002722 0.000579 -0.000466
0.00292 0.000556 -0.000648
0.002668 0.000746 -3.2e-05
0.00292 0.000634 -0.000698
0.002853 5.3e-05 -0.000761
0.002843 5.2e-05 -0.000783
0.002832 5.2e-05 -0.000805
0.002819 5.4e-05 -0.000826
0.002799 5.9e-05 -0.000844
0.002766 7e-05 -0.000856
0.002731 8.3e-05 -0.000866
0.00269 9.8e-05 -0.000874
0.002647 0.000115 -0.00088
0.002604 0.000132 -0.000887
0.002555 0.000152 -0.000891
0.002502 0.000174 -0.000892
0.002446 0.000197 -0.000893
0.002324 0.000249 -0.000889
0.00229 0.000261 -0.0009
0.002267 0.000268 -0.000916
0.002249 0.000272 -0.000935
0.002235 0.000273 -0.000955
0.002224 0.000273 -0.000977
0.002217 0.000272 -0.001001
0.002212 0.000269 -0.001026
0.002212 0.000263 -0.001054
0.002219 0.000254 -0.001084
0.00224 0.000237 -0.001122
0.001755 -2.3e-05 -0.001135
0.002341 0.000174 -0.001225
0.002382 0.000148 -0.001272
0.002412 0.000126 -0.001314
0.002438 0.000108 -0.001354
0.002463 8.9e-05 -0.001393
0.002485 7.3e-05 -0.001431
0.002504 5.7e-05 -0.001467
0.002508 4.9e-05 -0.001497
0.002505 4.6e-05 -0.001523
0.002496 4.5e-05 -0.001546
0.002486 4.4e-05 -0.001568
0.002475 4.4e-05 -0.001591
0.002463 4.5e-05 -0.001612
0.00245 4.7e-05 -0.001633
0.001767 -2.4e-05 -0.001113
0.002763 0.000558 -0.000497
0.000473 -1.6e-05 0.002067
0.002763 0.000667 -0.000497
0.002921 0.000635 -0.000673
0.002836 3.5e-05 -0.000752
0.002826 3.4e-05 -0.000775
0.002816 3.4e-05 -0.000797
0.002803 3.5e-05 -0.000819
0.002786 3.8e-05 -0.000838
0.002762 4.5e-05 -0.000854
0.002729 5.7e-05 -0.000865
0.00269 7.1e-05 -0.000873
0.002645 8.9e-05 -0.00088
0.002605 0.000104 -0.000887
0.002555 0.000125 -0.000891
0.002502 0.000147 -0.000892
0.002445 0.00017 -0.000893
0.002323 0.000222 -0.000888
0.00229 0.000234 -0.0009
0.002267 0.000241 -0.000916
0.002249 0.000244 -0.000935
0.002235 0.000246 -0.000955
0.002224 0.000246 -0.000978
0.002216 0.000245 -0.001001
0.002212 0.000241 -0.001026
0.002212 0.000236 -0.001054
0.002219 0.000227 -0.001084
0.00224 0.000211 -0.001122
0.002341 0.000147 -0.001225
0.002381 0.000121 -0.001272
0.002413 9.9e-05 -0.001314
0.002463 6.2e-05 -0.001393
0.002483 4.6e-05 -0.00143
0.002493 3.6e-05 -0.001462
0.002492 3e-05 -0.001489
0.002487 2.8e-05 -0.001514
0.002478 2.7e-05 -0.001537
0.002467 2.7e-05 -0.001559
0.002456 2.7e-05 -0.001581
0.002444 2.8e-05 -0.001603
0.002431 2.9e-05 -0.001624
0.002417 3.1e-05 -0.001645
0.002836 0.00052 -0.000559
0.002618 0.00074 -4.9e-05
0.002891 0.000652 8e-05
0.00291 0.000635 -0.000746
0.002813 2e-05 -0.000741
0.002801 0.000729 -0.000528
0.0028 0.000702 -0.000528
0.002781 2e-05 -0.000808
0.002766 2.1e-05 -0.000828
0.002748 2.5e-05 -0.000847
0.002723 3.3e-05 -0.000862
0.002688 4.5e-05 -0.000873
0.002555 9.7e-05 -0.000891
0.002501 0.00012 -0.000892
0.002446 0.000143 -0.000893
0.002323 0.000195 -0.000888
0.00229 0.000207 -0.0009
0.002267 0.000213 -0.000916
0.002249 0.000217 -0.000935
0.002235 0.000219 -0.000955
0.002225 0.000219 -0.000978
0.002217 0.000217 -0.001001
0.002212 0.000214 -0.001026
0.002212 0.000209 -0.001054
0.002219 0.0002 -0.001084
0.00224 0.000183 -0.001122
0.002293 0.00015 -0.001175
0.002341 0.00012 -0.001225
0.002379 9.5e-05 -0.001271
0.002412 7.2e-05 -0.001314
0.002438 5.4e-05 -0.001354
0.002461 3.6e-05 -0.001392
0.002472 2.5e-05 -0.001425
0.002474 1.8e-05 -0.001453
0.002469 1.6e-05 -0.001478
0.00246 1.4e-05 -0.001501
0.002451 1.4e-05 -0.001524
0.00244 1.4e-05 -0.001546
0.002428 1.5e-05 -0.001568
0.002417 1.5e-05 -0.00159
0.002405 1.5e-05 -0.001611
0.002392 1.7e-05 -0.001633
0.002379 1.9e-05 -0.001653
0.00292 0.000529 -0.000648
0.002707 0.000702 -1.3e-05
0.002919 0.000611 -0.000648
0.002785 1.2e-05 -0.000701
0.002774 1.2e-05 -0.000723
0.002764 1.2e-05 -0.000745
0.002754 1.2e-05 -0.000768
0.002903 0.0007 -0.000645
0.002425 0.000707 -0.000216
0.002719 1.3e-05 -0.000833
0.002704 1.5e-05 -0.000853
0.002679 2.3e-05 -0.000868
0.002644 3.5e-05 -0.000879
0.002601 5.2e-05 -0.000886
0.002555 7e-05 -0.000891
0.002501 9.3e-05 -0.000892
0.002447 0.000115 -0.000893
0.002323 0.000168 -0.000888
0.00229 0.00018 -0.0009
0.002267 0.000186 -0.000916
0.002249 0.00019 -0.000935
0.002235 0.000192 -0.000955
0.002225 0.000191 -0.000978
0.002216 0.00019 -0.001001
0.002212 0.000187 -0.001026
0.002212 0.000182 -0.001054
0.002219 0.000173 -0.001084
0.002241 0.000156 -0.001122
0.002292 0.000124 -0.001174
0.00238 6.7e-05 -0.001271
0.002412 4.5e-05 -0.001314
0.002435 2.8e-05 -0.001352
0.002447 1.6e-05 -0.001386
0.002447 1.1e-05 -0.001413
0.002437 1e-05 -0.001436
0.002426 1e-05 -0.001458
0.002416 1e-05 -0.00148
0.002405 1e-05 -0.001502
0.002394 1e-05 -0.001524
0.002383 1e-05 -0.001546
0.002373 1.1e-05 -0.001568
0.002361 1.1e-05 -0.00159
0.00235 1.1e-05 -0.001612
0.002339 1.2e-05 -0.001634
0.002328 1.3e-05 -0.001656
0.001779 -2.5e-05 -0.001092
0.002916 0.000471 -0.000722
0.002667 0.000719 -3.2e-05
0.002924 0.000607 -0.000674
0.002739 9e-06 -0.000679
0.002729 8e-06 -0.000701
0.002719 8e-06 -0.000723
0.002709 7e-06 -0.000746
0.0027 7e-06 -0.000769
0.002679 6e-06 -0.000814
0.002666 8e-06 -0.000835
0.002652 9e-06 -0.000856
0.00263 1.5e-05 -0.000872
0.002596 2.7e-05 -0.000883
0.002554 4.4e-05 -0.00089
0.002502 6.5e-05 -0.000893
0.002446 8.8e-05 -0.000893
0.002323 0.000141 -0.000888
0.00229 0.000152 -0.0009
0.002267 0.000159 -0.000916
0.002249 0.000163 -0.000935
0.002235 0.000165 -0.000955
0.002224 0.000165 -0.000977
0.002216 0.000163 -0.001001
0.002212 0.00016 -0.001026
0.002212 0.000154 -0.001054
0.002219 0.000145 -0.001084
0.002237 0.00013 -0.001121
0.002378 4.1e-05 -0.00127
0.002406 2.1e-05 -0.001311
0.002416 1e-05 -0.001343
0.002412 7e-06 -0.001369
0.002403 6e-06 -0.001392
0.002393 6e-06 -0.001414
0.002381 6e-06 -0.001436
0.002371 7e-06 -0.001458
0.002359 7e-06 -0.00148
0.002351 7e-06 -0.001503
0.002328 7e-06 -0.001547
0.002319 6e-06 -0.00157
0.002307 6e-06 -0.001592
0.002296 7e-06 -0.001613
0.002283 8e-06 -0.001635
0.001791 -2.5e-05 -0.00107
0.00291 0.000472 -0.000746
0.002926 0.000497 -0.000674
0.002921 0.000501 -0.000648
0.002365 0.000738 0.000594
0.002678 7e-06 -0.000677
0.002668 7e-06 -0.000699
0.002659 7e-06 -0.000722
0.002645 8e-06 -0.000743
0.002613 8e-06 -0.000809
0.002603 8e-06 -0.000832
0.00259 9e-06 -0.000853
0.002574 1.2e-05 -0.000872
0.002547 2e-05 -0.000887
0.002504 3.7e-05 -0.000894
0.002446 6.1e-05 -0.000893
0.002378 9.1e-05 -0.000888
0.002323 0.000114 -0.000888
0.00229 0.000126 -0.0009
0.002267 0.000132 -0.000916
0.002249 0.000136 -0.000935
0.002235 0.000137 -0.000955
0.002224 0.000138 -0.000977
0.002216 0.000136 -0.001001
0.002211 0.000133 -0.001026
0.002211 0.000128 -0.001053
0.002219 0.000118 -0.001084
0.00224 0.000102 -0.001122
0.002342 3.8e-05 -0.001226
0.002371 1.7e-05 -0.001267
0.002378 8e-06 -0.001298
0.002369 8e-06 -0.001321
0.002359 7e-06 -0.001343
0.001802 -2.6e-05 -0.001048
0.002303 8e-06 -0.001453
0.002293 8e-06 -0.001476
0.002273 8e-06 -0.001521
0.002262 8e-06 -0.001543
0.001814 -2.6e-05 -0.001026
0.002792 0.000632 0.000423
0.00261 1e-05 -0.000671
0.001825 -2.6e-05 -0.001004
0.002897 0.000487 -0.000619
0.002904 0.000527 -0.00077
0.002547 9e-06 -0.000805
0.002537 9e-06 -0.000828
0.002529 8e-06 -0.000851
0.002517 8e-06 -0.000872
0.002495 1e-05 -0.000891
0.002374 6.6e-05 -0.000886
0.002323 8.7e-05 -0.000888
0.002289 9.9e-05 -0.0009
0.002266 0.000105 -0.000916
0.002248 0.000109 -0.000935
0.002234 0.00011 -0.000955
0.002224 0.00011 -0.000977
0.002216 0.000109 -0.001001
0.002211 0.000106 -0.001026
0.002211 0.000101 -0.001053
0.002218 9.1e-05 -0.001084
0.002238 7.6e-05 -0.001121
0.002335 1.5e-05 -0.001222
0.00225 9e-06 -0.001427
0.002238 9e-06 -0.001449
0.002614 8e-06 -0.000536
0.002604 8e-06 -0.000559
0.001836 -2.7e-05 -0.000982
0.001848 -2.7e-05 -0.000961
0.00289 0.000708 -0.000618
0.002564 6e-06 -0.000649
0.002554 6e-06 -0.000672
0.002545 5e-06 -0.000695
0.002254 0.000759 -0.000937
0.002868 0.000503 -0.00059
0.002516 3e-06 -0.000763
0.002508 2e-06 -0.000786
0.002497 2e-06 -0.000808
0.002488 2e-06 -0.000831
0.002478 2e-06 -0.000854
0.002922 0.000497 -0.000698
0.002857 0.00053 6.1e-05
0.002322 6e-05 -0.000888
0.002289 7.2e-05 -0.000899
0.002266 7.8e-05 -0.000916
0.002248 8.2e-05 -0.000935
0.002234 8.4e-05 -0.000955
0.002223 8.3e-05 -0.000977
0.002215 8.2e-05 -0.001001
0.002211 7.9e-05 -0.001026
0.00221 7.4e-05 -0.001053
0.002217 6.4e-05 -0.001084
0.002238 4.8e-05 -0.001121
0.001858 -2.7e-05 -0.000938
0.002221 3e-06 -0.001386
0.00221 2e-06 -0.001408
0.002198 3e-06 -0.00143
0.002187 3e-06 -0.001452
0.001869 -2.7e-05 -0.000916
0.002129 6e-06 -0.00156
0.002116 7e-06 -0.001582
0.002105 7e-06 -0.001604
0.002573 2e-06 -0.000517
0.002563 2e-06 -0.000539
0.00253 2e-06 -0.000605
0.00252 2e-06 -0.000628
0.002508 2e-06 -0.00065
0.002495 4e-06 -0.000671
0.002486 3e-06 -0.000693
0.002475 3e-06 -0.000716
0.002464 3e-06 -0.000738
0.002799 0.000675 -0.000528
0.002783 0.00063 0.001123
0.002554 0.000687 -6.3e-05
0.002786 0.000587 2.3e-05
0.002916 0.000498 -0.000722
0.00295 0.000519 0.00012
0.002377 1e-05 -0.000887
0.002323 3.2e-05 -0.000888
0.002288 4.5e-05 -0.000899
0.002265 5.1e-05 -0.000915
0.002247 5.5e-05 -0.000935
0.002822 0.000708 4.2e-05
0.002223 5.7e-05 -0.000977
0.002215 5.5e-05 -0.001
0.00221 5.2e-05 -0.001025
0.002209 4.7e-05 -0.001052
0.002217 3.8e-05 -0.001083
0.002166 4e-06 -0.00136
0.002156 3e-06 -0.001382
0.002145 3e-06 -0.001404
0.002135 3e-06 -0.001427
0.002124 3e-06 -0.001449
0.002113 3e-06 -0.001471
0.002094 2e-06 -0.001516
0.002083 2e-06 -0.001538
0.002072 2e-06 -0.001561
0.002063 2e-06 -0.001583
0.002707 0.000647 -1.4e-05
0.002505 5e-06 -0.000511
0.002556 0.00074 -6.3e-05
0.002512 0.000759 -8.1e-05
0.002472 5e-06 -0.000577
0.002458 7e-06 -0.000598
0.002447 7e-06 -0.00062
0.002437 7e-06 -0.000643
0.002426 7e-06 -0.000665
0.002415 7e-06 -0.000687
0.002405 6e-06 -0.00071
0.002394 7e-06 -0.000731
0.002385 6e-06 -0.000754
0.002822 0.000572 4.2e-05
0.002316 9e-06 -0.000885
0.002287 1.8e-05 -0.000899
0.002264 2.4e-05 -0.000915
0.002884 0.000736 -0.000642
0.002663 0.000639 -3.1e-05
0.002822 0.000599 4.2e-05
0.002906 0.000697 -0.000671
0.00221 2.5e-05 -0.001026
0.002212 1.8e-05 -0.001054
0.002219 9e-06 -0.001085
0.002223 2e-06 -0.001114
0.002095 8e-06 -0.001353
0.002086 7e-06 -0.001376
0.002074 7e-06 -0.001398
0.002063 7e-06 -0.00142
0.002055 6e-06 -0.001443
0.002045 6e-06 -0.001465
0.002034 6e-06 -0.001488
0.002025 5e-06 -0.001511
0.002015 5e-06 -0.001533
0.002005 4e-06 -0.001556
0.00188 -2.7e-05 -0.000894
0.002502 0.000682 -7.9e-05
0.002556 0.000659 -6.3e-05
0.002616 0.000714 -4.8e-05
0.002723 0.000633 -0.000466
0.002905 0.000695 -0.000695
0.002395 7e-06 -0.000595
0.002384 7e-06 -0.000617
0.002375 6e-06 -0.00064
0.002365 6e-06 -0.000663
0.002355 5e-06 -0.000685
0.002344 5e-06 -0.000707
0.002333 6e-06 -0.000729
0.002903 0.000473 -0.00077
0.002954 0.000546 0.000122
0.002289 7e-06 -0.000817
0.002258 6e-06 -0.000885
0.002246 7e-06 -0.000906
0.002897 0.000501 -0.000794
0.002163 6e-06 -0.001085
0.002109 7e-06 -0.001196
0.002099 6e-06 -0.001218
0.002048 5e-06 -0.00133
0.002037 5e-06 -0.001352
0.002025 5e-06 -0.001374
0.002014 6e-06 -0.001396
0.002001 7e-06 -0.001417
0.001991 6e-06 -0.00144
0.00198 7e-06 -0.001462
0.001968 7e-06 -0.001483
0.001957 8e-06 -0.001505
0.001921 4e-06 -0.001597
0.002439 0.000707 -0.000144
0.002785 0.000614 2.3e-05
0.00292 0.000558 0.000101
0.002833 0.000739 -0.000559
0.002341 7e-06 -0.000569
0.002332 6e-06 -0.000592
0.00298 0.000699 0.000166
0.002309 7e-06 -0.000636
0.002298 8e-06 -0.000658
0.002287 8e-06 -0.00068
0.002276 8e-06 -0.000702
0.002822 0.000626 4.2e-05
0.002897 0.000475 -0.000794
0.002747 0.000658 5e-06
0.002235 7e-06 -0.000791
0.002224 7e-06 -0.000814
0.002889 0.000516 8.1e-05
0.0028 0.000566 -0.000528
0.002614 0.000688 -4.8e-05
0.002662 0.000667 -3.1e-05
0.002663 0.000612 -3.1e-05
0.002869 0.00053 -0.00059
0.002707 0.00062 -1.3e-05
0.002128 7e-06 -0.001013
0.002118 7e-06 -0.001036
0.002109 7e-06 -0.001059
0.002044 7e-06 -0.001192
0.002032 8e-06 -0.001213
0.001891 -2.7e-05 -0.000872
0.00199 8e-06 -0.001302
0.001979 8e-06 -0.001324
0.001968 8e-06 -0.001346
0.001958 7e-06 -0.001369
0.001947 7e-06 -0.001391
0.001936 7e-06 -0.001413
0.001928 7e-06 -0.001436
0.001916 7e-06 -0.001458
0.001907 6e-06 -0.001481
0.001896 7e-06 -0.001503
0.001869 5e-06 -0.001572
0.001854 6e-06 -0.001592
0.001901 -2.7e-05 -0.000849
0.001911 -2.7e-05 -0.000827
0.002926 0.00047 -0.000674
0.002747 0.00063 5e-06
0.002311 6e-06 -0.0005
0.002301 7e-06 -0.000522
0.002291 6e-06 -0.000545
0.00228 6e-06 -0.000567
0.002269 7e-06 -0.000589
0.002662 0.000694 -3.1e-05
0.002244 7e-06 -0.000632
0.002234 8e-06 -0.000654
0.002225 7e-06 -0.000678
0.002857 0.000611 6.2e-05
0.002706 0.000675 -1.3e-05
0.002784 0.000642 2.4e-05
0.002786 0.00056 2.3e-05
0.00292 0.000504 0.000101
0.002922 0.00047 -0.000698
0.002676 0.000603 -0.000433
0.002889 0.000544 8.1e-05
0.002857 0.000557 6.1e-05
0.002897 0.000514 -0.000619
0.002836 0.000547 -0.000559
0.002748 0.000603 5e-06
0.002075 8e-06 -0.000988
0.002067 6e-06 -0.001011
0.002055 7e-06 -0.001033
0.001984 6e-06 -0.00119
0.001959 7e-06 -0.001233
0.001948 7e-06 -0.001255
0.001938 7e-06 -0.001277
0.001914 9e-06 -0.00132
0.001905 8e-06 -0.001344
0.001894 8e-06 -0.001365
0.001883 8e-06 -0.001388
0.001865 6e-06 -0.001434
0.001854 6e-06 -0.001456
0.00181 7e-06 -0.001544
0.0018 7e-06 -0.001566
0.001922 -2.7e-05 -0.000805
0.002904 0.0005 -0.00077
0.00291 0.000499 -0.000746
0.002247 7e-06 -0.000497
0.002237 7e-06 -0.000519
0.002228 6e-06 -0.000542
0.002217 6e-06 -0.000564
0.002951 0.000546 0.000119
0.002181 8e-06 -0.000629
0.00217 9e-06 -0.000651
0.002707 0.000593 -1.4e-05
0.002239 0.000764 -0.00096
0.002597 0.000613 0.000895
0.002898 0.000596 -0.000619
0.002747 0.000576 5e-06
0.001932 -2.7e-05 -0.000783
0.002576 0.00073 0.000472
0.000449 -1.6e-05 0.002073
0.001906 7e-06 -0.001207
0.001895 8e-06 -0.001229
0.001843 7e-06 -0.001341
0.001833 7e-06 -0.001364
0.001822 7e-06 -0.001386
0.00181 7e-06 -0.001407
0.001801 7e-06 -0.00143
0.001747 7e-06 -0.001541
0.002763 0.000612 -0.000497
0.002677 0.000657 -0.000433
0.002376 0.000761 0.000571
0.002989 0.000529 0.000149
0.002183 7e-06 -0.000493
0.002173 7e-06 -0.000515
0.002163 7e-06 -0.000538
0.002153 6e-06 -0.000561
0.002142 7e-06 -0.000583
0.002132 6e-06 -0.000605
0.002123 6e-06 -0.000628
0.002112 6e-06 -0.00065
0.002854 0.000749 6.2e-05
0.002408 0.000737 0.000748
0.002868 0.000611 -0.00059
0.002426 0.000704 -0.000242
0.002504 0.000736 -8e-05
0.002867 0.000721 -0.000589
0.00204 4e-06 -0.000807
0.00203 4e-06 -0.000829
0.002019 4e-06 -0.000852
0.002502 0.000709 -7.9e-05
0.002723 0.000606 -0.000466
0.001857 5e-06 -0.001184
0.001845 6e-06 -0.001205
0.001836 6e-06 -0.001228
0.00178 7e-06 -0.001338
0.001769 7e-06 -0.00136
0.002998 0.000601 0.000249
0.002785 0.000669 2.4e-05
0.002904 0.000582 -0.00077
0.002916 0.000525 -0.000722
0.002897 0.000542 -0.000619
0.0029 0.000696 -0.00072
0.002139 3e-06 -0.000472
0.002129 3e-06 -0.000495
0.002121 2e-06 -0.000518
0.002111 1e-06 -0.000541
0.002102 0.0 -0.000564
0.002091 0.0 -0.000586
0.002081 -0.0 -0.000608
0.002072 -1e-06 -0.000631
0.002765 0.000748 -0.000497
0.002762 0.000722 -0.000497
0.002719 0.000744 -0.000465
0.002922 0.000667 0.0001
0.002902 0.000637 -0.00077
0.002013 -3e-06 -0.000767
0.002003 -4e-06 -0.000789
0.001993 -4e-06 -0.000812
0.001983 -4e-06 -0.000834
0.001973 -4e-06 -0.000857
0.001962 -5e-06 -0.000879
0.001951 -4e-06 -0.000901
0.00194 -4e-06 -0.000923
0.001931 -5e-06 -0.000946
0.001919 -4e-06 -0.000968
0.001908 -4e-06 -0.00099
0.001897 -4e-06 -0.001012
0.001853 -3e-06 -0.0011
0.001841 -3e-06 -0.001121
0.00183 -2e-06 -0.001143
0.001807 -1e-06 -0.001187
0.001795 -0.0 -0.001208
0.001676 6e-06 -0.001424
0.002426 0.000709 -0.000192
0.002856 0.000639 6.2e-05
0.002897 0.000583 -0.000794
0.00291 0.000581 -0.000746
0.002857 0.000693 6.1e-05
0.002891 0.000679 8e-05
0.002999 0.000574 0.000224
0.002919 0.000722 0.000101
0.00295 0.00071 0.000118
0.002968 0.000702 0.000143
0.002066 -8e-06 -0.000546
0.002057 -9e-06 -0.000569
0.002047 -1e-05 -0.000592
0.002741 0.000627 0.000441
0.002868 0.000639 -0.000589
0.002019 -1.1e-05 -0.00066
0.002009 -1.2e-05 -0.000683
0.002 -1.3e-05 -0.000706
0.00199 -1.3e-05 -0.000728
0.00198 -1.4e-05 -0.000751
0.00197 -1.4e-05 -0.000773
0.001959 -1.4e-05 -0.000796
0.00195 -1.4e-05 -0.000818
0.001939 -1.4e-05 -0.000841
0.001929 -1.5e-05 -0.000863
0.001918 -1.4e-05 -0.000885
0.001908 -1.4e-05 -0.000907
0.001897 -1.4e-05 -0.00093
0.001886 -1.4e-05 -0.000952
0.001875 -1.4e-05 -0.000974
0.001864 -1.4e-05 -0.000996
0.001853 -1.4e-05 -0.001018
0.001842 -1.3e-05 -0.00104
0.001831 -1.3e-05 -0.001062
0.00182 -1.3e-05 -0.001084
0.001808 -1.3e-05 -0.001105
0.001796 -1.2e-05 -0.001127
0.001785 -1.1e-05 -0.001149
0.001773 -1.1e-05 -0.001171
0.001761 -1e-05 -0.001192
0.001639 -2e-06 -0.001407
0.001625 -1e-06 -0.001428
0.002984 0.000689 0.000247
0.002614 0.000633 -4.8e-05
0.002822 0.000545 4.2e-05
0.0028 0.000539 -0.000528
0.002618 0.000632 -0.000398
0.002793 0.00055 0.000423
0.002614 0.00066 -4.8e-05
0.003 0.000577 0.000175
0.002764 0.000585 -0.000497
0.00243 0.000762 -0.000192
0.002434 0.000761 -0.000168
0.002857 0.000584 6.2e-05
0.00291 0.000526 -0.000746
0.002897 0.000529 -0.000794
0.002898 0.000623 -0.000619
0.00199 -2.4e-05 -0.000646
0.001981 -2.4e-05 -0.000669
0.001971 -2.5e-05 -0.000692
0.001961 -2.5e-05 -0.000714
0.001952 -2.6e-05 -0.000737
0.001942 -2.7e-05 -0.00076
0.002723 0.000552 -0.000466
0.002763 0.000531 -0.000497
0.0028 0.000512 -0.000528
0.002836 0.000493 -0.000559
0.002868 0.000476 -0.00059
0.002898 0.00046 -0.00062
0.002921 0.000447 -0.000648
0.002926 0.000443 -0.000674
0.002922 0.000443 -0.000699
0.002917 0.000443 -0.000723
0.00291 0.000445 -0.000747
0.002904 0.000446 -0.00077
0.002897 0.000447 -0.000794
0.00225 0.000734 -0.000936
0.002234 0.000739 -0.000959
0.002372 0.000755 0.000693
0.002977 0.000454 0.00014
0.00295 0.000465 0.00012
0.00292 0.000477 0.000101
0.002889 0.000489 8.1e-05
0.002856 0.000503 6.2e-05
0.002822 0.000517 4.2e-05
0.002786 0.000532 2.3e-05
0.002748 0.000548 5e-06
0.002706 0.000567 -1.3e-05
0.002663 0.000585 -3.1e-05
0.002614 0.000606 -4.8e-05
0.002556 0.000632 -6.3e-05
0.002501 0.000655 -7.9e-05
0.00247 0.000668 -9.9e-05
0.002451 0.000676 -0.000121
0.002439 0.00068 -0.000144
0.00243 0.000682 -0.000167
0.002426 0.000682 -0.000192
0.002424 0.00068 -0.000216
0.002426 0.000677 -0.000242
0.002961 0.000667 0.000344
0.002654 0.00072 0.000952
0.002567 0.000602 0.000867
0.002675 0.000549 -0.000433
0.002723 0.000525 -0.000466
0.002762 0.000504 -0.000497
0.002801 0.000484 -0.000529
0.002836 0.000465 -0.000559
0.002868 0.000449 -0.00059
0.002898 0.000432 -0.00062
0.002921 0.00042 -0.000648
0.002926 0.000416 -0.000674
0.002922 0.000416 -0.000698
0.002916 0.000417 -0.000722
0.00291 0.000418 -0.000746
0.002904 0.000419 -0.00077
0.002897 0.00042 -0.000794
0.002455 0.000748 -0.000313
0.002977 0.000426 0.000141
0.002949 0.000438 0.000121
0.00292 0.000449 0.000101
0.002889 0.000462 8.1e-05
0.002855 0.000476 6.2e-05
0.002822 0.00049 4.2e-05
0.002786 0.000505 2.3e-05
0.002748 0.000521 5e-06
0.002707 0.000539 -1.3e-05
0.002662 0.000558 -3.1e-05
0.002613 0.000579 -4.8e-05
0.002556 0.000604 -6.3e-05
0.002501 0.000629 -7.9e-05
0.00247 0.000641 -9.9e-05
0.002451 0.000649 -0.000121
0.002438 0.000653 -0.000144
0.00243 0.000655 -0.000167
0.002426 0.000655 -0.000192
0.002424 0.000653 -0.000216
0.002425 0.00065 -0.000242
0.002977 0.000661 0.000321
0.002599 0.000749 0.000896
0.002928 0.000518 0.000364
0.002677 0.000521 -0.000433
0.002723 0.000498 -0.000466
0.002763 0.000477 -0.000497
0.002801 0.000457 -0.000529
0.002837 0.000438 -0.00056
0.002868 0.000422 -0.00059
0.002898 0.000405 -0.00062
0.002921 0.000392 -0.000648
0.002926 0.000388 -0.000674
0.002922 0.000388 -0.000699
0.002916 0.000389 -0.000723
0.00291 0.00039 -0.000747
0.002904 0.000391 -0.000771
0.002897 0.000393 -0.000794
0.002968 0.000723 0.000245
0.002977 0.000399 0.000141
0.002948 0.000411 0.000121
0.00292 0.000422 0.000101
0.00289 0.000435 8.1e-05
0.002856 0.000449 6.2e-05
0.002822 0.000463 4.2e-05
0.002785 0.000478 2.3e-05
0.002746 0.000495 5e-06
0.002707 0.000512 -1.4e-05
0.002661 0.000531 -3.1e-05
0.002612 0.000552 -4.8e-05
0.002556 0.000577 -6.4e-05
0.002501 0.000601 -7.9e-05
0.002469 0.000614 -9.9e-05
0.00245 0.000622 -0.000121
0.002437 0.000626 -0.000144
0.002429 0.000628 -0.000167
0.002425 0.000627 -0.000192
0.002424 0.000626 -0.000216
0.002984 0.000692 0.000198
0.002842 0.000718 0.000404
0.002955 0.000655 0.000122
0.002597 0.000668 0.000895
0.002623 0.000521 -0.000399
0.002677 0.000494 -0.000433
0.002723 0.00047 -0.000466
0.002763 0.000449 -0.000497
0.002801 0.000429 -0.000529
0.002837 0.000411 -0.00056
0.002869 0.000394 -0.00059
0.002898 0.000378 -0.00062
0.002921 0.000365 -0.000648
0.002926 0.000361 -0.000674
0.002922 0.000361 -0.000699
0.002917 0.000362 -0.000723
0.002911 0.000363 -0.000747
0.002905 0.000364 -0.000771
0.002941 0.000731 0.000341
0.002977 0.000372 0.000141
0.002948 0.000384 0.000121
0.00292 0.000395 0.000101
0.002889 0.000408 8.1e-05
0.002857 0.000421 6.1e-05
0.002822 0.000436 4.2e-05
0.002786 0.000451 2.3e-05
0.002746 0.000468 5e-06
0.002707 0.000484 -1.4e-05
0.00266 0.000505 -3.1e-05
0.002612 0.000525 -4.8e-05
0.002556 0.00055 -6.4e-05
0.002501 0.000574 -7.9e-05
0.002469 0.000587 -9.9e-05
0.00245 0.000594 -0.000121
0.002437 0.000599 -0.000144
0.002429 0.000601 -0.000167
0.002425 0.0006 -0.000192
0.002424 0.000599 -0.000216
0.002976 0.00069 0.000296
0.002986 0.000689 0.000223
0.002995 0.000628 0.000273
0.00238 0.000751 0.00072
0.00262 0.000495 -0.000399
0.002676 0.000467 -0.000433
0.002722 0.000443 -0.000466
0.002762 0.000423 -0.000497
0.002802 0.000402 -0.000529
0.002837 0.000384 -0.00056
0.002868 0.000367 -0.00059
0.002899 0.00035 -0.00062
0.002922 0.000338 -0.000649
0.002926 0.000334 -0.000674
0.002922 0.000334 -0.000699
0.002916 0.000335 -0.000723
0.00291 0.000336 -0.000747
0.002904 0.000337 -0.000771
0.002884 0.000728 0.000384
0.002977 0.000345 0.00014
0.002949 0.000356 0.00012
0.00292 0.000368 0.000101
0.002889 0.000381 8.1e-05
0.002857 0.000394 6.1e-05
0.00282 0.000409 4.2e-05
0.002786 0.000424 2.3e-05
0.002746 0.00044 5e-06
0.002707 0.000457 -1.4e-05
0.002659 0.000478 -3.1e-05
0.002613 0.000498 -4.8e-05
0.002555 0.000523 -6.3e-05
0.002501 0.000547 -7.9e-05
0.002469 0.00056 -9.9e-05
0.00245 0.000567 -0.000121
0.002437 0.000571 -0.000144
0.00243 0.000573 -0.000167
0.002426 0.000573 -0.000192
0.002424 0.000572 -0.000217
0.002967 0.000692 0.00032
0.002432 0.000564 -0.000269
0.002998 0.000631 0.000199
0.002996 0.000492 0.000273
0.002622 0.000467 -0.000399
0.002676 0.00044 -0.000433
0.002722 0.000416 -0.000466
0.002762 0.000395 -0.000497
0.002801 0.000375 -0.000529
0.002837 0.000356 -0.00056
0.002869 0.00034 -0.00059
0.002898 0.000324 -0.00062
0.002921 0.000311 -0.000649
0.002926 0.000307 -0.000674
0.002923 0.000307 -0.000699
0.002917 0.000307 -0.000723
0.002911 0.000309 -0.000747
0.002905 0.00031 -0.000771
0.002362 0.000765 0.000619
0.002992 0.000601 0.000298
0.00295 0.000329 0.000119
0.002919 0.000341 0.000101
0.002889 0.000353 8.1e-05
0.002857 0.000367 6.1e-05
0.00282 0.000382 4.2e-05
0.002786 0.000397 2.3e-05
0.002747 0.000413 5e-06
0.002706 0.00043 -1.4e-05
0.00266 0.00045 -3.1e-05
0.002612 0.000471 -4.8e-05
0.002554 0.000497 -6.3e-05
0.0025 0.00052 -7.9e-05
0.002469 0.000533 -9.9e-05
0.00245 0.00054 -0.000121
0.002437 0.000544 -0.000144
0.00243 0.000546 -0.000167
0.002426 0.000546 -0.000192
0.002424 0.000545 -0.000216
0.002426 0.000542 -0.000242
0.002433 0.000536 -0.000269
0.002996 0.000633 0.000174
0.002372 0.000708 0.00057
0.002723 0.000389 -0.000466
0.002763 0.000368 -0.000497
0.0028 0.000349 -0.000529
0.002837 0.000329 -0.00056
0.002869 0.000312 -0.00059
0.002898 0.000297 -0.00062
0.002921 0.000284 -0.000649
0.002926 0.00028 -0.000674
0.002922 0.000279 -0.000699
0.002917 0.00028 -0.000723
0.002911 0.000281 -0.000747
0.002905 0.000282 -0.000771
0.002567 0.000656 0.000867
0.003001 0.000575 0.0002
0.00295 0.000302 0.000119
0.002919 0.000314 0.000101
