0.001433 0.000577 0.001962
0.001449 0.000577 0.001943
0.00149 0.000676 0.002564
0.001454 0.000547 0.002643
0.000734 0.000733 0.002315
0.000918 0.000513 0.002323
0.001492 0.000447 0.002523
0.001422 0.000647 0.001982
0.002065 0.000571 0.002096
0.000664 0.000654 0.002578
0.002118 0.000288 0.002109
0.002152 0.000276 0.002107
0.002172 0.000273 0.002092
0.00219 0.000272 0.002074
0.002207 0.000272 0.002056
0.002223 0.000271 0.002038
0.002239 0.000271 0.002019
0.002248 0.000275 0.001995
0.002244 0.000287 0.001959
0.002233 0.000303 0.001918
0.002219 0.000321 0.001875
0.002203 0.00034 0.00183
0.002181 0.000363 0.00178
0.002008 0.000553 0.00135
0.002022 0.000554 0.00133
0.002038 0.000554 0.001311
0.002057 0.000552 0.001295
0.002079 0.000547 0.001282
0.002106 0.00054 0.001272
0.002142 0.000528 0.001269
0.002192 0.000508 0.001279
0.002252 0.000481 0.001296
0.002302 0.00046 0.001305
0.002349 0.000441 0.001312
0.002394 0.000424 0.001317
0.002435 0.000409 0.001319
0.002475 0.000394 0.00132
0.002512 0.000381 0.001319
0.002549 0.000368 0.001321
0.001993 0.000461 0.002077
0.00142 0.000549 0.001983
0.001433 0.00055 0.001962
0.000599 0.000539 0.002858
0.001488 0.000746 0.002386
0.001486 0.000554 0.002602
0.001493 0.000545 0.00248
0.001474 0.000547 0.002277
0.001492 0.000683 0.001911
0.001492 0.000464 0.002479
0.001413 0.000729 0.002057
0.001454 0.000519 0.002643
0.00207 0.00028 0.002099
0.002118 0.00026 0.002109
0.002152 0.000249 0.002106
0.002172 0.000246 0.002092
0.00219 0.000245 0.002074
0.002206 0.000245 0.002056
0.002223 0.000244 0.002038
0.002238 0.000244 0.002019
0.002248 0.000248 0.001994
0.002244 0.00026 0.001959
0.002234 0.000275 0.001919
0.002219 0.000294 0.001875
0.002203 0.000313 0.00183
0.002182 0.000335 0.001781
0.00216 0.000358 0.001731
0.002008 0.000526 0.00135
0.002022 0.000527 0.00133
0.002038 0.000527 0.001311
0.002057 0.000524 0.001295
0.002079 0.00052 0.001282
0.002106 0.000513 0.001272
0.002143 0.000501 0.00127
0.002194 0.000479 0.00128
0.002251 0.000454 0.001295
0.002303 0.000433 0.001306
0.00235 0.000414 0.001313
0.002394 0.000396 0.001317
0.002435 0.000381 0.001319
0.002475 0.000367 0.00132
0.002512 0.000353 0.001319
0.002549 0.000341 0.00132
0.001878 0.000614 0.00204
0.001794 0.000705 0.002003
0.00149 0.000672 0.002433
0.001491 0.000649 0.002565
0.001493 0.000664 0.002524
0.000484 0.000284 0.00298
0.001461 0.000656 0.002215
0.00146 0.000547 0.002214
0.001514 0.000682 0.0019
0.001993 0.000597 0.002077
0.001492 0.000583 0.002523
0.002119 0.000233 0.002109
0.002151 0.000222 0.002106
0.002172 0.000219 0.002091
0.002189 0.000218 0.002074
0.002206 0.000218 0.002056
0.002223 0.000217 0.002038
0.002238 0.000217 0.002019
0.002249 0.00022 0.001995
0.002244 0.000233 0.001959
0.002233 0.000249 0.001919
0.002219 0.000267 0.001875
0.002203 0.000286 0.00183
0.002183 0.000307 0.001782
0.002161 0.00033 0.001731
0.002131 0.000358 0.001675
0.002008 0.000498 0.001351
0.002022 0.000499 0.00133
0.002038 0.000499 0.001311
0.002057 0.000497 0.001295
0.002079 0.000493 0.001282
0.002107 0.000486 0.001272
0.002142 0.000474 0.001269
0.002194 0.000452 0.00128
0.002251 0.000427 0.001295
0.002303 0.000405 0.001306
0.002349 0.000387 0.001312
0.002394 0.000369 0.001317
0.002435 0.000354 0.001319
0.002475 0.00034 0.00132
0.002513 0.000326 0.00132
0.002549 0.000314 0.00132
0.001514 0.000655 0.0019
0.001462 0.000709 0.002217
0.001473 0.000738 0.002276
0.001487 0.000719 0.002384
0.00149 0.0007 0.002433
0.001395 0.000533 0.002676
0.001473 0.000629 0.002277
0.001474 0.000411 0.002628
0.001643 0.000725 0.001913
0.001494 0.000763 0.001913
0.000664 0.000626 0.002579
0.002119 0.000205 0.002108
0.00215 0.000196 0.002105
0.002171 0.000193 0.002091
0.002189 0.000191 0.002074
0.002206 0.00019 0.002056
0.002222 0.00019 0.002037
0.002237 0.00019 0.002018
0.002248 0.000194 0.001994
0.002244 0.000205 0.00196
0.002232 0.000222 0.001918
0.002219 0.000239 0.001875
0.002204 0.000258 0.00183
0.002183 0.00028 0.001781
0.002159 0.000304 0.00173
0.00213 0.000331 0.001674
0.002095 0.000361 0.001614
0.002008 0.000471 0.001351
0.002022 0.000472 0.00133
0.002038 0.000472 0.001311
0.002057 0.00047 0.001295
0.00208 0.000466 0.001282
0.002107 0.000458 0.001273
0.002141 0.000447 0.001269
0.002193 0.000426 0.001279
0.00225 0.0004 0.001295
0.002303 0.000378 0.001306
0.002348 0.00036 0.001311
0.002393 0.000343 0.001317
0.002435 0.000327 0.001319
0.002475 0.000312 0.00132
0.002513 0.000299 0.001319
0.00255 0.000286 0.001321
0.00203 0.000447 0.002087
0.001837 0.000686 0.002023
0.001956 0.000719 0.002067
0.001493 0.000708 0.002481
0.001471 0.000631 0.002624
0.001493 0.000599 0.002481
0.001474 0.000493 0.002628
0.001838 0.000549 0.002024
0.000586 0.000225 0.002896
0.001118 0.000605 0.002542
0.001539 0.000678 0.001893
0.002119 0.000178 0.002108
0.002149 0.000169 0.002104
0.00217 0.000166 0.00209
0.002188 0.000165 0.002073
0.002205 0.000164 0.002055
0.002221 0.000164 0.002036
0.002236 0.000164 0.002016
0.002246 0.000168 0.001993
0.002244 0.000178 0.00196
0.002232 0.000195 0.001918
0.002219 0.000212 0.001875
0.002204 0.000231 0.001831
0.002182 0.000254 0.001781
0.002158 0.000277 0.001729
0.002131 0.000303 0.001675
0.002008 0.000444 0.00135
0.002022 0.000445 0.00133
0.002038 0.000445 0.001311
0.002057 0.000443 0.001295
0.00208 0.000438 0.001282
0.002107 0.000431 0.001272
0.002143 0.000419 0.00127
0.002193 0.000398 0.00128
0.00225 0.000373 0.001295
0.002303 0.000351 0.001306
0.002348 0.000333 0.001311
0.002393 0.000316 0.001316
0.002435 0.0003 0.001319
0.002475 0.000285 0.00132
0.002512 0.000272 0.001319
0.00255 0.000258 0.001322
0.001492 0.000491 0.00248
0.000612 0.000663 0.002818
0.000625 0.000299 0.002777
0.00149 0.000727 0.002433
0.001493 0.000691 0.002524
0.001487 0.000637 0.002385
0.001488 0.000583 0.002385
0.001347 0.000507 0.00269
0.001879 0.000532 0.002041
0.001568 0.000753 0.001891
0.002117 0.000152 0.002106
0.002147 0.000144 0.002102
0.002167 0.00014 0.002088
0.002186 0.000139 0.002071
0.002203 0.000138 0.002053
0.002219 0.000138 0.002034
0.002233 0.000139 0.002014
0.002244 0.000142 0.001991
0.002243 0.000152 0.001959
0.002233 0.000167 0.001918
0.002219 0.000185 0.001875
0.002204 0.000204 0.001831
0.002181 0.000227 0.00178
0.002159 0.00025 0.00173
0.002129 0.000277 0.001674
0.002008 0.000417 0.00135
0.002022 0.000418 0.00133
0.002038 0.000417 0.001312
0.002057 0.000415 0.001296
0.00208 0.000411 0.001283
0.002107 0.000404 0.001273
0.002143 0.000392 0.001271
0.002193 0.000371 0.00128
0.00225 0.000346 0.001295
0.002303 0.000324 0.001306
0.002348 0.000306 0.001311
0.002393 0.000288 0.001316
0.002435 0.000272 0.001319
0.002475 0.000258 0.00132
0.002513 0.000245 0.001319
0.00255 0.000231 0.001322
0.00149 0.000509 0.002433
0.0017 0.000749 0.001953
0.002166 0.000691 0.002069
0.000571 0.000593 0.002929
0.000531 0.000581 0.002968
0.001918 0.000652 0.002054
0.001492 0.000529 0.002523
0.000665 0.000733 0.002582
0.000506 0.000638 0.002971
0.001493 0.000654 0.00248
0.002143 0.000119 0.002099
0.002163 0.000116 0.002084
0.002182 0.000114 0.002068
0.002199 0.000113 0.00205
0.002214 0.000113 0.002031
0.002229 0.000114 0.00201
0.002241 0.000117 0.001988
0.002243 0.000125 0.001958
0.002232 0.000141 0.001917
0.002219 0.000158 0.001875
0.002204 0.000176 0.001831
0.00216 0.000222 0.001731
0.002129 0.00025 0.001674
0.002008 0.00039 0.00135
0.002022 0.000391 0.00133
0.002038 0.00039 0.001312
0.002058 0.000388 0.001296
0.002081 0.000384 0.001283
0.002108 0.000377 0.001274
0.002144 0.000364 0.001271
0.002193 0.000344 0.001279
0.002251 0.000318 0.001295
0.002302 0.000297 0.001305
0.002349 0.000278 0.001312
0.002395 0.00026 0.001318
0.002435 0.000245 0.001319
0.002476 0.00023 0.001321
0.002513 0.000218 0.001319
0.00255 0.000204 0.001322
0.001837 0.000522 0.002024
0.001482 0.000632 0.002333
0.001437 0.000649 0.002647
0.000599 0.000648 0.002857
0.000571 0.00062 0.00293
0.001433 0.00052 0.002656
0.00149 0.000513 0.002564
0.001488 0.000474 0.002385
0.00149 0.000405 0.002563
0.001491 0.000622 0.002565
0.002137 9.5e-05 0.002094
0.002157 9.2e-05 0.002079
0.002175 9.1e-05 0.002062
0.002193 9e-05 0.002045
0.002208 9e-05 0.002026
0.002223 9.1e-05 0.002005
0.002235 9.3e-05 0.001984
0.00224 9.9e-05 0.001956
0.002232 0.000113 0.001917
0.00222 0.00013 0.001875
0.002204 0.000149 0.001831
0.002183 0.000172 0.001781
0.00216 0.000195 0.001731
0.002008 0.000363 0.00135
0.002022 0.000364 0.00133
0.002038 0.000363 0.001312
0.002058 0.000361 0.001296
0.00208 0.000357 0.001282
0.002108 0.000349 0.001273
0.002144 0.000337 0.001271
0.002193 0.000317 0.00128
0.002252 0.000291 0.001296
0.002303 0.000269 0.001306
0.002349 0.000251 0.001312
0.002394 0.000234 0.001317
0.002435 0.000218 0.001319
0.002476 0.000203 0.00132
0.002513 0.00019 0.001319
0.00255 0.000177 0.001321
0.001599 0.000662 0.001892
0.001488 0.00061 0.002385
0.001956 0.000665 0.002066
0.001486 0.000692 0.002384
0.002029 0.000665 0.002086
0.001486 0.000527 0.002601
0.001491 0.000563 0.002434
0.0021 0.000423 0.002104
0.001784 -2.7e-05 0.001102
0.001492 0.000518 0.00248
0.001836 0.000713 0.002022
0.002129 7.3e-05 0.002087
0.002149 7e-05 0.002072
0.002167 6.9e-05 0.002055
0.002184 6.8e-05 0.002038
0.0022 6.8e-05 0.002019
0.002214 6.9e-05 0.001999
0.002227 7e-05 0.001977
0.002236 7.5e-05 0.001952
0.002234 8.5e-05 0.001919
0.00222 0.000103 0.001875
0.002204 0.000122 0.001831
0.002183 0.000144 0.001781
0.001769 -2.8e-05 0.001121
0.002008 0.000335 0.00135
0.002022 0.000336 0.00133
0.002038 0.000336 0.001312
0.002058 0.000334 0.001296
0.00208 0.000329 0.001282
0.002108 0.000322 0.001273
0.002144 0.00031 0.001271
0.002194 0.000289 0.00128
0.002251 0.000264 0.001295
0.002303 0.000243 0.001306
0.002349 0.000224 0.001312
0.002394 0.000206 0.001317
0.002435 0.000191 0.001319
0.002475 0.000176 0.00132
0.002514 0.000162 0.00132
0.00255 0.00015 0.001321
0.001455 0.000684 0.002622
0.001492 0.000556 0.002523
0.001918 0.00068 0.002054
0.001481 0.000714 0.002332
0.00137 0.000644 0.00268
0.0021 0.000586 0.002104
0.001188 0.000598 0.002596
0.002029 0.000584 0.002087
0.001993 0.000515 0.002077
0.001755 -2.8e-05 0.001142
0.001794 0.000623 0.002003
0.002065 0.000598 0.002095
0.002118 5.2e-05 0.002079
0.002138 5e-05 0.002063
0.002156 4.8e-05 0.002046
0.002173 4.7e-05 0.002028
0.002189 4.7e-05 0.002009
0.002203 4.8e-05 0.00199
0.002217 4.9e-05 0.001969
0.002227 5.3e-05 0.001945
0.00223 6.1e-05 0.001916
0.002218 7.7e-05 0.001874
0.002202 9.6e-05 0.001829
0.002184 0.000116 0.001782
0.00174 -2.9e-05 0.001161
0.001725 -3e-05 0.001181
0.002008 0.000308 0.00135
0.002022 0.000309 0.00133
0.002038 0.000309 0.001312
0.002058 0.000307 0.001296
0.00208 0.000302 0.001283
0.002108 0.000295 0.001273
0.002143 0.000283 0.00127
0.002252 0.000236 0.001296
0.002303 0.000215 0.001306
0.00235 0.000196 0.001313
0.002394 0.000179 0.001317
0.002435 0.000164 0.001319
0.002475 0.000149 0.00132
0.002514 0.000135 0.001321
0.00255 0.000123 0.00132
0.001994 0.000569 0.002078
0.001493 0.000572 0.002481
0.001836 0.00074 0.002022
0.002129 0.00066 0.002103
0.001187 0.00068 0.002596
0.001415 0.000646 0.002659
0.001956 0.000638 0.002066
0.000713 0.000729 0.00233
0.001957 0.000528 0.002067
0.001746 0.000645 0.001977
0.001492 0.000502 0.002523
0.001482 0.000605 0.002333
0.000599 0.00043 0.002858
0.002105 3.3e-05 0.002068
0.002124 3.1e-05 0.002052
0.002142 2.9e-05 0.002035
0.002159 2.9e-05 0.002017
0.002175 2.9e-05 0.001998
0.002189 2.9e-05 0.001978
0.002203 3e-05 0.001957
0.002214 3.3e-05 0.001935
0.002221 3.9e-05 0.001908
0.002216 5.1e-05 0.001872
0.00171 -3e-05 0.001201
0.001696 -3.1e-05 0.00122
0.002008 0.000281 0.00135
0.002022 0.000282 0.00133
0.002038 0.000281 0.001312
0.002058 0.000279 0.001296
0.00208 0.000275 0.001282
0.002108 0.000268 0.001273
0.002143 0.000256 0.00127
0.002195 0.000234 0.001281
0.002252 0.000209 0.001296
0.002303 0.000188 0.001306
0.002349 0.000169 0.001312
0.002394 0.000152 0.001317
0.002435 0.000137 0.001319
0.002474 0.000122 0.001319
0.002514 0.000108 0.00132
0.00255 9.6e-05 0.001318
0.001697 0.000588 0.001948
0.001118 0.000741 0.00254
0.001993 0.000705 0.002077
0.000918 0.000566 0.002325
0.001118 0.000714 0.002541
0.001474 0.000547 0.002628
0.001286 0.000501 0.00266
0.001794 0.000595 0.002004
0.002029 0.000503 0.002086
0.00146 0.00063 0.002213
0.000885 0.000527 0.002303
0.001005 0.000452 0.002432
0.001697 0.000724 0.001948
0.000508 0.000309 0.002975
0.002087 1.7e-05 0.002053
0.002105 1.5e-05 0.002036
0.002122 1.4e-05 0.002019
0.002139 1.3e-05 0.002001
0.002155 1.3e-05 0.001982
0.00217 1.4e-05 0.001962
0.002184 1.5e-05 0.001942
0.002197 1.7e-05 0.00192
0.002206 2.1e-05 0.001896
0.002208 2.9e-05 0.001866
0.0022 4.3e-05 0.001827
0.002183 6.3e-05 0.001781
0.002159 8.7e-05 0.00173
0.002128 0.000115 0.001672
0.002008 0.000254 0.001351
0.002022 0.000255 0.00133
0.002039 0.000254 0.001312
0.002058 0.000252 0.001296
0.002081 0.000248 0.001283
0.002108 0.000241 0.001273
0.002143 0.000229 0.00127
0.002197 0.000206 0.001283
0.002252 0.000182 0.001296
0.002302 0.000161 0.001305
0.002349 0.000142 0.001312
0.002394 0.000125 0.001317
0.002436 0.000109 0.001319
0.002475 9.5e-05 0.001319
0.002513 8.1e-05 0.001319
0.00255 6.8e-05 0.001318
0.002065 0.000544 0.002096
0.00142 0.00025 0.001982
0.001432 0.000252 0.001961
0.001448 0.000251 0.001943
0.001484 0.000665 0.002598
0.000507 0.000582 0.002974
0.001793 0.000677 0.002003
0.002065 0.000435 0.002095
0.001473 0.000602 0.002276
0.001486 0.0005 0.002602
0.00149 0.000618 0.002433
0.0021 0.000641 0.002103
0.002055 9e-06 0.002027
0.002073 8e-06 0.00201
0.002088 8e-06 0.00199
0.002104 8e-06 0.001971
0.00212 7e-06 0.001953
0.002136 7e-06 0.001934
0.002151 8e-06 0.001915
0.002166 8e-06 0.001895
0.002179 1e-05 0.001874
0.002189 1.3e-05 0.00185
0.002191 2.2e-05 0.00182
0.00218 3.7e-05 0.001779
0.002157 6.1e-05 0.001728
0.002008 0.000226 0.001351
0.002022 0.000227 0.00133
0.002039 0.000227 0.001312
0.002058 0.000225 0.001296
0.00208 0.000221 0.001282
0.002108 0.000214 0.001273
0.002143 0.000202 0.00127
0.002195 0.00018 0.001281
0.002252 0.000155 0.001296
0.002303 0.000134 0.001306
0.00235 0.000115 0.001312
0.002394 9.8e-05 0.001317
0.002435 8.2e-05 0.001319
0.002476 6.7e-05 0.001321
0.002512 5.5e-05 0.001318
0.002548 4.2e-05 0.001316
0.001422 0.000674 0.001983
0.00142 0.000223 0.001982
0.001432 0.000225 0.001961
0.001448 0.000224 0.001942
0.001221 0.000583 0.002619
0.000507 0.000609 0.002974
0.001422 0.000749 0.002071
0.001487 0.000445 0.002603
0.001681 -3.1e-05 0.00124
0.001474 0.000574 0.002277
0.001491 0.000591 0.002433
0.001917 0.000626 0.002054
0.001599 0.000717 0.001892
0.001837 0.000604 0.002024
0.001492 0.000485 0.002566
0.000669 0.00041 0.002514
0.00206 7e-06 0.001935
0.002075 7e-06 0.001916
0.002091 7e-06 0.001897
0.002107 7e-06 0.001878
0.002123 7e-06 0.001859
0.002139 7e-06 0.001841
0.002154 7e-06 0.001822
0.002167 9e-06 0.0018
0.002169 1.7e-05 0.00177
0.002155 3.5e-05 0.001726
0.002008 0.000199 0.001351
0.002022 0.0002 0.00133
0.002039 0.0002 0.001312
0.002058 0.000198 0.001296
0.00208 0.000193 0.001282
0.002108 0.000186 0.001273
0.002143 0.000174 0.00127
0.002197 0.000152 0.001282
0.002251 0.000128 0.001295
0.002303 0.000106 0.001306
0.00235 8.8e-05 0.001312
0.002394 7e-05 0.001317
0.002435 5.5e-05 0.001319
0.002475 4.1e-05 0.00132
0.002509 2.9e-05 0.001317
0.00254 1.9e-05 0.00131
0.001492 0.000656 0.001911
0.00142 0.000196 0.001982
0.001432 0.000198 0.001961
0.001285 0.000583 0.002661
0.002064 0.000707 0.002095
0.001432 0.000575 0.002654
0.001837 0.000658 0.002023
0.000585 0.000443 0.002894
0.001461 0.000601 0.002214
0.001433 0.000547 0.002656
0.001412 0.000548 0.002668
0.002099 0.000532 0.002104
0.001453 0.000655 0.00194
0.002035 4e-06 0.001883
0.00205 4e-06 0.001864
0.002068 3e-06 0.001846
0.002084 3e-06 0.001827
0.0021 3e-06 0.001809
0.002116 3e-06 0.00179
0.002131 3e-06 0.001771
0.002142 6e-06 0.001747
0.002143 1.5e-05 0.001717
0.001666 -3.1e-05 0.00126
0.002009 0.000172 0.001351
0.002023 0.000173 0.00133
0.002039 0.000173 0.001312
0.002058 0.00017 0.001296
0.00208 0.000166 0.001282
0.002108 0.000159 0.001273
0.002143 0.000147 0.00127
0.002251 0.000101 0.001295
0.002302 8e-05 0.001305
0.00235 6e-05 0.001313
0.002393 4.4e-05 0.001316
0.002434 2.8e-05 0.001319
0.002467 1.8e-05 0.001314
0.002495 1.1e-05 0.001304
0.00078 0.000735 0.002297
0.002029 0.000611 0.002087
0.000599 0.00062 0.002858
0.002029 0.00072 0.002086
0.001438 0.00062 0.00265
0.001004 0.000725 0.00243
0.001747 0.000699 0.001978
0.001413 0.000637 0.002013
0.001482 0.000496 0.002333
0.001455 0.000383 0.002644
0.001153 0.000723 0.00257
0.001957 0.000501 0.002068
0.00165 -3.2e-05 0.001279
0.001634 -3.1e-05 0.001297
0.001972 6e-06 0.001863
0.001988 5e-06 0.001844
0.002004 5e-06 0.001825
0.002052 5e-06 0.001769
0.002066 6e-06 0.001749
0.002082 6e-06 0.00173
0.002098 5e-06 0.001712
0.002112 7e-06 0.001691
0.002115 1.4e-05 0.001662
0.002095 3.6e-05 0.001613
0.002009 0.000145 0.001351
0.002023 0.000146 0.00133
0.002039 0.000146 0.001312
0.002058 0.000143 0.001296
0.00208 0.000139 0.001282
0.002108 0.000132 0.001273
0.002143 0.00012 0.00127
0.002251 7.4e-05 0.001295
0.002303 5.2e-05 0.001306
0.00235 3.3e-05 0.001312
0.002388 1.8e-05 0.001313
0.00242 1e-05 0.001306
0.002443 5e-06 0.001294
0.002462 3e-06 0.001277
0.001472 0.000683 0.001925
0.001474 0.00052 0.002628
0.001454 0.000574 0.002642
0.001453 0.000602 0.002641
0.001472 0.000603 0.002626
0.001218 0.000664 0.002624
0.000508 0.000282 0.002975
0.000733 0.000571 0.002313
0.001747 0.000618 0.001978
0.001814 7e-06 0.001956
0.002065 0.000516 0.002096
0.001619 -3.1e-05 0.001317
0.001956 0.000556 0.002067
0.001924 7e-06 0.001824
0.001941 7e-06 0.001805
0.001154 0.000451 0.002571
0.001566 0.000645 0.001888
0.001603 -3.2e-05 0.001336
0.002004 6e-06 0.00173
0.00202 7e-06 0.001711
0.002035 6e-06 0.001692
0.002051 7e-06 0.001672
0.002067 6e-06 0.001654
0.002083 6e-06 0.001635
0.002087 1.3e-05 0.001606
0.002009 0.000118 0.001351
0.002023 0.000119 0.00133
0.002039 0.000118 0.001312
0.002058 0.000116 0.001296
0.00208 0.000112 0.001282
0.002108 0.000105 0.001273
0.002143 9.3e-05 0.00127
0.002194 7.2e-05 0.00128
0.002251 4.7e-05 0.001295
0.002301 2.6e-05 0.001305
0.002339 1.3e-05 0.001304
0.002362 7e-06 0.001291
0.001433 0.000466 0.002656
0.001491 0.00054 0.002565
0.001411 0.000576 0.002666
0.002125 0.000691 0.002096
0.001485 0.000636 0.002601
0.001878 0.000723 0.00204
0.001646 0.000749 0.001917
0.00053 0.000637 0.002964
0.000636 0.00048 0.002733
0.001763 2e-06 0.001946
0.001779 2e-06 0.001927
0.001794 2e-06 0.001908
0.001474 0.000763 0.001928
0.001697 0.000669 0.001949
0.001587 -3.2e-05 0.001355
0.00186 0.0 0.001834
0.001876 -0.0 0.001816
0.001892 -0.0 0.001797
0.001908 -1e-06 0.001779
0.001472 0.000656 0.001925
0.001539 0.000651 0.001892
0.001571 -3.1e-05 0.001373
0.002034 -1e-06 0.001627
0.002048 0.0 0.001606
0.002059 3e-06 0.001583
0.001996 8.8e-05 0.001373
0.002008 9e-05 0.00135
0.002023 9.2e-05 0.00133
0.002039 9.1e-05 0.001312
0.002058 8.9e-05 0.001296
0.00208 8.5e-05 0.001282
0.002108 7.8e-05 0.001273
0.002142 6.6e-05 0.001269
0.002194 4.4e-05 0.00128
0.00225 2e-05 0.001294
0.002287 7e-06 0.001293
0.001556 -3.1e-05 0.001392
0.002366 7e-06 0.001198
0.00238 8e-06 0.001178
0.001794 0.000568 0.002004
0.001673 0.000754 0.001957
0.001483 0.000739 0.002335
0.002147 0.000689 0.002085
0.002097 0.000697 0.0021
0.000585 0.000606 0.002895
0.001412 0.000521 0.002668
0.001434 0.000438 0.002656
0.000484 0.000392 0.00298
0.001416 0.000743 0.002018
0.001643 0.000697 0.001913
0.000713 0.000675 0.002329
0.001825 3e-06 0.001774
0.00184 4e-06 0.001754
0.001599 0.000635 0.001892
0.00154 -3.1e-05 0.001411
0.001953 2e-06 0.001624
0.001966 3e-06 0.001603
0.001983 3e-06 0.001584
0.001998 3e-06 0.001565
0.002013 4e-06 0.001546
0.002025 6e-06 0.001524
0.001996 6.1e-05 0.001372
0.002008 6.4e-05 0.00135
0.002022 6.4e-05 0.00133
0.002038 6.4e-05 0.001312
0.002057 6.2e-05 0.001295
0.00208 5.8e-05 0.001282
0.002108 5.1e-05 0.001273
0.002142 3.9e-05 0.001269
0.002196 1.6e-05 0.001282
0.002233 3e-06 0.00128
0.002251 2e-06 0.001263
0.002269 1e-06 0.001246
0.002287 -1e-06 0.001229
0.002331 1e-06 0.001169
0.002346 2e-06 0.00115
0.001599 0.000743 0.001893
0.00142 6e-05 0.001983
0.001433 6.1e-05 0.001961
0.001918 0.000734 0.002054
0.002099 0.000668 0.002104
0.002091 0.000729 0.00209
0.002061 0.000737 0.002089
0.001492 0.000475 0.002522
0.001524 -3.1e-05 0.00143
0.001669 4e-06 0.001868
0.000908 -2.7e-05 0.00189
0.000918 0.000458 0.002324
0.001507 -3e-05 0.001448
0.001482 0.000578 0.002333
0.001487 0.000556 0.002385
0.00184 5e-06 0.001658
0.001853 6e-06 0.001638
0.001869 6e-06 0.001619
0.001917 6e-06 0.001562
0.001933 6e-06 0.001543
0.00195 5e-06 0.001525
0.001965 5e-06 0.001506
0.001983 4e-06 0.001489
0.001987 3e-05 0.001397
0.001996 3.4e-05 0.001372
0.002008 3.7e-05 0.00135
0.002022 3.8e-05 0.00133
0.002038 3.7e-05 0.001311
0.002058 3.5e-05 0.001296
0.00208 3.1e-05 0.001282
0.002107 2.4e-05 0.001272
0.002179 -0.0 0.001267
0.002191 1e-06 0.001246
0.002209 0.0 0.001228
0.002221 2e-06 0.001206
0.002237 2e-06 0.001188
0.002269 2e-06 0.00115
0.001491 -3e-05 0.001467
0.001487 0.000472 0.002603
0.001419 3.3e-05 0.001982
0.001473 0.000575 0.002627
0.001493 0.00061 0.002524
0.001472 0.000711 0.002275
0.001492 0.000736 0.002479
0.001487 0.000502 0.002385
0.001474 -2.9e-05 0.001485
0.001622 5e-06 0.00183
0.001636 6e-06 0.00181
0.001652 6e-06 0.001791
0.000637 0.000344 0.002733
0.000678 0.000712 0.002381
0.001492 0.000437 0.002479
0.001794 0.000732 0.002003
0.001515 0.000709 0.0019
0.001776 7e-06 0.001638
0.001792 7e-06 0.001619
0.001808 6e-06 0.001601
0.001824 6e-06 0.001582
0.001841 6e-06 0.001564
0.001856 6e-06 0.001544
0.001871 6e-06 0.001524
0.001887 6e-06 0.001506
0.001903 6e-06 0.001487
0.00192 5e-06 0.001469
0.001936 4e-06 0.00145
0.001967 7e-06 0.001413
0.00198 7e-06 0.001391
0.001995 7e-06 0.001371
0.002007 9e-06 0.00135
0.002022 1e-05 0.00133
0.002039 9e-06 0.001311
0.002058 7e-06 0.001295
0.002082 4e-06 0.001285
0.002102 -1e-06 0.001268
0.001458 -2.9e-05 0.001503
0.00217 6e-06 0.001164
0.002186 6e-06 0.001146
0.002202 5e-06 0.001127
0.002218 5e-06 0.001108
0.001417 7e-06 0.00198
0.001432 7e-06 0.001961
0.000712 0.000567 0.002328
0.001566 0.000672 0.001889
0.001482 0.000523 0.002333
0.001441 -2.8e-05 0.001521
0.001424 -2.8e-05 0.001539
0.001593 5e-06 0.001774
0.001607 6e-06 0.001754
0.001624 5e-06 0.001736
0.001539 0.000705 0.001893
0.001486 0.000418 0.002602
0.001599 0.000689 0.001893
0.000554 0.000338 0.002958
0.000694 0.000587 0.00235
0.001539 0.000733 0.001892
0.0021 0.000477 0.002104
0.002065 0.000489 0.002095
0.001797 5e-06 0.001527
0.001813 5e-06 0.001508
0.001925 4e-06 0.001377
0.001939 4e-06 0.001357
0.002005 3e-06 0.001283
0.002018 4e-06 0.001263
0.00208 5e-06 0.001186
0.002095 5e-06 0.001166
0.00211 6e-06 0.001147
0.002125 6e-06 0.001127
0.00214 6e-06 0.001107
0.002174 5e-06 0.001072
0.001454 5e-06 0.001851
0.001469 6e-06 0.001831
0.001484 6e-06 0.001812
0.001455 0.000437 0.002644
0.001516 5e-06 0.001775
0.001564 5e-06 0.001718
0.00158 5e-06 0.001699
0.001594 6e-06 0.001679
0.001567 0.000699 0.001889
0.001641 0.000671 0.001911
0.001642 5e-06 0.001623
0.001918 0.000571 0.002054
0.001515 0.000736 0.001901
0.001492 0.000738 0.001911
0.001474 0.000466 0.002628
0.001722 4e-06 0.001529
0.001738 4e-06 0.00151
0.001754 4e-06 0.001492
0.001769 4e-06 0.001473
0.001918 0.000598 0.002054
0.001746 0.000673 0.001977
0.001988 5e-06 0.001206
0.002004 4e-06 0.001188
0.002019 5e-06 0.001168
0.002034 5e-06 0.001148
0.00205 5e-06 0.001129
0.002066 5e-06 0.001111
0.00213 4e-06 0.001036
0.002145 4e-06 0.001016
0.002159 5e-06 0.000996
0.002173 6e-06 0.000976
0.001539 0.000759 0.001893
0.001346 5e-06 0.00189
0.001362 5e-06 0.001871
0.001395 4e-06 0.001835
0.001412 3e-06 0.001816
0.001427 3e-06 0.001797
0.001747 0.000591 0.001978
0.001473 4e-06 0.001739
0.001488 5e-06 0.00172
0.001503 5e-06 0.0017
0.001519 5e-06 0.001682
0.000552 0.000639 0.002953
0.001597 5e-06 0.001586
0.001613 5e-06 0.001567
0.001567 0.000726 0.001889
0.001481 0.000686 0.002332
0.001676 5e-06 0.001492
0.001692 5e-06 0.001473
0.001706 6e-06 0.001452
0.001943 5e-06 0.001169
0.001958 5e-06 0.001149
0.001972 6e-06 0.001129
0.001989 5e-06 0.001111
0.002006 5e-06 0.001093
0.002099 4e-06 0.000978
0.002114 5e-06 0.000959
0.002131 5e-06 0.000941
0.001455 0.000465 0.002643
0.001317 5e-06 0.001834
0.000734 0.000462 0.002313
0.001878 0.000587 0.00204
0.001371 0.000615 0.002683
0.00083 0.000756 0.002297
0.001411 0.000676 0.002054
0.001453 0.000682 0.001941
0.001429 3e-06 0.001703
0.001446 3e-06 0.001685
0.001462 3e-06 0.001666
0.001478 2e-06 0.001648
0.001488 0.000705 0.002561
0.002029 0.000557 0.002086
0.001697 0.000696 0.001949
0.001491 0.000455 0.002433
0.001491 0.000421 0.002522
0.001956 0.000583 0.002066
0.001879 0.000505 0.00204
0.002065 0.000462 0.002096
0.001623 -0.0 0.00148
0.001639 -0.0 0.001461
0.001655 -0.0 0.001442
0.001671 -1e-06 0.001423
0.001687 -1e-06 0.001405
0.001887 2e-06 0.001154
0.001901 3e-06 0.001134
0.001917 3e-06 0.001115
0.001932 3e-06 0.001096
0.001947 3e-06 0.001076
0.001962 4e-06 0.001057
0.001977 4e-06 0.001037
0.000669 0.0005 0.002432
0.000532 0.000499 0.00297
0.002154 0.000728 0.002051
0.001278 1e-06 0.001802
0.001295 1e-06 0.001784
0.00131 1e-06 0.001765
0.002114 0.000727 0.002081
0.000531 0.000609 0.002967
0.001491 0.000594 0.002565
0.001492 0.000681 0.00248
0.001395 -4e-06 0.001675
0.001412 -4e-06 0.001657
0.001428 -4e-06 0.001638
0.001444 -5e-06 0.00162
0.001478 0.000697 0.00259
0.001491 0.000719 0.002522
0.001153 0.000615 0.00257
0.001492 0.000637 0.002524
0.001486 0.000609 0.002602
0.001543 -8e-06 0.00151
0.00156 -8e-06 0.001492
0.001576 -8e-06 0.001473
0.001593 -9e-06 0.001455
0.001608 -9e-06 0.001436
0.001624 -9e-06 0.001417
0.00164 -9e-06 0.001398
0.001655 -9e-06 0.001379
0.001671 -9e-06 0.00136
0.001687 -9e-06 0.001341
0.001703 -9e-06 0.001322
0.001717 -9e-06 0.001302
0.001733 -8e-06 0.001283
0.001823 -6e-06 0.001166
0.001838 -6e-06 0.001147
0.001853 -5e-06 0.001127
0.001868 -4e-06 0.001107
0.001883 -4e-06 0.001087
0.001897 -3e-06 0.001067
0.001911 -2e-06 0.001047
0.001927 -2e-06 0.001028
0.001941 -1e-06 0.001008
0.001956 -1e-06 0.000988
0.001747 0.000563 0.001978
0.000885 0.000581 0.002302
0.002135 0.000726 0.002068
0.001245 -6e-06 0.001775
0.001262 -7e-06 0.001757
0.00128 -8e-06 0.00174
0.001458 0.000652 0.002632
0.001993 0.000651 0.002077
0.001486 0.000581 0.002602
0.001487 0.000665 0.002384
0.002065 0.000653 0.002095
0.001383 -1.3e-05 0.001633
0.001399 -1.4e-05 0.001615
0.001416 -1.5e-05 0.001597
0.001372 0.00056 0.002685
0.001449 -1.6e-05 0.00156
0.001466 -1.6e-05 0.001542
0.001483 -1.7e-05 0.001524
0.001499 -1.8e-05 0.001506
0.001516 -1.8e-05 0.001487
0.001532 -1.8e-05 0.001469
0.001548 -1.9e-05 0.00145
0.001564 -1.9e-05 0.001431
0.00158 -1.9e-05 0.001413
0.001596 -1.9e-05 0.001394
0.001612 -1.9e-05 0.001375
0.001628 -1.9e-05 0.001356
0.001643 -1.9e-05 0.001337
0.001659 -1.9e-05 0.001318
0.001674 -1.9e-05 0.001299
0.00169 -1.9e-05 0.00128
0.001705 -1.9e-05 0.00126
0.00172 -1.8e-05 0.001241
0.001735 -1.8e-05 0.001221
0.00175 -1.8e-05 0.001202
0.001766 -1.7e-05 0.001183
0.00178 -1.7e-05 0.001162
0.001795 -1.6e-05 0.001143
0.001809 -1.5e-05 0.001123
0.001824 -1.5e-05 0.001103
0.001838 -1.4e-05 0.001083
0.001853 -1.3e-05 0.001063
0.001868 -1.3e-05 0.001044
0.001883 -1.2e-05 0.001024
0.001794 0.000542 0.002003
0.000829 0.00046 0.002288
0.001993 0.000488 0.002077
0.001286 0.000528 0.002662
0.001436 0.000679 0.00196
0.001413 0.000664 0.002013
0.001838 0.000576 0.002024
0.001491 0.000458 0.002566
0.001474 0.000438 0.002628
0.000829 0.000487 0.002288
0.000678 0.000684 0.002381
0.000694 0.000696 0.002351
0.001154 0.000315 0.00257
0.000677 0.000468 0.002379
0.000804 0.000707 0.002291
0.001367 0.000361 0.002687
0.001389 0.00036 0.002678
0.001412 0.000358 0.002668
0.001434 0.000356 0.002657
0.001455 0.000356 0.002644
0.001474 0.000357 0.002628
0.001486 0.000364 0.002602
0.00149 0.000378 0.002563
0.001492 0.000393 0.002522
0.001491 0.00041 0.002478
0.001491 0.000427 0.002434
0.001487 0.000448 0.002384
0.001482 0.000469 0.002333
0.001472 0.000493 0.002275
0.00146 0.00052 0.002214
0.001453 0.000628 0.00194
0.001472 0.000629 0.001925
0.001492 0.000629 0.00191
0.001514 0.000628 0.001899
0.001539 0.000624 0.001891
0.001566 0.000618 0.001888
0.001599 0.000608 0.001892
0.001642 0.000589 0.001912
0.001698 0.00056 0.00195
0.001747 0.000536 0.001978
0.001794 0.000514 0.002003
0.001837 0.000496 0.002022
0.001879 0.000478 0.00204
0.001918 0.000462 0.002055
0.001957 0.000447 0.002068
0.001993 0.000433 0.002077
0.00203 0.00042 0.002088
0.002065 0.000408 0.002096
0.0021 0.000396 0.002105
0.001154 0.000369 0.002571
0.000532 0.000417 0.00297
0.000554 0.000419 0.002958
0.000599 0.000321 0.002858
0.000829 0.000568 0.002288
0.000779 0.000572 0.002295
0.000586 0.000334 0.002896
0.000571 0.00032 0.00293
0.001153 0.000669 0.002569
0.001367 0.000334 0.002688
0.00139 0.000332 0.002679
0.001412 0.000331 0.002668
0.001434 0.00033 0.002656
0.001455 0.000329 0.002643
0.001474 0.00033 0.002628
0.001486 0.000337 0.002602
0.00149 0.000351 0.002563
0.001492 0.000366 0.002522
0.001492 0.000383 0.002479
0.00149 0.000401 0.002433
0.001487 0.00042 0.002384
0.001482 0.000441 0.002333
0.001453 0.000601 0.00194
0.001472 0.000602 0.001924
0.001492 0.000602 0.00191
0.001514 0.0006 0.001899
0.001539 0.000597 0.001891
0.001566 0.000591 0.001888
0.001599 0.000581 0.001893
0.001643 0.000561 0.001913
0.001697 0.000533 0.001949
0.001747 0.000509 0.001978
0.001793 0.000487 0.002003
0.001837 0.000468 0.002023
0.001879 0.00045 0.002041
0.001918 0.000435 0.002055
0.001957 0.00042 0.002068
0.001994 0.000406 0.002078
0.00203 0.000393 0.002087
0.002065 0.000381 0.002096
0.0021 0.000369 0.002105
0.001188 0.000353 0.002597
0.000636 0.000507 0.002733
0.000855 0.000645 0.002291
0.000803 0.000571 0.00229
0.000779 0.000681 0.002296
0.000532 0.000444 0.002971
0.001317 0.000652 0.002679
0.001367 0.000307 0.002688
0.001389 0.000305 0.002678
0.001412 0.000304 0.002667
0.001433 0.000303 0.002655
0.001455 0.000302 0.002643
0.001474 0.000303 0.002628
0.001486 0.000309 0.002602
0.00149 0.000323 0.002564
0.001491 0.000339 0.002522
0.001492 0.000355 0.002479
0.001491 0.000373 0.002433
0.001487 0.000393 0.002384
0.001482 0.000414 0.002333
0.001473 0.000438 0.002276
0.001459 0.000467 0.002212
0.001413 0.000556 0.002013
0.001453 0.000574 0.00194
0.001472 0.000575 0.001924
0.001492 0.000575 0.00191
0.001514 0.000573 0.001899
0.001539 0.00057 0.001891
0.001567 0.000563 0.001889
0.001599 0.000554 0.001892
0.001643 0.000534 0.001913
0.001698 0.000506 0.00195
0.001748 0.000481 0.001979
0.001794 0.00046 0.002003
0.001837 0.000441 0.002023
0.001879 0.000423 0.00204
0.001919 0.000407 0.002055
0.001957 0.000393 0.002067
0.001994 0.000379 0.002078
0.00203 0.000366 0.002087
0.002065 0.000354 0.002097
0.0021 0.000341 0.002106
0.001045 0.000373 0.002475
0.000677 0.00055 0.002379
0.000571 0.000239 0.00293
0.000694 0.000479 0.00235
0.001083 0.000596 0.002512
0.001346 0.000646 0.002685
0.001368 0.000279 0.00269
0.001393 0.000275 0.002684
0.001412 0.000277 0.002667
0.001433 0.000276 0.002655
0.001455 0.000275 0.002643
0.001474 0.000275 0.002628
0.001486 0.000282 0.002602
0.00149 0.000296 0.002564
0.001492 0.000311 0.002523
0.001492 0.000328 0.002479
0.001491 0.000346 0.002433
0.001487 0.000366 0.002385
0.001473 0.000412 0.002275
0.00146 0.000439 0.002213
0.001413 0.000529 0.002012
0.001421 0.000538 0.001981
0.001435 0.000544 0.001958
0.001453 0.000547 0.00194
0.001472 0.000548 0.001924
0.001492 0.000548 0.00191
0.001514 0.000546 0.001899
0.001539 0.000542 0.001892
0.001567 0.000536 0.001889
0.0016 0.000526 0.001893
0.001642 0.000508 0.001911
0.001697 0.000479 0.001948
0.001748 0.000454 0.001979
0.001793 0.000433 0.002003
0.001837 0.000414 0.002023
0.001879 0.000396 0.002041
0.001919 0.00038 0.002055
0.001957 0.000365 0.002068
0.001994 0.000352 0.002078
0.002029 0.000339 0.002088
0.002065 0.000326 0.002098
0.0021 0.000314 0.002106
0.001221 0.000338 0.00262
0.000693 0.00056 0.00235
0.000668 0.000528 0.002432
0.000625 0.000353 0.002777
0.000613 0.000337 0.002819
0.001348 0.000343 0.00269
0.001401 0.000241 0.002696
0.001413 0.000248 0.00267
0.001434 0.000248 0.002656
0.001457 0.000245 0.002647
0.001477 0.000246 0.002632
0.001487 0.000254 0.002603
0.00149 0.000269 0.002564
0.001492 0.000284 0.002523
0.001493 0.0003 0.00248
0.00149 0.000319 0.002433
0.001487 0.000339 0.002385
0.001482 0.00036 0.002332
0.001472 0.000385 0.002275
0.001459 0.000413 0.002212
0.001413 0.000485 0.002056
0.001412 0.000502 0.002012
0.001421 0.000511 0.001981
0.001435 0.000517 0.001958
0.001453 0.000519 0.00194
0.001472 0.000521 0.001924
0.001492 0.000521 0.00191
0.001514 0.000519 0.001899
0.001539 0.000515 0.001892
0.001567 0.000509 0.001889
0.0016 0.000499 0.001893
0.001643 0.00048 0.001913
0.001698 0.000451 0.00195
0.001748 0.000427 0.001979
0.001795 0.000405 0.002005
0.001837 0.000386 0.002023
0.001879 0.000369 0.00204
0.001918 0.000353 0.002054
0.001957 0.000338 0.002068
0.001994 0.000324 0.002079
0.002029 0.000312 0.002088
0.002065 0.000299 0.002098
0.001119 0.000469 0.002542
0.001045 0.000509 0.002475
0.000693 0.000452 0.002349
0.000756 0.000464 0.002302
0.000625 0.000272 0.002777
0.000779 0.000491 0.002295
0.000756 0.000491 0.002302
0.001397 0.000217 0.00269
0.001414 0.00022 0.002671
0.001435 0.00022 0.002657
0.001457 0.000219 0.002646
0.001475 0.00022 0.002629
0.001487 0.000227 0.002603
0.00149 0.000242 0.002563
0.001492 0.000257 0.002522
0.001493 0.000273 0.00248
0.001491 0.000292 0.002433
0.001487 0.000312 0.002384
0.001481 0.000333 0.002332
0.001411 0.000459 0.002054
0.001413 0.000475 0.002012
0.001421 0.000484 0.001981
0.001435 0.000489 0.001958
0.001453 0.000492 0.00194
0.001472 0.000493 0.001924
0.001492 0.000493 0.00191
0.001514 0.000492 0.001899
0.001539 0.000488 0.001892
0.001567 0.000482 0.001889
0.0016 0.000472 0.001893
0.001643 0.000453 0.001913
0.001698 0.000424 0.00195
0.001748 0.000399 0.00198
0.001794 0.000378 0.002004
0.001837 0.00036 0.002023
0.001878 0.000342 0.00204
0.001918 0.000326 0.002054
0.001957 0.000311 0.002067
0.001994 0.000297 0.002078
0.00203 0.000284 0.002088
0.002066 0.000271 0.002098
0.001083 0.000488 0.002511
0.001395 0.000398 0.002675
0.001372 0.000396 0.002686
0.000637 0.00029 0.002733
0.000829 0.000677 0.002289
0.000804 0.00068 0.002291
0.001254 0.000269 0.002641
0.000663 0.000383 0.002575
0.001395 0.00037 0.002676
0.001412 0.000195 0.002667
0.001433 0.000194 0.002655
0.001454 0.000193 0.002643
0.001473 0.000195 0.002626
0.001486 0.000201 0.002602
0.00149 0.000215 0.002563
0.001492 0.00023 0.002522
0.001492 0.000247 0.002479
0.001491 0.000265 0.002433
0.001487 0.000284 0.002384
0.001482 0.000306 0.002332
0.001472 0.00033 0.002275
0.001459 0.000358 0.002212
0.001412 0.000448 0.002012
0.001421 0.000457 0.001981
0.001435 0.000462 0.001958
0.001452 0.000465 0.00194
0.001472 0.000466 0.001924
0.001492 0.000466 0.00191
0.001514 0.000464 0.001899
0.001539 0.000461 0.001892
0.001567 0.000454 0.001889
0.0016 0.000444 0.001893
0.001643 0.000425 0.001914
0.001698 0.000397 0.00195
0.001748 0.000372 0.00198
0.001795 0.000351 0.002004
0.001837 0.000332 0.002023
0.001879 0.000315 0.00204
0.001918 0.000299 0.002055
0.001957 0.000284 0.002067
0.001994 0.00027 0.002078
0.002029 0.000257 0.002087
0.002066 0.000244 0.002097
0.0021 0.000232 0.002105
0.000712 0.000621 0.002329
0.000571 0.000429 0.00293
0.001348 0.000397 0.00269
0.000919 0.00043 0.002325
0.000586 0.000251 0.002897
0.001318 0.000488 0.002679
0.000508 0.000472 0.002976
0.001044 0.000645 0.002474
0.000508 0.000527 0.002976
0.001411 0.000168 0.002666
0.001433 0.000168 0.002654
0.001453 0.000167 0.002641
0.001472 0.000169 0.002625
0.001486 0.000174 0.002602
0.00149 0.000187 0.002564
0.001492 0.000203 0.002523
0.001492 0.000219 0.002479
0.001491 0.000237 0.002434
0.001488 0.000257 0.002385
0.001481 0.000279 0.002332
0.001472 0.000304 0.002275
0.001459 0.000331 0.002212
0.001412 0.00042 0.002012
0.001421 0.00043 0.001981
0.001436 0.000435 0.001958
0.001453 0.000438 0.00194
0.001472 0.000439 0.001924
0.001492 0.000439 0.00191
0.001514 0.000437 0.001899
0.001539 0.000434 0.001892
0.001567 0.000427 0.001889
0.0016 0.000417 0.001894
0.001642 0.000399 0.001912
0.001698 0.00037 0.00195
0.001748 0.000345 0.00198
0.001794 0.000324 0.002004
0.001837 0.000305 0.002023
0.001878 0.000288 0.002039
0.001919 0.000272 0.002055
0.001957 0.000257 0.002067
0.001994 0.000243 0.002078
0.00203 0.00023 0.002087
0.002066 0.000217 0.002096
0.0021 0.000205 0.002104
0.001188 0.000381 0.002596
0.001188 0.000517 0.002596
0.001118 0.000551 0.002541
0.000803 0.00049 0.00229
0.000856 0.000536 0.002291
0.001082 0.000623 0.002511
0.001118 0.000686 0.002543
0.001347 0.000617 0.002688
0.00141 0.000142 0.002664
0.001431 0.000142 0.002652
0.001451 0.000142 0.002638
0.001471 0.000143 0.002622
0.001485 0.000148 0.002599
0.00149 0.00016 0.002563
0.001492 0.000176 0.002522
0.001492 0.000192 0.002479
0.001491 0.00021 0.002434
0.001488 0.00023 0.002385
0.001482 0.000251 0.002333
0.001472 0.000277 0.002274
0.001412 0.000377 0.002055
0.001412 0.000393 0.002012
0.001421 0.000402 0.001982
0.001436 0.000408 0.001958
0.001453 0.000411 0.001939
0.001472 0.000412 0.001924
0.001492 0.000412 0.00191
0.001514 0.00041 0.001899
0.001539 0.000406 0.001892
0.001567 0.0004 0.00189
0.0016 0.00039 0.001893
0.001642 0.000372 0.001911
0.001698 0.000343 0.001949
0.001748 0.000318 0.00198
0.001795 0.000296 0.002004
0.001837 0.000278 0.002023
0.001878 0.000261 0.00204
0.001918 0.000245 0.002054
0.001956 0.00023 0.002067
0.001994 0.000216 0.002078
0.00203 0.000203 0.002087
0.002066 0.00019 0.002096
0.002101 0.000178 0.002105
0.000586 0.000306 0.002897
0.001154 0.000533 0.002571
0.001083 0.000569 0.002512
0.000636 0.000399 0.002733
0.000599 0.000349 0.002857
0.000585 0.000497 0.002895
0.000656 0.000711 0.002635
0.001394 0.000644 0.002672
0.001407 0.000118 0.002659
0.001428 0.000117 0.002647
0.001448 0.000117 0.002634
0.001468 0.000118 0.002618
0.001484 0.000122 0.002598
0.00149 0.000133 0.002563
0.001492 0.000149 0.002522
0.001492 0.000165 0.002479
0.001491 0.000183 0.002434
0.001488 0.000203 0.002385
0.001483 0.000224 0.002334
0.001472 0.000249 0.002274
0.001411 0.00035 0.002054
0.001412 0.000366 0.002012
0.001421 0.000375 0.001981
0.001435 0.000381 0.001958
0.001453 0.000384 0.001939
0.001472 0.000385 0.001924
0.001492 0.000385 0.00191
0.001514 0.000383 0.001899
0.001539 0.000379 0.001892
0.001567 0.000373 0.001889
0.0016 0.000363 0.001894
0.001643 0.000344 0.001912
0.001698 0.000316 0.001949
0.001749 0.00029 0.00198
0.001794 0.00027 0.002003
0.001837 0.000251 0.002023
0.001879 0.000233 0.00204
0.001918 0.000217 0.002054
0.001957 0.000202 0.002067
0.001994 0.000189 0.002078
0.00203 0.000176 0.002086
0.002066 0.000162 0.002097
0.0021 0.000151 0.002104
0.002131 0.000142 0.002105
0.001005 0.000507 0.002432
0.000734 0.000706 0.002314
0.000779 0.000708 0.002296
0.000756 0.000599 0.002303
0.000669 0.000554 0.002433
0.000554 0.000446 0.002958
0.000677 0.000739 0.002381
0.001082 0.000732 0.002511
0.001402 9.4e-05 0.002653
0.001424 9.3e-05 0.002641
0.001445 9.3e-05 0.002628
0.001464 9.4e-05 0.002612
0.001481 9.7e-05 0.002593
0.001489 0.000106 0.002562
0.001491 0.000122 0.002521
0.001492 0.000138 0.002479
0.001492 0.000155 0.002434
0.001488 0.000175 0.002385
0.001482 0.000197 0.002333
0.001472 0.000222 0.002274
0.00146 0.000249 0.002213
0.00141 0.000324 0.002052
0.001412 0.000339 0.002011
0.001422 0.000348 0.001982
0.001435 0.000354 0.001958
0.001452 0.000357 0.001939
0.001472 0.000358 0.001924
0.001492 0.000357 0.00191
0.001514 0.000356 0.001899
0.001539 0.000352 0.001891
0.001567 0.000346 0.001889
0.0016 0.000335 0.001894
0.001643 0.000317 0.001912
0.001698 0.000288 0.00195
0.001748 0.000263 0.00198
0.001794 0.000242 0.002004
0.001837 0.000224 0.002023
0.001879 0.000206 0.00204
0.001918 0.00019 0.002054
0.001959 0.000174 0.00207
0.001994 0.000162 0.002077
0.00203 0.000148 0.002087
0.002066 0.000136 0.002096
0.0021 0.000124 0.002103
0.00213 0.000117 0.002102
0.000756 0.000654 0.002303
0.000756 0.000708 0.002304
0.000713 0.000702 0.00233
0.00067 0.000571 0.002517
0.000677 0.000576 0.00238
0.000694 0.000669 0.002351
0.000571 0.000483 0.00293
0.000532 0.000553 0.002969
0.000636 0.000724 0.002734
0.001418 7.1e-05 0.002632
0.001439 7.1e-05 0.002619
0.001459 7.1e-05 0.002605
0.001476 7.4e-05 0.002586
0.001488 8.1e-05 0.00256
0.001491 9.5e-05 0.002521
0.001492 0.000111 0.002478
0.001488 0.000148 0.002385
0.001482 0.00017 0.002333
0.001472 0.000195 0.002274
0.001458 0.000223 0.00221
0.001411 0.000296 0.002054
0.001412 0.000312 0.002011
0.001421 0.000321 0.001981
0.001435 0.000327 0.001958
0.001452 0.000329 0.001939
0.001472 0.00033 0.001924
0.001492 0.00033 0.00191
0.001514 0.000329 0.001899
0.001539 0.000325 0.001892
0.001567 0.000318 0.001889
0.001601 0.000308 0.001894
0.001642 0.00029 0.001912
0.001748 0.000236 0.001979
0.001794 0.000215 0.002003
0.001838 0.000196 0.002024
0.001879 0.000179 0.00204
0.001918 0.000163 0.002054
0.001958 0.000147 0.002069
0.001994 0.000134 0.002078
0.00203 0.000121 0.002087
0.002066 0.000108 0.002096
0.002099 9.8e-05 0.002101
0.002126 9.2e-05 0.002097
0.001221 0.000475 0.002618
0.001417 0.000453 0.002665
0.001348 0.000452 0.002689
0.000668 0.000446 0.002432
0.000656 0.000359 0.002632
0.000664 0.000572 0.002577
0.000599 0.000511 0.002858
0.000636 0.000643 0.002733
0.001187 0.000707 0.002596
0.00141 5.1e-05 0.002621
0.001431 5e-05 0.002607
0.001451 5e-05 0.002593
0.001469 5.2e-05 0.002576
0.001483 5.7e-05 0.002553
0.00149 6.8e-05 0.00252
0.001491 8.4e-05 0.002478
0.001491 0.000101 0.002434
0.001489 0.00012 0.002386
0.001482 0.000143 0.002333
0.001458 0.000196 0.002211
0.001437 0.00023 0.002136
0.001412 0.000268 0.002056
0.001412 0.000285 0.002012
0.001421 0.000294 0.001981
0.001435 0.000299 0.001958
0.001453 0.000302 0.001939
0.001472 0.000303 0.001924
0.001492 0.000303 0.00191
0.001514 0.000302 0.001899
0.001539 0.000298 0.001892
0.001567 0.000291 0.00189
0.0016 0.000281 0.001894
0.001643 0.000262 0.001913
0.001698 0.000234 0.00195
0.001748 0.000209 0.00198
0.001794 0.000188 0.002003
0.001837 0.000169 0.002023
0.001879 0.000151 0.002041
0.001918 0.000136 0.002054
0.001957 0.000121 0.002067
0.001994 0.000107 0.002077
0.002031 9.4e-05 0.002088
0.002066 8.1e-05 0.002096
0.002096 7.3e-05 0.002097
0.002121 7e-05 0.002089
0.001221 0.000393 0.002619
0.001372 0.000451 0.002685
0.001318 0.000461 0.002679
0.000919 0.000593 0.002326
0.001187 0.000435 0.002595
0.000678 0.000657 0.002382
0.000637 0.000561 0.002734
0.001254 0.000596 0.002641
0.000647 0.000744 0.002686
0.0014 3.2e-05 0.002606
0.001421 3.1e-05 0.002592
0.00144 3.2e-05 0.002578
0.001459 3.3e-05 0.002562
0.001475 3.7e-05 0.002541
0.001487 4.4e-05 0.002516
0.001491 5.8e-05 0.002476
0.001491 7.4e-05 0.002433
0.001489 9.3e-05 0.002387
0.001482 0.000115 0.002333
0.001411 0.000242 0.002053
0.001412 0.000258 0.002012
0.001421 0.000267 0.001981
0.001435 0.000272 0.001958
0.001452 0.000275 0.001939
0.001472 0.000276 0.001924
0.001492 0.000276 0.00191
0.001514 0.000274 0.001899
0.001539 0.000271 0.001892
0.001568 0.000264 0.001889
0.001601 0.000254 0.001894
0.001644 0.000235 0.001914
0.001698 0.000206 0.00195
0.001748 0.000182 0.00198
0.001794 0.000161 0.002003
0.001838 0.000142 0.002023
0.001879 0.000124 0.00204
0.001918 0.000109 0.002054
0.001957 9.4e-05 0.002067
0.001993 8e-05 0.002077
0.00203 6.7e-05 0.002086
0.002064 5.6e-05 0.002093
0.00209 5.1e-05 0.002088
0.002113 4.8e-05 0.002078
0.000734 0.000489 0.002313
0.000656 0.000548 0.002634
0.001395 0.000452 0.002675
0.000554 0.000257 0.002957
0.000856 0.00059 0.002291
0.000663 0.000492 0.002575
0.001005 0.000534 0.002431
0.000612 0.000473 0.002819
0.001253 0.000542 0.002641
0.000483 0.000555 0.00298
0.000646 0.000718 0.002684
0.00122 0.000692 0.00262
0.001407 1.6e-05 0.002572
0.001427 1.6e-05 0.002558
0.001446 1.7e-05 0.002542
0.001463 1.9e-05 0.002524
0.001478 2.4e-05 0.002501
0.001487 3.4e-05 0.002471
0.00149 4.8e-05 0.002432
0.001488 6.6e-05 0.002385
0.001482 8.9e-05 0.002332
0.001471 0.000114 0.002272
0.001452 0.000248 0.001939
0.001471 0.000249 0.001923
0.001492 0.000249 0.001909
0.001514 0.000247 0.001899
0.001539 0.000243 0.001892
0.001568 0.000237 0.00189
0.0016 0.000227 0.001893
0.001644 0.000207 0.001914
0.001698 0.000179 0.00195
0.001749 0.000154 0.00198
0.001793 0.000134 0.002002
0.001838 0.000114 0.002024
0.001879 9.7e-05 0.00204
0.001918 8.2e-05 0.002054
0.001957 6.7e-05 0.002067
0.001993 5.4e-05 0.002076
0.002027 4.2e-05 0.002082
0.002057 3.4e-05 0.002083
0.002082 3e-05 0.002076
0.000571 0.000347 0.002931
0.000599 0.000403 0.002857
0.000585 0.000389 0.002894
0.000571 0.000266 0.00293
0.001318 0.000407 0.002679
0.000647 0.000526 0.002686
0.000483 0.000447 0.002979
0.001153 0.000587 0.00257
0.001118 0.000659 0.002541
0.001082 0.000678 0.002511
0.000585 0.000578 0.002895
0.000781 0.00076 0.002301
0.001394 0.000588 0.002675
0.000625 0.00068 0.002777
0.001423 9e-06 0.002509
0.001443 9e-06 0.002494
0.001461 1.1e-05 0.002476
0.001475 1.6e-05 0.002454
0.001485 2.5e-05 0.002424
0.001487 4.1e-05 0.002383
0.001482 6.1e-05 0.002332
0.001411 0.000187 0.002054
0.001412 0.000203 0.002011
0.001452 0.000221 0.001939
0.001471 0.000222 0.001923
0.001492 0.000222 0.001909
0.001514 0.00022 0.001899
0.001539 0.000216 0.001892
0.001568 0.00021 0.001889
0.0016 0.000199 0.001894
0.001644 0.00018 0.001914
0.001699 0.000152 0.001951
0.001749 0.000127 0.001981
0.001794 0.000107 0.002003
0.001838 8.7e-05 0.002024
0.001879 7e-05 0.00204
0.001918 5.5e-05 0.002053
0.001955 4.1e-05 0.002065
0.001989 2.9e-05 0.002071
0.002019 2.1e-05 0.002071
0.002045 1.7e-05 0.002065
0.002068 1.5e-05 0.002056
0.000779 0.000464 0.002295
0.000856 0.000699 0.002292
0.000554 0.000203 0.002956
0.001287 0.000282 0.002663
0.001221 0.000502 0.002619
0.000571 0.000511 0.002929
0.000664 0.00068 0.00258
0.001269 7e-06 0.002545
0.000733 0.000544 0.002313
0.001083 0.000406 0.002512
0.000571 0.000293 0.00293
0.000918 0.000539 0.002325
0.001188 0.000408 0.002596
0.000625 0.000544 0.002777
0.001412 8e-06 0.002448
0.001434 7e-06 0.002437
0.001453 7e-06 0.002422
0.00147 1e-05 0.002402
0.00148 1.9e-05 0.002373
0.001481 3.5e-05 0.00233
0.001471 6e-05 0.002273
0.001412 0.000159 0.002055
0.001412 0.000176 0.002011
0.001421 0.000186 0.00198
0.001435 0.000191 0.001957
0.001452 0.000194 0.001938
0.001471 0.000195 0.001923
0.001492 0.000195 0.001909
0.001514 0.000193 0.001899
0.001539 0.000189 0.001892
0.001568 0.000182 0.00189
0.001601 0.000172 0.001894
0.001698 0.000125 0.00195
0.001748 0.000101 0.001979
0.001795 7.8e-05 0.002005
0.001839 5.9e-05 0.002025
0.001878 4.4e-05 0.002039
0.001916 2.9e-05 0.00205
0.001949 1.9e-05 0.002056
0.001977 1.2e-05 0.002053
0.002 1e-05 0.002043
0.002023 8e-06 0.002033
0.002044 8e-06 0.002019
0.002065 7e-06 0.002006
0.002085 7e-06 0.001993
0.000613 0.000418 0.002819
0.000885 0.00069 0.002302
0.000829 0.000704 0.00229
0.000647 0.000499 0.002686
0.000693 0.000533 0.002349
0.001395 0.000479 0.002676
0.000585 0.000525 0.002894
0.001222 3e-06 0.002519
0.001242 3e-06 0.002505
0.001263 2e-06 0.002493
0.000856 0.000481 0.002292
0.000613 0.000527 0.002819
0.001369 0.000673 0.002676
0.001404 4e-06 0.002393
0.001425 4e-06 0.002379
0.001445 4e-06 0.002366
0.001462 6e-06 0.002348
0.001472 1.5e-05 0.002318
0.001471 3.3e-05 0.002273
0.001457 6.1e-05 0.002208
0.001412 0.000132 0.002055
0.001412 0.000149 0.002012
0.001421 0.000158 0.00198
0.001435 0.000164 0.001957
0.001452 0.000167 0.001938
0.001471 0.000168 0.001923
0.001492 0.000168 0.001909
0.001514 0.000166 0.001899
0.001539 0.000162 0.001892
0.001568 0.000155 0.001889
0.001601 0.000145 0.001894
0.001643 0.000127 0.001912
0.001748 7.3e-05 0.00198
0.001795 5.2e-05 0.002004
0.001838 3.3e-05 0.002023
0.001875 1.9e-05 0.002034
0.001906 1e-05 0.002036
0.001932 5e-06 0.002031
0.001953 5e-06 0.002017
0.001973 5e-06 0.002004
0.001993 5e-06 0.001989
0.002013 6e-06 0.001975
0.002033 7e-06 0.001959
0.002053 7e-06 0.001945
0.000678 0.00063 0.002381
0.000918 0.000676 0.002324
0.001004 0.000616 0.00243
0.000532 0.00039 0.00297
0.000886 0.000499 0.002303
