0.00102 0.000205 -0.002817
0.000996 0.000204 -0.002825
0.000973 0.000204 -0.002832
0.000948 0.000206 -0.002835
0.000919 0.000214 -0.002824
0.000887 0.000229 -0.0028
0.000854 0.000246 -0.002772
0.00082 0.000264 -0.002742
0.000786 0.000282 -0.002709
0.000749 0.000305 -0.00267
0.000432 0.000487 -0.002353
0.000408 0.000488 -0.002358
0.000384 0.000487 -0.002367
0.000362 0.000484 -0.002379
0.000341 0.000479 -0.002396
0.000322 0.000471 -0.002418
0.000306 0.000457 -0.002454
0.000297 0.000432 -0.002512
0.000287 0.000407 -0.002571
0.000276 0.000385 -0.002622
0.000262 0.000367 -0.002666
0.000249 0.000349 -0.00271
0.000234 0.000333 -0.00275
0.000219 0.000318 -0.002787
0.000203 0.000305 -0.002822
0.000189 0.000292 -0.002855
0.000173 0.00028 -0.002889
0.001125 0.000723 -0.002126
0.001093 0.000574 -0.002729
0.001727 0.000594 -0.002352
0.001827 0.000588 -0.002373
0.002415 0.000648 -0.001663
0.001094 0.000748 -0.002218
0.001145 0.00075 -0.002113
0.002452 0.000526 -0.001663
0.001755 0.000747 -0.001731
0.001119 0.000688 -0.002493
0.001082 0.000188 -0.002774
0.001064 0.000182 -0.002795
0.001042 0.000179 -0.002807
0.001019 0.000178 -0.002816
0.000996 0.000177 -0.002824
0.000972 0.000178 -0.002831
0.000947 0.00018 -0.002833
0.000919 0.000187 -0.002824
0.000887 0.000202 -0.0028
0.000854 0.000218 -0.002773
0.00082 0.000237 -0.002742
0.000786 0.000255 -0.00271
0.000749 0.000278 -0.002669
0.000432 0.00046 -0.002353
0.000408 0.00046 -0.002358
0.000384 0.00046 -0.002367
0.000362 0.000457 -0.002379
0.000341 0.000451 -0.002396
0.000322 0.000443 -0.00242
0.000307 0.000429 -0.002456
0.000288 0.000379 -0.002572
0.000276 0.000358 -0.002622
0.000263 0.00034 -0.002667
0.000249 0.000322 -0.00271
0.000234 0.000307 -0.002749
0.000219 0.000292 -0.002786
0.000203 0.000278 -0.002822
0.000189 0.000265 -0.002856
0.001294 0.000675 -0.002072
0.001932 0.000524 -0.002263
0.001902 0.000529 -0.002095
0.001101 0.000667 -0.002695
0.001106 0.00068 -0.002657
0.001117 0.000617 -0.002536
0.001124 0.000669 -0.002126
0.002507 0.00054 -0.001646
0.001086 0.000454 -0.002764
0.002505 0.000595 -0.001644
0.002412 0.000736 -0.001258
0.001082 0.000162 -0.002773
0.001064 0.000156 -0.002793
0.001042 0.000153 -0.002805
0.001019 0.000152 -0.002815
0.000996 0.000151 -0.002823
0.000972 0.000152 -0.002828
0.000947 0.000154 -0.002831
0.000919 0.00016 -0.002823
0.000887 0.000175 -0.0028
0.000854 0.000191 -0.002773
0.00082 0.000209 -0.002742
0.000786 0.000228 -0.00271
0.00075 0.000249 -0.002672
0.000432 0.000433 -0.002353
0.000408 0.000433 -0.002358
0.000384 0.000432 -0.002367
0.000362 0.00043 -0.002379
0.000341 0.000424 -0.002396
0.000322 0.000416 -0.00242
0.000306 0.000402 -0.002455
0.000288 0.000352 -0.002572
0.000276 0.000331 -0.002622
0.000263 0.000312 -0.002667
0.000249 0.000295 -0.002709
0.000234 0.00028 -0.002748
0.000219 0.000265 -0.002786
0.000203 0.000251 -0.002821
0.000189 0.000238 -0.002856
0.001514 0.000554 -0.002242
0.001114 0.000628 -0.002579
0.00241 0.000628 -0.001258
0.00111 0.000694 -0.002619
0.001765 0.000606 -0.002367
0.001801 0.000512 -0.002377
0.001842 0.000518 -0.002373
0.001119 0.000543 -0.002446
0.001687 0.000584 -0.002334
0.001082 0.000136 -0.002771
0.001063 0.00013 -0.002789
0.001041 0.000128 -0.002801
0.001018 0.000127 -0.002811
0.000994 0.000126 -0.002818
0.00097 0.000126 -0.002824
0.000946 0.000128 -0.002828
0.000919 0.000134 -0.002821
0.000887 0.000148 -0.0028
0.000854 0.000164 -0.002773
0.00082 0.000182 -0.002742
0.000786 0.0002 -0.002711
0.000749 0.000222 -0.002672
0.000432 0.000405 -0.002353
0.000408 0.000406 -0.002358
0.000384 0.000405 -0.002367
0.000362 0.000402 -0.002379
0.000341 0.000397 -0.002396
0.000322 0.000389 -0.00242
0.000306 0.000375 -0.002455
0.000297 0.00035 -0.002514
0.000288 0.000324 -0.002573
0.000275 0.000304 -0.002621
0.000262 0.000286 -0.002666
0.000249 0.000268 -0.00271
0.000234 0.000252 -0.00275
0.000219 0.000237 -0.002786
0.000203 0.000224 -0.002821
0.000188 0.00021 -0.002856
0.000173 0.000199 -0.002888
0.001561 0.000532 -0.00227
0.001118 0.000644 -0.002537
0.001802 0.000565 -0.002378
0.001515 0.000717 -0.002242
0.001106 0.000653 -0.002658
0.001561 0.000613 -0.00227
0.002486 0.000543 -0.00166
0.00111 0.000531 -0.002619
0.0011 0.00067 -0.002274
0.001605 0.000674 -0.002294
0.001081 0.000111 -0.002766
0.001061 0.000106 -0.002783
0.001039 0.000104 -0.002795
0.001016 0.000102 -0.002805
0.000993 0.000102 -0.002812
0.000969 0.000102 -0.002818
0.000944 0.000104 -0.002822
0.000918 0.000108 -0.002818
0.000887 0.000121 -0.002799
0.000854 0.000137 -0.002772
0.00082 0.000155 -0.002743
0.000786 0.000174 -0.00271
0.000749 0.000195 -0.002672
0.000432 0.000378 -0.002353
0.000408 0.000379 -0.002359
0.000385 0.000378 -0.002367
0.000362 0.000375 -0.002379
0.000341 0.00037 -0.002396
0.000322 0.000362 -0.002419
0.000307 0.000348 -0.002456
0.000297 0.000322 -0.002514
0.000287 0.000298 -0.002571
0.000276 0.000276 -0.002622
0.000263 0.000258 -0.002668
0.000249 0.000241 -0.00271
0.000234 0.000225 -0.002749
0.000219 0.00021 -0.002787
0.000203 0.000196 -0.002821
0.000187 0.000183 -0.002855
0.000171 0.000171 -0.002888
0.002335 0.000651 -0.001657
0.001111 0.000613 -0.002619
0.001766 0.000578 -0.002368
0.001471 0.000737 -0.002219
0.00156 0.000695 -0.002268
0.001728 0.000539 -0.002354
0.00111 0.000504 -0.002619
0.002453 0.000499 -0.001664
0.001761 0.00072 -0.001637
0.001085 0.000535 -0.002764
0.001688 0.000692 -0.002335
0.001079 8.7e-05 -0.002759
0.001059 8.3e-05 -0.002774
0.001036 8.1e-05 -0.002786
0.001014 8e-05 -0.002795
0.00099 7.9e-05 -0.002803
0.000966 7.9e-05 -0.002809
0.000942 8.1e-05 -0.002813
0.000916 8.4e-05 -0.002813
0.000887 9.4e-05 -0.002799
0.000854 0.00011 -0.002771
0.00082 0.000127 -0.002744
0.000785 0.000147 -0.002709
0.000749 0.000168 -0.002671
0.000711 0.000194 -0.002625
0.000408 0.000352 -0.002359
0.000385 0.000351 -0.002367
0.000363 0.000348 -0.00238
0.000342 0.000343 -0.002397
0.000322 0.000335 -0.002419
0.000306 0.000321 -0.002455
0.000297 0.000295 -0.002514
0.000288 0.00027 -0.002572
0.000276 0.000249 -0.002623
0.000263 0.00023 -0.002668
0.000249 0.000214 -0.00271
0.000234 0.000198 -0.002748
0.000219 0.000182 -0.002788
0.000203 0.000169 -0.002821
0.000187 0.000156 -0.002855
0.00017 0.000144 -0.002887
0.002487 0.000488 -0.001661
0.001105 0.000599 -0.002657
0.001605 0.000647 -0.002294
0.00111 0.000667 -0.002618
0.001118 0.000698 -0.002536
0.001298 0.000754 -0.002078
0.0011 0.000504 -0.002695
0.00112 0.000606 -0.002493
0.002248 0.000603 -0.001645
0.001902 0.000665 -0.002095
0.001688 0.000719 -0.002335
0.001077 6.6e-05 -0.002749
0.001055 6.2e-05 -0.002763
0.001033 6e-05 -0.002774
0.00101 5.8e-05 -0.002783
0.000987 5.8e-05 -0.002791
0.000963 5.8e-05 -0.002797
0.000939 5.9e-05 -0.002802
0.000913 6.1e-05 -0.002803
0.000886 6.9e-05 -0.002795
0.000854 8.3e-05 -0.002771
0.00082 0.000101 -0.002742
0.000785 0.00012 -0.002707
0.000749 0.000142 -0.002669
0.00071 0.000168 -0.002622
0.000432 0.000324 -0.002353
0.000408 0.000324 -0.002359
0.000385 0.000323 -0.002367
0.000363 0.000321 -0.00238
0.000342 0.000316 -0.002397
0.000322 0.000308 -0.002419
0.000306 0.000293 -0.002455
0.000298 0.000267 -0.002516
0.000288 0.000243 -0.002572
0.000276 0.000222 -0.002622
0.000263 0.000203 -0.002668
0.000249 0.000186 -0.00271
0.000234 0.000171 -0.002749
0.000219 0.000155 -0.002788
0.000203 0.000142 -0.002822
0.000187 0.000129 -0.002855
0.00017 0.000117 -0.002887
0.001091 0.000697 -0.002212
0.002376 0.000608 -0.00166
0.001118 0.000745 -0.002349
0.001114 0.000682 -0.002578
0.001115 0.000655 -0.002579
0.001105 0.000572 -0.002657
0.001143 0.000725 -0.002109
0.001561 0.000558 -0.00227
0.002414 0.000567 -0.001662
0.001765 0.000634 -0.002366
0.00188 0.000679 -0.002318
0.001073 4.6e-05 -0.002734
0.001051 4.2e-05 -0.002748
0.001029 4e-05 -0.002759
0.001006 3.9e-05 -0.002768
0.000982 3.8e-05 -0.002775
0.000959 3.8e-05 -0.002782
0.000934 3.9e-05 -0.002787
0.00091 4.1e-05 -0.002789
0.000883 4.6e-05 -0.002785
0.000853 5.7e-05 -0.002769
0.00082 7.4e-05 -0.002741
0.000785 9.3e-05 -0.002709
0.000749 0.000115 -0.002669
0.00071 0.000141 -0.002621
0.00067 0.00017 -0.002569
0.000432 0.000297 -0.002353
0.000408 0.000297 -0.002359
0.000384 0.000296 -0.002367
0.000362 0.000294 -0.002379
0.000341 0.000288 -0.002396
0.000322 0.000281 -0.002419
0.000306 0.000267 -0.002455
0.000297 0.000241 -0.002515
0.000288 0.000216 -0.002573
0.000276 0.000195 -0.002622
0.000263 0.000176 -0.002668
0.000249 0.000159 -0.002711
0.000234 0.000143 -0.002751
0.000219 0.000128 -0.002788
0.000203 0.000114 -0.002823
0.000187 0.000102 -0.002855
0.00017 9e-05 -0.002887
0.002335 0.000732 -0.001656
0.001878 0.000543 -0.002339
0.001388 0.000747 -0.002177
0.001688 0.00061 -0.002335
0.0011 0.000613 -0.002695
0.00111 0.000586 -0.002619
0.001114 0.000574 -0.002578
0.001514 0.000582 -0.002241
0.001099 0.000559 -0.002694
0.001605 0.000728 -0.002295
0.001764 0.000689 -0.002364
0.001068 2.7e-05 -0.002716
0.001046 2.4e-05 -0.002728
0.001023 2.3e-05 -0.002738
0.001 2.1e-05 -0.002747
0.000977 2.1e-05 -0.002755
0.000953 2.1e-05 -0.002761
0.000929 2.2e-05 -0.002767
0.000904 2.3e-05 -0.002769
0.000878 2.7e-05 -0.002769
0.00085 3.4e-05 -0.00276
0.000819 4.8e-05 -0.002739
0.000837 -9e-06 0.001993
0.000432 0.000269 -0.002354
0.000408 0.00027 -0.002359
0.000384 0.000269 -0.002367
0.000362 0.000266 -0.002379
0.000341 0.000261 -0.002396
0.000322 0.000254 -0.002418
0.000306 0.000239 -0.002454
0.000297 0.000214 -0.002514
0.000287 0.000189 -0.002572
0.000276 0.000168 -0.002622
0.000263 0.000149 -0.002668
0.000249 0.000131 -0.002711
0.000234 0.000116 -0.002749
0.000219 0.000101 -0.002788
0.000203 8.8e-05 -0.002821
0.000186 7.5e-05 -0.002854
0.00017 6.3e-05 -0.002886
0.001801 0.000457 -0.002377
0.001923 0.000514 -0.002294
0.001647 0.000628 -0.002316
0.001929 0.000606 -0.002261
0.001801 0.000593 -0.002377
0.001114 0.000601 -0.002578
0.001691 0.000444 -0.002341
0.001561 0.000504 -0.002271
0.001094 0.000601 -0.00273
0.001081 1.8e-05 -0.002675
0.001061 1.4e-05 -0.002689
0.001038 1.2e-05 -0.002699
0.001015 1.1e-05 -0.002707
0.000991 1e-05 -0.002714
0.000967 1e-05 -0.002721
0.000944 1e-05 -0.002728
0.00092 1e-05 -0.002734
0.000896 1.1e-05 -0.002739
0.000871 1.2e-05 -0.002742
0.000845 1.7e-05 -0.00274
0.000816 2.5e-05 -0.002729
0.000785 3.9e-05 -0.002707
0.000814 -9e-06 0.002001
0.000791 -9e-06 0.002009
0.000432 0.000242 -0.002354
0.000408 0.000243 -0.002359
0.000384 0.000242 -0.002367
0.000362 0.000239 -0.002379
0.000341 0.000234 -0.002396
0.000322 0.000227 -0.002418
0.000306 0.000212 -0.002454
0.000297 0.000187 -0.002514
0.000287 0.000162 -0.002572
0.000276 0.000141 -0.002622
0.000263 0.000121 -0.002669
0.000249 0.000104 -0.002712
0.000234 8.9e-05 -0.00275
0.000219 7.4e-05 -0.002788
0.000203 6.1e-05 -0.00282
0.000187 4.8e-05 -0.002853
0.00017 3.8e-05 -0.002881
0.001115 0.000519 -0.002579
0.001119 0.00068 -0.002445
0.00191 0.000513 -0.002136
0.001749 0.000707 -0.001692
0.001085 0.000645 -0.002763
0.001605 0.000593 -0.002294
0.001605 0.000511 -0.002295
0.0011 0.000643 -0.002274
0.001112 0.000641 -0.002341
0.001928 0.000574 -0.002209
0.001098 0.000723 -0.002692
0.001048 7e-06 -0.002644
0.001025 6e-06 -0.002653
0.001001 7e-06 -0.002658
0.000978 6e-06 -0.002666
0.000954 6e-06 -0.002673
0.00093 6e-06 -0.002679
0.000907 6e-06 -0.002687
0.000883 6e-06 -0.002693
0.000859 6e-06 -0.002699
0.000835 7e-06 -0.002704
0.00081 1e-05 -0.002705
0.000781 1.8e-05 -0.002694
0.000748 3.5e-05 -0.002666
0.000767 -9e-06 0.002017
0.000432 0.000215 -0.002354
0.000408 0.000216 -0.002359
0.000384 0.000215 -0.002367
0.000362 0.000212 -0.002379
0.000341 0.000207 -0.002396
0.000322 0.000199 -0.002418
0.000306 0.000185 -0.002455
0.000297 0.00016 -0.002513
0.000287 0.000135 -0.002571
0.000276 0.000114 -0.002622
0.000263 9.4e-05 -0.00267
0.000249 7.6e-05 -0.002712
0.000235 6.1e-05 -0.002751
0.000219 4.7e-05 -0.002787
0.000202 3.5e-05 -0.002819
0.000185 2.4e-05 -0.002846
0.001902 0.000556 -0.002096
0.001107 0.000746 -0.002285
0.00193 0.00058 -0.002261
0.001094 0.000655 -0.00273
0.001647 0.000655 -0.002316
0.001647 0.000574 -0.002316
0.002549 0.00049 -0.001585
0.001109 0.000691 -0.002148
0.001117 0.000618 -0.002395
0.002504 0.000623 -0.001643
0.001768 0.000468 -0.002371
0.001119 0.000625 -0.002445
0.001013 -0.0 -0.00261
0.00099 -0.0 -0.002616
0.000965 2e-06 -0.002619
0.000941 2e-06 -0.002625
0.000917 2e-06 -0.002632
0.000893 2e-06 -0.002639
0.00087 2e-06 -0.002645
0.000846 2e-06 -0.002652
0.000822 2e-06 -0.002658
0.000798 3e-06 -0.002662
0.000773 6e-06 -0.002664
0.000744 1.4e-05 -0.002652
0.000744 -1e-05 0.002025
0.000721 -1e-05 0.002033
0.000432 0.000188 -0.002354
0.000408 0.000188 -0.002359
0.000384 0.000188 -0.002367
0.000362 0.000185 -0.002379
0.000341 0.00018 -0.002396
0.000322 0.000172 -0.002418
0.000306 0.000158 -0.002455
0.000297 0.000132 -0.002514
0.000287 0.000107 -0.002572
0.000276 8.6e-05 -0.002623
0.000263 6.7e-05 -0.00267
0.000249 4.9e-05 -0.002712
0.000234 3.4e-05 -0.00275
0.000217 2.2e-05 -0.002781
0.000199 1.3e-05 -0.002806
0.000178 9e-06 -0.002822
0.001106 0.000463 -0.002658
0.001333 0.000749 -0.002135
0.001922 0.000569 -0.002293
0.002201 0.000704 -0.001635
0.001688 0.000638 -0.002335
0.001339 0.000736 -0.002098
0.001093 0.000519 -0.00273
0.001091 0.00067 -0.002212
0.001097 0.000683 -0.002175
0.000278 -2.2e-05 -0.002075
0.000877 3e-06 -0.002579
0.000853 4e-06 -0.002585
0.00083 3e-06 -0.002594
0.000806 4e-06 -0.002599
0.000781 5e-06 -0.002603
0.000758 5e-06 -0.00261
0.000733 5e-06 -0.002614
0.000705 1.3e-05 -0.002605
0.000431 0.000161 -0.002354
0.000408 0.000161 -0.002359
0.000384 0.000161 -0.002367
0.000362 0.000158 -0.002379
0.000341 0.000153 -0.002396
0.000322 0.000145 -0.002419
0.000306 0.00013 -0.002456
0.000297 0.000105 -0.002514
0.000288 8e-05 -0.002573
0.000276 5.9e-05 -0.002622
0.000263 4e-05 -0.002669
0.000248 2.4e-05 -0.002709
0.000231 1.3e-05 -0.002738
0.000211 6e-06 -0.002758
0.001111 0.000477 -0.002619
0.001117 0.000699 -0.002396
0.001923 0.000621 -0.002214
0.001826 0.000617 -0.00237
0.002453 0.000608 -0.001663
0.001766 0.000524 -0.002368
0.001118 0.000535 -0.002537
0.001117 0.000591 -0.002395
0.001111 0.000615 -0.002339
0.002481 0.000683 -0.001647
0.000979 6e-06 -0.002485
0.000955 5e-06 -0.002492
0.000932 5e-06 -0.0025
0.000908 6e-06 -0.002505
0.000885 5e-06 -0.002514
0.000861 4e-06 -0.002522
0.001207 0.000724 -0.002072
0.000789 5e-06 -0.002539
0.000766 4e-06 -0.002548
0.000742 4e-06 -0.002555
0.000719 4e-06 -0.002562
0.000695 5e-06 -0.002567
0.000667 1.1e-05 -0.00256
0.000431 0.000133 -0.002354
0.000407 0.000134 -0.002359
0.000384 0.000133 -0.002367
0.000362 0.000131 -0.002379
0.000341 0.000125 -0.002396
0.000322 0.000118 -0.002419
0.000297 7.8e-05 -0.002514
0.000288 5.2e-05 -0.002574
0.000276 3.1e-05 -0.002624
0.000302 -2.3e-05 -0.00207
0.001465 0.000607 -0.002209
0.001119 0.000661 -0.002493
0.0022 0.000623 -0.001635
0.001847 0.000616 -0.002358
0.001868 0.000617 -0.002345
0.001561 0.00064 -0.00227
0.001126 0.000749 -0.002129
0.001605 0.000565 -0.002295
0.00112 0.000524 -0.002494
0.001118 0.000508 -0.002537
0.002345 0.00071 0.000766
0.001014 1e-06 -0.002426
0.00099 1e-06 -0.002434
0.000967 1e-06 -0.002441
0.000943 -1e-06 -0.002448
0.00092 -1e-06 -0.002456
0.000896 -2e-06 -0.002464
0.000873 -2e-06 -0.002471
0.000849 -2e-06 -0.002479
0.001125 0.000696 -0.002126
0.001896 0.000569 -0.002322
0.000778 -2e-06 -0.002498
0.000754 -2e-06 -0.002505
0.000707 -3e-06 -0.002519
0.000683 -2e-06 -0.002524
0.000658 1e-06 -0.002525
0.000431 0.000107 -0.002353
0.000407 0.000107 -0.002359
0.000384 0.000106 -0.002367
0.000362 0.000104 -0.002379
0.000341 9.8e-05 -0.002396
0.000327 8.9e-05 -0.002424
0.000308 7.3e-05 -0.002461
0.000296 5.2e-05 -0.002512
0.001109 0.000718 -0.002148
0.001112 0.000723 -0.002339
0.001605 0.000701 -0.002294
0.002553 0.000614 -0.001573
0.001765 0.000661 -0.002366
0.00111 0.00064 -0.002619
0.001862 0.000612 -0.00196
0.001561 0.000585 -0.002271
0.001647 0.000547 -0.002316
0.001928 0.000663 -0.00225
0.001897 0.000681 -0.002299
0.000999 -1e-06 -0.002373
0.000975 -1e-06 -0.00238
0.000952 -1e-06 -0.002386
0.000928 -0.0 -0.002392
0.000904 -0.0 -0.002398
0.00088 -0.0 -0.002405
0.000857 -1e-06 -0.002413
0.002523 0.00054 -0.001627
0.001891 0.000573 -0.002053
0.000761 -0.0 -0.002438
0.000738 -0.0 -0.002444
0.000714 -1e-06 -0.002452
0.00069 -1e-06 -0.002459
0.000666 -0.0 -0.002464
0.000643 -0.0 -0.00247
0.000618 2e-06 -0.002474
0.000431 7.9e-05 -0.002353
0.000407 8e-05 -0.002359
0.000384 7.9e-05 -0.002367
0.000362 7.7e-05 -0.002379
0.000341 7.1e-05 -0.002396
0.000322 6.2e-05 -0.002421
0.000306 4.9e-05 -0.002455
0.001887 0.000373 -0.00233
0.001085 0.00059 -0.002763
0.001866 0.000645 -0.002343
0.002375 0.000718 -0.001659
0.002904 0.000661 -0.00073
0.001099 0.000694 -0.002694
0.001086 0.000481 -0.002764
0.000326 -2.3e-05 -0.002066
0.001054 -0.0 -0.002295
0.00103 1e-06 -0.0023
0.001005 3e-06 -0.002302
0.000981 3e-06 -0.002308
0.000958 2e-06 -0.002317
0.000934 3e-06 -0.002321
0.00091 3e-06 -0.002328
0.000886 3e-06 -0.002336
0.000862 3e-06 -0.002341
0.000839 3e-06 -0.002349
0.000815 3e-06 -0.002355
0.002535 0.000536 -0.001455
0.00072 3e-06 -0.00238
0.000696 4e-06 -0.002386
0.000672 4e-06 -0.002393
0.000625 3e-06 -0.002407
0.000603 1e-06 -0.00242
0.000431 5.2e-05 -0.002352
0.000407 5.3e-05 -0.002359
0.000384 5.2e-05 -0.002367
0.000362 5e-05 -0.002379
0.000341 4.4e-05 -0.002395
0.000322 3.6e-05 -0.00242
0.001848 0.000425 -0.00236
0.00156 0.000723 -0.002268
0.001727 0.000703 -0.002351
0.001112 0.000721 -0.002621
0.001105 0.000708 -0.002657
0.001833 0.00071 -0.002336
0.001753 0.000694 -0.00173
0.00035 -2.4e-05 -0.00206
0.000374 -2.4e-05 -0.002054
0.001037 3e-06 -0.002232
0.001013 4e-06 -0.002237
0.000989 4e-06 -0.002244
0.000965 3e-06 -0.002252
0.000942 3e-06 -0.002259
0.000918 3e-06 -0.002266
0.000895 2e-06 -0.002273
0.000871 2e-06 -0.002281
0.000848 2e-06 -0.002287
0.000824 2e-06 -0.002293
0.0008 2e-06 -0.0023
0.000776 3e-06 -0.002306
0.001868 0.000399 -0.002345
0.000705 3e-06 -0.002326
0.000682 1e-06 -0.002335
0.000634 3e-06 -0.002345
0.00061 2e-06 -0.002354
0.000587 1e-06 -0.002363
0.000564 0.0 -0.002371
0.000431 2.5e-05 -0.002353
0.000407 2.6e-05 -0.002359
0.000384 2.5e-05 -0.002367
0.000362 2.2e-05 -0.002379
0.000341 1.7e-05 -0.002396
0.000322 8e-06 -0.002421
0.000398 -2.5e-05 -0.002048
0.000422 -2.5e-05 -0.002043
0.001758 0.000722 -0.002354
0.001221 2.8e-05 -0.002066
0.001197 2.7e-05 -0.002074
0.002247 0.000549 -0.001644
0.001813 0.00071 -0.00235
0.001853 0.000711 -0.002321
0.000446 -2.6e-05 -0.002037
0.00047 -2.6e-05 -0.002031
0.000973 4e-06 -0.002188
0.00095 3e-06 -0.002195
0.000926 4e-06 -0.002201
0.000902 4e-06 -0.002207
0.000878 4e-06 -0.002214
0.000854 4e-06 -0.00222
0.000831 4e-06 -0.002227
0.000807 4e-06 -0.002233
0.000784 3e-06 -0.002242
0.00076 4e-06 -0.002247
0.001648 0.000465 -0.002317
0.002501 0.000652 -0.00164
0.00191 0.000677 -0.002136
0.000641 5e-06 -0.002278
0.000617 4e-06 -0.002287
0.000594 4e-06 -0.002293
0.00057 4e-06 -0.0023
0.000546 3e-06 -0.002308
0.000494 -2.6e-05 -0.002025
0.00043 -1e-06 -0.002349
0.000406 -1e-06 -0.002356
0.000382 -0.0 -0.002362
0.00036 -2e-06 -0.002372
0.000338 -5e-06 -0.002385
0.000518 -2.6e-05 -0.002018
0.00019 3e-06 -0.002407
0.000167 3e-06 -0.002413
9.6e-05 2e-06 -0.002436
7.3e-05 2e-06 -0.002443
4.8e-05 4e-06 -0.002446
2.5e-05 2e-06 -0.002456
0.001244 2e-06 -0.002056
0.00122 3e-06 -0.002062
0.001196 2e-06 -0.002069
0.001173 0.0 -0.002079
0.000697 -1e-05 0.002041
0.000541 -2.6e-05 -0.002012
0.001006 3e-06 -0.002121
0.000982 3e-06 -0.002127
0.000958 4e-06 -0.002131
0.000934 4e-06 -0.002138
0.00091 5e-06 -0.002142
0.000886 5e-06 -0.00215
0.000863 4e-06 -0.002158
0.000839 4e-06 -0.002164
0.001093 0.000683 -0.00273
0.00112 0.000551 -0.002494
0.000744 4e-06 -0.00219
0.000721 4e-06 -0.002198
0.000697 4e-06 -0.002203
0.001647 0.000492 -0.002315
0.001868 0.000372 -0.002345
0.000625 4e-06 -0.002223
0.000602 4e-06 -0.002231
0.000578 4e-06 -0.002237
0.000554 5e-06 -0.002242
0.000531 4e-06 -0.00225
0.000507 4e-06 -0.002258
0.000459 5e-06 -0.002269
0.000435 5e-06 -0.002274
0.000565 -2.6e-05 -0.002006
0.000589 -2.6e-05 -0.001999
0.000246 3e-06 -0.002332
0.000222 3e-06 -0.002338
0.000175 4e-06 -0.00235
0.000151 4e-06 -0.002356
0.000127 4e-06 -0.002363
0.000613 -2.6e-05 -0.001992
8e-05 4e-06 -0.002376
5.6e-05 5e-06 -0.002381
3.2e-05 4e-06 -0.002388
0.000636 -2.6e-05 -0.001985
0.00118 4e-06 -0.002009
0.001156 4e-06 -0.002016
0.001132 4e-06 -0.002023
0.001109 2e-06 -0.002032
0.000674 -1e-05 0.002049
0.00065 -1e-05 0.002056
0.000991 3e-06 -0.002065
0.000967 3e-06 -0.002071
0.000943 2e-06 -0.002078
0.000919 3e-06 -0.002083
0.000895 4e-06 -0.002089
0.000871 4e-06 -0.002095
0.000847 4e-06 -0.002101
0.000824 4e-06 -0.002108
0.002508 0.000512 -0.001646
0.002336 0.000596 -0.001658
0.0018 0.000431 -0.002376
0.001827 0.000425 -0.002373
0.000705 4e-06 -0.002142
0.000682 3e-06 -0.00215
0.000658 3e-06 -0.002155
0.000634 3e-06 -0.002162
0.00061 4e-06 -0.002169
0.000587 3e-06 -0.002175
0.000562 4e-06 -0.00218
0.000538 5e-06 -0.002186
0.000515 4e-06 -0.002195
0.000492 4e-06 -0.002202
0.000444 3e-06 -0.002215
0.000421 3e-06 -0.002222
0.000325 3e-06 -0.002248
0.000303 2e-06 -0.002258
0.000279 2e-06 -0.002265
0.000255 3e-06 -0.00227
0.000231 3e-06 -0.002275
0.000207 4e-06 -0.00228
0.00016 2e-06 -0.002297
0.000135 4e-06 -0.002299
6.4e-05 4e-06 -0.00232
4.1e-05 4e-06 -0.002327
1.6e-05 5e-06 -0.002331
-7e-06 4e-06 -0.002339
0.00066 -2.6e-05 -0.001978
0.000683 -2.6e-05 -0.001971
0.000707 -2.5e-05 -0.001964
0.001116 4e-06 -0.001965
0.001092 5e-06 -0.001971
0.001605 0.000538 -0.002295
0.000975 2e-06 -0.002009
0.000951 2e-06 -0.002016
0.000927 3e-06 -0.002021
0.000903 3e-06 -0.002027
0.00088 3e-06 -0.002034
0.000856 2e-06 -0.002042
0.000833 2e-06 -0.00205
0.001648 0.0006 -0.002317
0.001094 0.000492 -0.00273
0.001099 0.00045 -0.002695
0.001767 0.000551 -0.002368
0.000691 2e-06 -0.002089
0.000667 2e-06 -0.002096
0.000643 2e-06 -0.002102
0.000619 2e-06 -0.002109
0.000596 2e-06 -0.002116
0.000572 2e-06 -0.002122
0.000548 2e-06 -0.002129
0.000525 2e-06 -0.002136
0.000501 2e-06 -0.002141
0.000477 2e-06 -0.002148
0.000453 3e-06 -0.002154
0.000429 2e-06 -0.002161
0.000406 2e-06 -0.002168
0.000382 2e-06 -0.002173
0.000334 2e-06 -0.002188
0.00031 3e-06 -0.002193
0.000287 3e-06 -0.0022
0.000263 3e-06 -0.002206
0.000239 4e-06 -0.002211
0.000215 4e-06 -0.002217
0.000191 4e-06 -0.002224
0.00073 -2.5e-05 -0.001956
0.001149 3e-06 -0.001899
0.001909 0.000748 -0.002168
0.001085 0.000427 -0.002764
0.001917 0.000716 -0.002175
0.001858 0.000572 -0.002355
0.001232 0.000693 -0.002066
0.001848 0.000398 -0.00236
0.001689 0.0005 -0.002337
0.000962 -1e-06 -0.00196
0.000938 -2e-06 -0.001967
0.000915 -2e-06 -0.001975
0.000891 -2e-06 -0.001982
0.000868 -3e-06 -0.00199
0.000844 -3e-06 -0.001997
0.00082 -3e-06 -0.002004
0.001921 0.000596 -0.002292
0.001097 0.000737 -0.002176
0.001092 0.000724 -0.002213
0.001841 0.000635 -0.001908
0.0018 0.000539 -0.002376
0.000679 -5e-06 -0.002048
0.000655 -5e-06 -0.002054
0.000632 -5e-06 -0.002061
0.000608 -5e-06 -0.002067
0.000584 -5e-06 -0.002074
0.00056 -5e-06 -0.002081
0.000537 -5e-06 -0.002088
0.000513 -5e-06 -0.002095
0.000489 -5e-06 -0.0021
0.000465 -5e-06 -0.002106
0.000441 -5e-06 -0.002112
0.000417 -4e-06 -0.002118
0.000393 -4e-06 -0.002124
0.00037 -4e-06 -0.002131
0.000346 -4e-06 -0.002136
0.000322 -3e-06 -0.002142
0.000298 -2e-06 -0.002147
0.000274 -2e-06 -0.002153
0.00025 -2e-06 -0.002159
0.000226 -1e-06 -0.002165
0.000202 -1e-06 -0.002171
0.001765 0.000416 -0.002368
0.001879 0.000591 -0.002008
0.001889 0.00072 -0.002282
0.001113 -3e-06 -0.001861
0.001905 0.00062 -0.002312
0.00192 0.000625 -0.00229
0.00277 0.000514 -0.000802
0.001728 0.000512 -0.002353
0.001766 0.000497 -0.002368
0.001647 0.000519 -0.002316
0.001843 0.000674 -0.002351
0.001862 0.000676 -0.002335
0.000903 -1e-05 -0.001934
0.00088 -1.1e-05 -0.001944
0.000857 -1.1e-05 -0.001951
0.000833 -1.1e-05 -0.001958
0.00081 -1.2e-05 -0.001967
0.000787 -1.3e-05 -0.001974
0.000763 -1.3e-05 -0.001981
0.000739 -1.3e-05 -0.001989
0.000716 -1.4e-05 -0.001996
0.000692 -1.4e-05 -0.002003
0.000669 -1.4e-05 -0.00201
0.000645 -1.4e-05 -0.002017
0.000621 -1.5e-05 -0.002024
0.000598 -1.4e-05 -0.002031
0.000574 -1.5e-05 -0.002038
0.00055 -1.4e-05 -0.002044
0.000527 -1.5e-05 -0.002051
0.000503 -1.4e-05 -0.002056
0.000479 -1.4e-05 -0.002062
0.000455 -1.4e-05 -0.002069
0.000431 -1.4e-05 -0.002075
0.000407 -1.3e-05 -0.002081
0.000383 -1.3e-05 -0.002086
0.000359 -1.3e-05 -0.002092
0.000335 -1.2e-05 -0.002098
0.000311 -1.2e-05 -0.002104
0.000287 -1.2e-05 -0.00211
0.000263 -1.1e-05 -0.002114
0.000239 -1e-05 -0.00212
0.001727 0.00043 -0.002358
0.002771 0.000677 -0.000803
0.001118 0.000645 -0.002396
0.001873 0.000712 -0.002306
0.00169 0.000527 -0.002338
0.001086 0.000508 -0.002764
0.00252 0.000623 -0.001625
0.00111 0.000744 -0.00215
0.001801 0.000484 -0.002378
0.001294 0.000648 -0.002073
0.001119 0.00057 -0.002446
0.001766 0.000442 -0.002369
0.001729 0.000484 -0.002354
0.001109 0.000664 -0.002147
0.001789 0.000713 -0.002357
0.000824 -2.3e-05 -0.001926
0.000801 -2.3e-05 -0.001933
0.000777 -2.4e-05 -0.00194
0.000754 -2.4e-05 -0.001949
0.001848 0.000371 -0.00236
0.001827 0.000371 -0.002373
0.001799 0.000377 -0.002375
0.001765 0.000389 -0.002366
0.001727 0.000404 -0.002352
0.001689 0.000419 -0.002337
0.001649 0.000436 -0.00232
0.001605 0.000457 -0.002294
0.001561 0.000477 -0.00227
0.001513 0.000501 -0.002239
0.001294 0.00062 -0.002073
0.001261 0.000632 -0.002066
0.001232 0.000639 -0.002066
0.001206 0.000643 -0.002071
0.001184 0.000645 -0.002082
0.001162 0.000645 -0.002094
0.001142 0.000644 -0.002108
0.001124 0.000642 -0.002126
0.001109 0.000637 -0.002147
0.001097 0.000629 -0.002175
0.001091 0.000615 -0.002212
0.001101 0.000588 -0.002275
0.001112 0.00056 -0.00234
0.001117 0.000537 -0.002395
0.00112 0.000515 -0.002447
0.00112 0.000497 -0.002494
0.001118 0.00048 -0.002538
0.001115 0.000464 -0.00258
0.001111 0.000449 -0.00262
0.001106 0.000435 -0.002659
0.001099 0.000422 -0.002695
0.001092 0.00041 -0.00273
0.001085 0.000399 -0.002764
0.001072 0.000392 -0.00279
0.001781 0.000693 -0.001788
0.001753 0.000721 -0.001729
0.002096 0.000613 -0.001607
0.002149 0.00059 -0.001622
0.001765 0.000746 -0.00164
0.002566 0.000504 -0.001551
0.002535 0.000597 -0.001605
0.001887 0.000346 -0.002329
0.001868 0.000345 -0.002345
0.001848 0.000344 -0.00236
0.001827 0.000344 -0.002373
0.001799 0.00035 -0.002374
0.001763 0.000363 -0.002364
0.001727 0.000377 -0.002351
0.001688 0.000393 -0.002336
0.00165 0.000408 -0.002321
0.001605 0.00043 -0.002294
0.001561 0.00045 -0.00227
0.001513 0.000474 -0.00224
0.001295 0.000593 -0.002074
0.001261 0.000605 -0.002065
0.001232 0.000612 -0.002066
0.001207 0.000615 -0.002072
0.001184 0.000617 -0.002082
0.001162 0.000618 -0.002094
0.001143 0.000617 -0.002108
0.001124 0.000614 -0.002126
0.001108 0.00061 -0.002147
0.001097 0.000602 -0.002175
0.001092 0.000588 -0.002214
0.001101 0.000561 -0.002276
0.001111 0.000533 -0.002339
0.001117 0.000509 -0.002396
0.00112 0.000488 -0.002448
0.00112 0.000469 -0.002494
0.001119 0.000452 -0.002539
0.001115 0.000437 -0.00258
0.001111 0.000422 -0.002621
0.001106 0.000408 -0.002659
0.0011 0.000395 -0.002696
0.001093 0.000382 -0.002732
0.001085 0.000372 -0.002764
0.001072 0.000364 -0.002791
0.001857 0.000491 -0.002353
0.001749 0.000734 -0.001693
0.0022 0.000568 -0.001635
0.001753 0.000742 -0.001663
0.002415 0.000621 -0.001663
0.002557 0.000677 -0.00152
0.001887 0.000319 -0.00233
0.001868 0.000317 -0.002345
0.001848 0.000316 -0.002361
0.001827 0.000317 -0.002373
0.001799 0.000323 -0.002375
0.001764 0.000336 -0.002364
0.001727 0.00035 -0.002351
0.001687 0.000366 -0.002334
0.001648 0.00038 -0.002324
0.00156 0.000423 -0.002269
0.001512 0.000447 -0.002239
0.001295 0.000566 -0.002074
0.00126 0.000578 -0.002065
0.001232 0.000585 -0.002065
0.001207 0.000588 -0.002072
0.001184 0.00059 -0.002082
0.001162 0.000591 -0.002094
0.001142 0.00059 -0.002108
0.001124 0.000587 -0.002126
0.001109 0.000582 -0.002148
0.001097 0.000574 -0.002176
0.001092 0.00056 -0.002214
0.001101 0.000534 -0.002275
0.001111 0.000506 -0.002339
0.001117 0.000482 -0.002396
0.00112 0.000461 -0.002448
0.00112 0.000443 -0.002494
0.001119 0.000425 -0.00254
0.001115 0.00041 -0.00258
0.001111 0.000394 -0.002621
0.001106 0.000381 -0.002659
0.0011 0.000368 -0.002696
0.001093 0.000355 -0.002731
0.001085 0.000344 -0.002764
0.001072 0.000337 -0.00279
0.002536 0.000515 -0.001606
0.002549 0.000517 -0.001585
0.002452 0.000473 -0.001663
0.002486 0.000462 -0.00166
0.001927 0.000489 -0.002283
0.001877 0.000598 -0.002338
0.001929 0.000635 -0.00225
0.001888 0.000291 -0.002331
0.001868 0.00029 -0.002346
0.001848 0.000289 -0.00236
0.001827 0.00029 -0.002373
0.001799 0.000296 -0.002374
0.001763 0.000309 -0.002364
0.001726 0.000323 -0.00235
0.001688 0.000339 -0.002335
0.001646 0.000356 -0.002321
0.001605 0.000375 -0.002295
0.00156 0.000396 -0.002269
0.001294 0.000539 -0.002073
0.00126 0.000551 -0.002065
0.001231 0.000558 -0.002065
0.001206 0.000561 -0.002072
0.001184 0.000563 -0.002081
0.001162 0.000564 -0.002094
0.001142 0.000563 -0.002108
0.001124 0.00056 -0.002126
0.001109 0.000555 -0.002148
0.001097 0.000547 -0.002176
0.001092 0.000533 -0.002214
0.0011 0.000507 -0.002274
0.001111 0.000479 -0.002338
0.001118 0.000454 -0.002397
0.00112 0.000434 -0.002447
0.00112 0.000415 -0.002494
0.001119 0.000398 -0.002539
0.001116 0.000382 -0.002581
0.001112 0.000367 -0.002621
0.001106 0.000354 -0.002659
0.0011 0.000341 -0.002696
0.001092 0.000329 -0.00273
0.001085 0.000318 -0.002764
0.001072 0.00031 -0.002791
0.002523 0.000513 -0.001627
0.002563 0.000614 -0.00155
0.002375 0.0005 -0.00166
0.002517 0.000659 -0.001419
0.00256 0.000643 -0.001549
0.001845 0.000742 -0.001911
0.001905 0.000717 -0.002099
0.001888 0.000264 -0.002331
0.001868 0.000263 -0.002346
0.001848 0.000262 -0.002361
0.001827 0.000262 -0.002373
0.001799 0.000269 -0.002374
0.001764 0.000281 -0.002364
0.001725 0.000297 -0.002349
0.001688 0.000312 -0.002335
0.001647 0.000329 -0.002316
0.001605 0.000348 -0.002294
0.00156 0.000369 -0.002269
0.001513 0.000392 -0.00224
0.001294 0.000512 -0.002073
0.00126 0.000523 -0.002065
0.001231 0.00053 -0.002065
0.001206 0.000534 -0.002071
0.001183 0.000536 -0.002081
0.001162 0.000536 -0.002094
0.001142 0.000536 -0.002108
0.001124 0.000533 -0.002126
0.001109 0.000528 -0.002148
0.001097 0.00052 -0.002176
0.001092 0.000506 -0.002214
0.001111 0.000451 -0.002339
0.001118 0.000427 -0.002397
0.00112 0.000407 -0.002447
0.00112 0.000388 -0.002495
0.001119 0.00037 -0.00254
0.001116 0.000355 -0.002581
0.001112 0.00034 -0.002622
0.001106 0.000327 -0.002659
0.0011 0.000313 -0.002696
0.001093 0.000301 -0.002731
0.001085 0.00029 -0.002764
0.001878 0.000564 -0.002008
0.001912 0.000725 -0.001541
0.002536 0.000488 -0.001606
0.002842 0.000597 -0.000782
0.002248 0.000685 -0.001644
0.002484 0.000626 -0.001658
0.001906 0.000239 -0.002314
0.001887 0.000237 -0.00233
0.001868 0.000236 -0.002346
0.001848 0.000235 -0.002361
0.001827 0.000235 -0.002372
0.001798 0.000242 -0.002374
0.001764 0.000254 -0.002364
0.001725 0.000269 -0.002349
0.001688 0.000284 -0.002336
0.001647 0.000302 -0.002316
0.001604 0.000321 -0.002294
0.00156 0.000342 -0.002269
0.001512 0.000366 -0.002239
0.001294 0.000485 -0.002072
0.00126 0.000496 -0.002065
0.001231 0.000503 -0.002065
0.001206 0.000507 -0.002071
0.001183 0.000509 -0.002081
0.001162 0.000509 -0.002094
0.001142 0.000508 -0.002108
0.001124 0.000506 -0.002126
0.001109 0.0005 -0.002148
0.001097 0.000492 -0.002176
0.001092 0.000478 -0.002215
0.001119 0.000399 -0.002398
0.001119 0.00038 -0.002446
0.00112 0.000361 -0.002495
0.001119 0.000343 -0.00254
0.001116 0.000327 -0.002581
0.001111 0.000313 -0.002621
0.001106 0.000299 -0.002659
0.001101 0.000286 -0.002696
0.001094 0.000274 -0.002731
0.001086 0.000263 -0.002765
0.002375 0.000554 -0.00166
0.002292 0.000586 -0.001651
0.002375 0.000582 -0.001659
0.002376 0.000635 -0.001661
0.001915 0.000687 -0.002272
0.001906 0.000212 -0.002313
0.001887 0.00021 -0.00233
0.001868 0.000209 -0.002346
0.001848 0.000208 -0.002361
0.001826 0.000208 -0.002372
0.001798 0.000215 -0.002373
0.001763 0.000227 -0.002364
0.001726 0.000242 -0.00235
0.001687 0.000257 -0.002335
0.001647 0.000275 -0.002316
0.001559 0.000316 -0.002267
0.001513 0.000338 -0.00224
0.001464 0.000363 -0.002208
0.001408 0.000393 -0.002164
0.001294 0.000458 -0.002072
0.00126 0.000469 -0.002064
0.001231 0.000476 -0.002065
0.001206 0.00048 -0.002071
0.001183 0.000482 -0.002081
0.001162 0.000482 -0.002093
0.001142 0.000481 -0.002108
0.001124 0.000479 -0.002126
0.001109 0.000473 -0.002148
0.001097 0.000465 -0.002176
0.001092 0.000451 -0.002215
0.001101 0.000425 -0.002275
0.001118 0.000373 -0.002397
0.001119 0.000353 -0.002446
0.00112 0.000334 -0.002494
0.001119 0.000316 -0.002539
0.001116 0.0003 -0.002581
0.001111 0.000286 -0.002621
0.001106 0.000272 -0.002659
0.001101 0.000259 -0.002696
0.001094 0.000247 -0.002731
0.001086 0.000236 -0.002765
0.002335 0.000569 -0.001657
0.002415 0.00054 -0.001663
0.002536 0.000569 -0.001606
0.001923 0.000648 -0.002214
0.002449 0.000692 -0.00166
0.001905 0.000185 -0.002313
0.001887 0.000183 -0.00233
0.001868 0.000181 -0.002345
0.001847 0.000182 -0.002359
0.001825 0.000182 -0.00237
0.001798 0.000188 -0.002373
0.001763 0.0002 -0.002363
0.001726 0.000215 -0.00235
0.001687 0.00023 -0.002334
0.001647 0.000247 -0.002316
0.001605 0.000266 -0.002295
0.001559 0.000289 -0.002267
0.001513 0.00031 -0.002241
0.001464 0.000336 -0.002207
0.001411 0.000364 -0.002168
0.001293 0.000432 -0.002071
0.00126 0.000442 -0.002064
0.001231 0.000449 -0.002065
0.001206 0.000453 -0.002071
0.001183 0.000455 -0.002081
0.001162 0.000455 -0.002093
0.001142 0.000454 -0.002108
0.001124 0.000451 -0.002126
0.001109 0.000446 -0.002149
0.001097 0.000438 -0.002176
0.001092 0.000424 -0.002214
0.001101 0.000398 -0.002276
0.001112 0.000369 -0.002341
0.001117 0.000346 -0.002395
0.00112 0.000325 -0.002447
0.00112 0.000306 -0.002495
0.001119 0.000289 -0.002539
0.001116 0.000273 -0.002581
0.001111 0.000259 -0.002621
0.001106 0.000245 -0.002658
0.0011 0.000232 -0.002696
0.001094 0.00022 -0.002731
0.001086 0.000209 -0.002765
0.00179 0.00075 -0.001597
0.001837 0.000493 -0.002369
0.002564 0.000586 -0.001551
0.002375 0.00069 -0.00166
0.001921 0.000162 -0.002292
0.001904 0.000159 -0.002311
0.001886 0.000157 -0.002328
0.001867 0.000155 -0.002344
0.001846 0.000155 -0.002357
0.001824 0.000156 -0.002369
0.001798 0.000161 -0.002373
0.001763 0.000173 -0.002363
0.001726 0.000188 -0.00235
0.001687 0.000203 -0.002334
0.001648 0.00022 -0.002317
0.001605 0.000239 -0.002295
0.00156 0.000261 -0.002268
0.001513 0.000284 -0.00224
0.001462 0.00031 -0.002205
0.001293 0.000404 -0.002072
0.001259 0.000415 -0.002064
0.001231 0.000422 -0.002065
0.001206 0.000426 -0.002071
0.001183 0.000428 -0.002081
0.001162 0.000428 -0.002093
0.001142 0.000427 -0.002108
0.001124 0.000424 -0.002126
0.001109 0.000419 -0.002149
0.001097 0.000411 -0.002176
0.001092 0.000397 -0.002214
0.001101 0.00037 -0.002276
0.001113 0.000341 -0.002342
0.001117 0.000319 -0.002396
0.00112 0.000298 -0.002448
0.00112 0.000279 -0.002494
0.001119 0.000262 -0.002539
0.001116 0.000246 -0.002581
0.001111 0.000231 -0.002621
0.001106 0.000218 -0.002659
0.0011 0.000205 -0.002696
0.001094 0.000192 -0.002731
0.001086 0.000182 -0.002764
0.00185 0.000743 -0.001553
0.001806 0.00075 -0.001579
0.00191 0.000567 -0.002136
0.001901 0.000692 -0.002095
0.00193 0.000145 -0.002261
0.001919 0.000136 -0.00229
0.001902 0.000133 -0.002308
0.001884 0.000131 -0.002325
0.001865 0.000129 -0.002341
0.001844 0.000129 -0.002355
0.001823 0.00013 -0.002366
0.001797 0.000134 -0.002372
0.001762 0.000146 -0.002363
0.001725 0.000161 -0.00235
0.001687 0.000177 -0.002333
0.001647 0.000193 -0.002316
0.001605 0.000212 -0.002295
0.001559 0.000234 -0.002268
0.001512 0.000257 -0.002238
0.001462 0.000283 -0.002205
0.001408 0.000312 -0.002164
0.001294 0.000376 -0.002072
0.00126 0.000388 -0.002065
0.001231 0.000394 -0.002065
0.001206 0.000398 -0.002071
0.001183 0.0004 -0.002081
0.001162 0.000401 -0.002094
0.001142 0.0004 -0.002108
0.001124 0.000397 -0.002126
0.001109 0.000392 -0.002148
0.001097 0.000384 -0.002176
0.001092 0.000369 -0.002215
0.001113 0.000314 -0.002343
0.001117 0.000292 -0.002396
0.00112 0.00027 -0.002448
0.00112 0.000252 -0.002494
0.001119 0.000235 -0.002539
0.001116 0.000219 -0.002581
0.001111 0.000204 -0.002621
0.001106 0.000191 -0.002659
0.0011 0.000178 -0.002695
0.001093 0.000165 -0.002731
0.001085 0.000155 -0.002763
0.001827 0.000747 -0.001565
0.001881 0.000734 -0.001546
0.001789 0.000723 -0.001596
0.001917 0.000553 -0.002176
0.001901 0.000638 -0.002094
0.001927 0.00014 -0.002208
0.001929 0.000119 -0.002259
0.002608 0.000739 -0.000833
0.002414 0.000703 -0.001664
0.001881 0.000107 -0.00232
0.001862 0.000105 -0.002336
0.001841 0.000105 -0.00235
0.001819 0.000106 -0.002361
0.001795 0.000109 -0.002368
0.001763 0.000119 -0.002364
0.001726 0.000133 -0.00235
0.001687 0.000149 -0.002334
0.001647 0.000166 -0.002316
0.001605 0.000185 -0.002295
0.00156 0.000206 -0.00227
0.001294 0.000349 -0.002072
0.00126 0.000361 -0.002065
0.001231 0.000367 -0.002066
0.001206 0.000371 -0.002071
0.001183 0.000373 -0.002081
0.001162 0.000373 -0.002094
0.001142 0.000372 -0.002108
0.001124 0.00037 -0.002126
0.001109 0.000365 -0.002148
0.001097 0.000357 -0.002176
0.001092 0.000342 -0.002215
0.001102 0.000315 -0.002278
0.001113 0.000287 -0.002343
0.001117 0.000265 -0.002395
0.001121 0.000243 -0.002449
0.00112 0.000225 -0.002495
0.001119 0.000207 -0.00254
0.001116 0.000192 -0.002581
0.001111 0.000177 -0.002621
0.001106 0.000163 -0.002659
0.0011 0.00015 -0.002696
0.001093 0.000138 -0.002731
0.001084 0.000128 -0.002763
0.002923 0.000578 -0.000698
0.002414 0.000486 -0.001662
0.000848 -2.2e-05 -0.001915
0.0022 0.000596 -0.001635
0.00191 0.000622 -0.002136
0.00191 0.00054 -0.002136
0.002247 0.000712 -0.001644
0.002733 0.000691 -0.000812
0.001915 0.000728 -0.00214
0.001857 8.2e-05 -0.002328
0.001837 8.2e-05 -0.002342
0.001815 8.2e-05 -0.002354
0.001791 8.5e-05 -0.002362
0.001762 9.3e-05 -0.002362
0.001726 0.000106 -0.00235
0.001687 0.000122 -0.002334
0.001647 0.000139 -0.002316
0.001606 0.000157 -0.002296
0.00156 0.000179 -0.002269
0.00087 -2.3e-05 -0.001903
0.001294 0.000322 -0.002073
0.00126 0.000333 -0.002065
0.001231 0.00034 -0.002065
0.001206 0.000344 -0.002072
0.001183 0.000346 -0.002081
0.001162 0.000346 -0.002094
0.001142 0.000345 -0.002108
0.001124 0.000343 -0.002126
0.001109 0.000337 -0.002149
0.001097 0.00033 -0.002176
0.001092 0.000315 -0.002215
0.001101 0.000289 -0.002276
0.001113 0.00026 -0.002342
0.001117 0.000238 -0.002396
0.001121 0.000216 -0.002449
0.001121 0.000197 -0.002496
0.001119 0.00018 -0.00254
0.001116 0.000164 -0.002581
0.001112 0.00015 -0.002621
0.001106 0.000136 -0.002659
0.0011 0.000123 -0.002697
0.001093 0.000112 -0.00273
0.001082 0.000102 -0.00276
0.001959 0.000749 -0.001584
0.001975 0.00075 -0.001565
0.000891 -2.4e-05 -0.001891
0.001819 0.000741 -0.001855
0.002452 0.000635 -0.001663
0.002441 0.000715 -0.0013
0.00187 6.2e-05 -0.002302
0.00185 6.1e-05 -0.002318
0.00183 6e-05 -0.002332
0.001808 6.1e-05 -0.002344
0.001786 6.3e-05 -0.002354
0.001759 6.8e-05 -0.002357
0.001725 7.9e-05 -0.00235
0.001686 9.5e-05 -0.002333
0.001647 0.000111 -0.002316
0.00156 0.000152 -0.002269
0.001512 0.000175 -0.002239
0.001462 0.000202 -0.002204
0.001294 0.000294 -0.002074
0.00126 0.000306 -0.002065
0.001231 0.000313 -0.002065
0.001206 0.000317 -0.002071
0.001183 0.000319 -0.002081
0.001162 0.000319 -0.002094
0.001142 0.000318 -0.002108
0.001124 0.000315 -0.002126
0.001109 0.00031 -0.002149
0.001097 0.000303 -0.002175
0.001092 0.000288 -0.002215
0.0011 0.000263 -0.002275
0.000913 -2.4e-05 -0.001879
0.001121 0.000169 -0.002497
0.001119 0.000153 -0.00254
0.001116 0.000137 -0.002581
0.001112 0.000123 -0.002621
0.001106 0.000109 -0.002659
0.001101 9.6e-05 -0.002696
0.001093 8.4e-05 -0.00273
0.001079 7.8e-05 -0.002755
0.001815 0.000716 -0.001851
0.00204 0.00072 -0.00159
0.002247 0.000577 -0.001644
0.001862 0.000584 -0.001961
0.002522 0.000568 -0.001627
0.002376 0.000663 -0.00166
0.001881 4.4e-05 -0.002273
0.001862 4.2e-05 -0.002289
0.001842 4.1e-05 -0.002304
0.001822 4.1e-05 -0.002318
0.0018 4.1e-05 -0.002331
0.001778 4.2e-05 -0.002341
0.001753 4.6e-05 -0.002348
0.001723 5.4e-05 -0.002346
0.001687 6.7e-05 -0.002334
0.001647 8.4e-05 -0.002317
0.001605 0.000103 -0.002296
0.001559 0.000125 -0.002268
0.001512 0.000148 -0.002239
0.001462 0.000174 -0.002205
0.00141 0.000202 -0.002167
0.001294 0.000268 -0.002073
0.00126 0.000279 -0.002065
0.001231 0.000286 -0.002065
0.001206 0.00029 -0.002071
0.001183 0.000291 -0.002081
0.001162 0.000292 -0.002094
0.001142 0.000291 -0.002109
0.001124 0.000288 -0.002126
0.001109 0.000283 -0.002149
0.001096 0.000275 -0.002175
0.001092 0.000261 -0.002215
0.001101 0.000235 -0.002276
0.001112 0.000206 -0.002341
0.001117 0.000183 -0.002397
0.001121 0.000142 -0.002497
0.001119 0.000126 -0.00254
0.001116 0.00011 -0.002581
0.001112 9.6e-05 -0.002621
0.001107 8.2e-05 -0.002659
0.001101 6.9e-05 -0.002695
0.001089 6e-05 -0.002725
0.001775 0.000749 -0.001617
0.001781 0.000758 -0.001754
0.002335 0.000542 -0.001657
0.00265 0.000587 -0.000826
0.002501 0.000678 -0.001629
0.002335 0.000678 -0.001657
0.001888 2.9e-05 -0.002239
0.00187 2.6e-05 -0.002256
0.001851 2.4e-05 -0.002272
0.001832 2.4e-05 -0.002287
0.001811 2.3e-05 -0.002301
0.00179 2.3e-05 -0.002314
0.001768 2.4e-05 -0.002325
0.001744 2.7e-05 -0.002333
0.001717 3.2e-05 -0.002335
0.001685 4.2e-05 -0.002331
0.001646 5.8e-05 -0.002314
0.001605 7.6e-05 -0.002295
0.00156 9.8e-05 -0.002269
0.001512 0.000121 -0.002238
0.001294 0.00024 -0.002073
0.00126 0.000252 -0.002065
0.001231 0.000259 -0.002065
0.001206 0.000262 -0.002072
0.001183 0.000264 -0.002081
0.001162 0.000265 -0.002094
0.001142 0.000264 -0.002109
0.001124 0.000261 -0.002127
0.001109 0.000256 -0.002149
0.001097 0.000248 -0.002176
0.001092 0.000233 -0.002215
0.0011 0.000208 -0.002275
0.001111 0.000179 -0.00234
0.001118 0.000155 -0.002397
0.00112 0.000134 -0.002449
0.001121 0.000115 -0.002497
0.001119 9.8e-05 -0.002541
0.001116 8.2e-05 -0.002582
0.001111 6.9e-05 -0.00262
0.001106 5.5e-05 -0.002659
0.001097 4.4e-05 -0.002691
0.001082 3.8e-05 -0.002714
0.002523 0.000486 -0.001627
0.002508 0.000485 -0.001647
0.002292 0.000559 -0.001651
0.001901 0.00061 -0.002095
0.001836 0.000575 -0.002368
0.0019 0.000686 -0.002293
0.001892 1.7e-05 -0.002198
0.001875 1.3e-05 -0.002217
0.001856 1.2e-05 -0.002233
0.001836 1.1e-05 -0.002247
0.001816 1e-05 -0.002262
0.001794 1.1e-05 -0.002274
0.001773 1.1e-05 -0.002287
0.001752 1.1e-05 -0.002299
0.00173 1.2e-05 -0.00231
0.001705 1.5e-05 -0.002317
0.001677 2.1e-05 -0.002319
0.001643 3.3e-05 -0.00231
0.001604 4.9e-05 -0.002295
0.00156 7e-05 -0.00227
0.001511 9.5e-05 -0.002236
0.001462 0.00012 -0.002205
0.001293 0.000213 -0.002072
0.00126 0.000225 -0.002065
0.001231 0.000231 -0.002066
0.001206 0.000235 -0.002072
0.001183 0.000237 -0.002082
0.001162 0.000237 -0.002094
0.001142 0.000236 -0.002109
0.001125 0.000234 -0.002127
0.001109 0.000228 -0.002149
0.001096 0.000221 -0.002175
0.001092 0.000207 -0.002214
0.0011 0.000181 -0.002274
0.001112 0.000151 -0.002342
0.001118 0.000128 -0.002397
0.001121 0.000107 -0.00245
0.001121 8.8e-05 -0.002497
0.001119 7.1e-05 -0.00254
0.001115 5.6e-05 -0.002581
0.00111 4.2e-05 -0.002619
0.001102 3.1e-05 -0.002652
0.001089 2.4e-05 -0.002678
0.002096 0.000667 -0.001608
0.001902 0.000583 -0.002095
0.000934 -2.5e-05 -0.001867
0.001903 0.000721 -0.002262
0.001889 1.1e-05 -0.002147
0.001871 8e-06 -0.002164
0.001851 8e-06 -0.002178
0.00183 8e-06 -0.00219
0.00181 7e-06 -0.002205
0.001789 6e-06 -0.002219
0.002335 0.000623 -0.001657
0.001861 0.000694 -0.001959
0.002567 0.000509 -0.001524
0.001705 6e-06 -0.00227
0.001684 7e-06 -0.002283
0.001662 8e-06 -0.002294
0.001634 1.3e-05 -0.002297
0.001601 2.5e-05 -0.002288
0.001462 9.3e-05 -0.002204
0.001407 0.000122 -0.002163
0.001293 0.000186 -0.002072
0.00126 0.000197 -0.002065
0.001231 0.000204 -0.002066
0.001206 0.000208 -0.002072
0.001183 0.00021 -0.002082
0.001162 0.00021 -0.002094
0.001142 0.000209 -0.002109
0.001124 0.000206 -0.002127
0.001109 0.000201 -0.002149
0.001096 0.000194 -0.002175
0.001092 0.00018 -0.002214
0.001113 0.000124 -0.002342
0.001118 0.000101 -0.002398
0.001121 6.1e-05 -0.002497
0.001119 4.4e-05 -0.00254
0.001114 3e-05 -0.002579
0.001105 2e-05 -0.00261
0.001091 1.3e-05 -0.002635
0.001073 1e-05 -0.002653
0.002485 0.000571 -0.001659
0.002247 0.000658 -0.001643
0.001848 0.000717 -0.00155
0.001911 0.000698 -0.00154
0.001884 6e-06 -0.002092
0.001868 2e-06 -0.002112
0.001847 3e-06 -0.002124
0.001826 2e-06 -0.002138
0.001806 2e-06 -0.002152
0.001785 2e-06 -0.002165
0.000956 -2.6e-05 -0.001855
0.001701 2e-06 -0.002217
0.001681 1e-06 -0.002231
0.001659 1e-06 -0.002243
0.001637 2e-06 -0.002254
0.001615 3e-06 -0.002265
0.001588 8e-06 -0.002269
0.001554 2e-05 -0.002261
0.001511 4e-05 -0.002238
0.001462 6.5e-05 -0.002205
0.001339 0.000137 -0.0021
0.001293 0.000159 -0.002072
0.00126 0.00017 -0.002065
0.001231 0.000177 -0.002066
0.001206 0.000181 -0.002072
0.001183 0.000183 -0.002082
0.001162 0.000183 -0.002094
0.001142 0.000182 -0.002109
0.001125 0.000179 -0.002127
0.001109 0.000174 -0.002149
0.001097 0.000166 -0.002176
0.001092 0.000152 -0.002216
0.0011 0.000127 -0.002275
0.001112 9.7e-05 -0.002342
0.001118 7.3e-05 -0.002398
0.001121 5.2e-05 -0.00245
0.00112 3.4e-05 -0.002496
0.001115 2e-05 -0.002534
0.001105 1.1e-05 -0.002565
0.00109 5e-06 -0.002587
0.001071 4e-06 -0.002602
0.001049 4e-06 -0.002615
0.002452 0.000581 -0.001663
0.002507 0.000567 -0.001646
0.002041 0.000637 -0.001591
0.001875 0.00071 -0.001541
0.001815 3e-06 -0.002074
0.001795 2e-06 -0.002088
0.001774 3e-06 -0.002101
0.001753 3e-06 -0.002113
0.001732 3e-06 -0.002126
0.002556 0.000476 -0.001574
0.002495 0.000622 -0.001381
0.001669 3e-06 -0.002165
0.001649 2e-06 -0.002179
0.00163 1e-06 -0.002195
0.001918 0.000525 -0.002176
0.001584 4e-06 -0.002214
0.001563 4e-06 -0.002228
0.001539 7e-06 -0.002236
0.001507 1.7e-05 -0.00223
0.001293 0.000132 -0.002073
0.00126 0.000143 -0.002065
0.001231 0.00015 -0.002066
0.001206 0.000154 -0.002072
0.001183 0.000155 -0.002082
0.001162 0.000156 -0.002094
0.001142 0.000155 -0.002109
0.001124 0.000152 -0.002127
0.001109 0.000147 -0.002149
0.001097 0.000139 -0.002176
0.001092 0.000125 -0.002216
0.0011 9.9e-05 -0.002275
0.001113 6.9e-05 -0.002342
0.001119 4.5e-05 -0.0024
0.00112 2.6e-05 -0.002449
0.001116 1.2e-05 -0.002486
0.001102 4e-06 -0.002513
0.001083 3e-06 -0.002528
0.001063 2e-06 -0.002543
0.001043 2e-06 -0.002557
0.001024 -1e-06 -0.002574
0.001002 1e-06 -0.002585
0.000959 1e-06 -0.00261
0.000937 2e-06 -0.002621
0.000977 -2.6e-05 -0.001843
0.001752 0.00076 -0.001695
0.001862 0.000639 -0.00196
0.001861 1e-05 -0.001959
0.001847 4e-06 -0.001984
0.002149 0.000645 -0.001622
0.002487 0.000515 -0.001661
0.001761 6e-06 -0.002033
0.001739 6e-06 -0.002045
0.001719 6e-06 -0.002058
0.001698 6e-06 -0.002071
0.001678 5e-06 -0.002086
0.001657 4e-06 -0.002099
0.001575 4e-06 -0.002153
0.001553 4e-06 -0.002165
0.001532 4e-06 -0.002178
0.001511 4e-06 -0.002191
0.00149 5e-06 -0.002203
0.001293 0.000105 -0.002072
0.00126 0.000116 -0.002065
0.001231 0.000123 -0.002065
0.001206 0.000127 -0.002072
0.001183 0.000128 -0.002082
0.001162 0.000129 -0.002094
0.001142 0.000128 -0.002109
0.001124 0.000125 -0.002127
0.001109 0.00012 -0.002149
0.001097 0.000112 -0.002177
0.001092 9.7e-05 -0.002216
0.001099 7.3e-05 -0.002274
0.001119 1.8e-05 -0.002399
0.00111 8e-06 -0.002432
0.001093 4e-06 -0.002451
0.00105 6e-06 -0.002475
0.001029 5e-06 -0.002488
0.000967 4e-06 -0.002529
0.000926 4e-06 -0.002556
0.000999 -2.6e-05 -0.001831
0.00102 -2.7e-05 -0.001818
0.001837 4e-06 -0.001921
0.001817 3e-06 -0.001935
0.001797 2e-06 -0.00195
0.0021 0.00072 -0.00161
0.002201 0.000677 -0.001635
0.002292 0.00064 -0.001651
0.001715 1e-06 -0.002005
0.001695 0.0 -0.00202
0.001674 1e-06 -0.002032
0.001653 -0.0 -0.002045
0.001633 0.0 -0.002059
0.002555 0.000531 -0.001574
0.001927 0.000499 -0.002251
0.001877 0.000489 -0.002338
0.00155 -2e-06 -0.002113
0.00153 -2e-06 -0.002127
0.00151 -3e-06 -0.002142
0.00192 0.000747 -0.001548
