-0.000935 -3e-06 0.002293
-0.00083 3.4e-05 0.002266
-0.001986 0.000691 0.00138
-0.001994 0.000697 0.001353
-0.002369 0.000586 0.001288
-0.00228 0.000621 0.001275
-0.001206 -3.3e-05 0.001712
-0.002052 0.000702 0.001272
-0.002231 0.000438 0.002018
-0.001545 -1e-06 0.00183
-0.001523 -0.0 0.001841
-0.001504 -2e-06 0.001857
-0.001227 -3.3e-05 0.001698
-0.001247 -3.3e-05 0.001684
-0.001378 -1e-06 0.001935
-0.001356 0.0 0.001947
-0.001511 0.000734 0.001879
-0.001316 -1e-06 0.001975
-0.001295 -1e-06 0.001988
-0.001275 -1e-06 0.002002
-0.001254 -1e-06 0.002016
-0.001234 -1e-06 0.002029
-0.001213 -1e-06 0.002042
-0.001192 -1e-06 0.002055
-0.00115 -1e-06 0.002081
-0.001129 -1e-06 0.002094
-0.001108 -0.0 0.002107
-0.001088 0.0 0.002121
-0.001004 -0.0 0.002173
-0.000983 0.0 0.002186
-0.000962 0.0 0.002199
-0.000942 -0.0 0.002213
-0.000904 -3e-06 0.002245
-0.000882 -2e-06 0.002257
-0.000831 6e-06 0.002268
-0.000803 1.2e-05 0.00227
-0.001267 -3.2e-05 0.00167
-0.002232 0.000492 0.002019
-0.002246 0.000493 0.001999
-0.002181 0.000493 0.002072
-0.00245 0.000718 0.001297
-0.002075 0.000447 0.002075
-0.002129 0.000711 0.001242
-0.002173 0.000694 0.001248
-0.001288 -3.2e-05 0.001656
-0.001575 -1e-06 0.00174
-0.001554 -1e-06 0.001753
-0.001533 -1e-06 0.001766
-0.001513 -1e-06 0.00178
-0.001491 0.0 0.001791
-0.001471 -0.0 0.001806
-0.002034 0.00073 0.001289
-0.002159 0.000697 0.002053
-0.002179 0.000695 0.002038
-0.001419 0.000683 0.00206
-0.002254 0.000498 0.001973
-0.00225 0.000511 0.001936
-0.001537 0.000727 0.001869
-0.002486 0.00057 0.001292
-0.001264 -1e-06 0.001939
-0.001243 -1e-06 0.001953
-0.001223 -1e-06 0.001966
-0.001202 -1e-06 0.00198
-0.001181 -1e-06 0.001993
-0.00116 -0.0 0.002005
-0.001139 -0.0 0.002018
-0.001119 -1e-06 0.002033
-0.001098 -1e-06 0.002046
-0.001077 -1e-06 0.002059
-0.001055 0.0 0.00207
-0.001035 -0.0 0.002085
-0.001014 1e-06 0.002096
-0.000994 -1e-06 0.002112
-0.000973 -1e-06 0.002125
-0.000953 -1e-06 0.002138
-0.000932 -0.0 0.002151
-0.000912 -1e-06 0.002166
-0.00085 -2e-06 0.002207
-0.000829 -2e-06 0.00222
-0.000789 -2e-06 0.002248
-0.001995 0.000724 0.001353
-0.002612 0.000509 0.001294
-0.001731 -1e-06 0.001572
-0.00171 -1e-06 0.001585
-0.001689 -1e-06 0.001598
-0.001669 -1e-06 0.001612
-0.002325 0.000603 0.001282
-0.002368 0.000613 0.001287
-0.002231 0.000465 0.002018
-0.002215 0.000465 0.002036
-0.001545 -2e-06 0.001692
-0.001523 -1e-06 0.001704
-0.001501 0.0 0.001716
-0.00148 1e-06 0.001728
-0.001461 -1e-06 0.001744
-0.00144 -1e-06 0.001758
-0.002052 0.000729 0.001273
-0.001399 -1e-06 0.001784
-0.001378 -1e-06 0.001797
-0.001357 -1e-06 0.00181
-0.001336 -1e-06 0.001823
-0.002255 0.000443 0.001973
-0.002451 0.000528 0.001294
-0.001231 -1e-06 0.001888
-0.001211 0.0 0.001901
-0.00119 -0.0 0.001915
-0.00117 -1e-06 0.00193
-0.001149 0.0 0.001942
-0.001127 1e-06 0.001953
-0.001108 -1e-06 0.00197
-0.001066 -0.0 0.001995
-0.001045 0.0 0.002008
-0.001024 -0.0 0.002022
-0.001004 -1e-06 0.002036
-0.000984 -1e-06 0.00205
-0.000962 -0.0 0.002062
-0.000941 0.0 0.002074
-0.00092 0.0 0.002088
-0.000797 -1e-06 0.002169
-0.000777 -1e-06 0.002183
-0.002197 0.000694 0.002021
-0.001721 -2e-06 0.001511
-0.001698 -0.0 0.001521
-0.001677 -0.0 0.001534
-0.001657 -1e-06 0.001548
-0.001637 -1e-06 0.001562
-0.001988 0.000718 0.00138
-0.002103 0.000745 0.001252
-0.002129 0.000738 0.001242
-0.002122 0.000428 0.002087
-0.00213 0.000656 0.001242
-0.002203 0.000624 0.001797
-0.001472 -2e-06 0.001669
-0.001452 -2e-06 0.001684
-0.001431 -2e-06 0.001697
-0.00141 -3e-06 0.001711
-0.001391 -3e-06 0.001726
-0.00137 -3e-06 0.001738
-0.001348 -3e-06 0.001751
-0.001328 -3e-06 0.001765
-0.001308 -3e-06 0.001779
-0.001287 -3e-06 0.001792
-0.00225 0.000456 0.001937
-0.002769 0.000607 0.00115
-0.001419 0.00071 0.00206
-0.001419 0.000732 0.001993
-0.001184 -4e-06 0.00186
-0.001163 -4e-06 0.001873
-0.001143 -4e-06 0.001886
-0.001122 -4e-06 0.001899
-0.001101 -4e-06 0.001913
-0.00108 -4e-06 0.001926
-0.001016 -3e-06 0.001964
-0.000995 -2e-06 0.001976
-0.000974 -2e-06 0.001989
-0.000953 -2e-06 0.002002
-0.000933 -2e-06 0.002015
-0.000911 -1e-06 0.002028
-0.00089 -1e-06 0.002039
-0.000868 0.0 0.002052
-0.000765 0.0 0.002119
-0.000744 0.0 0.002132
-0.002212 0.000694 0.002002
-0.001689 -1e-06 0.001461
-0.001669 -2e-06 0.001475
-0.001649 -3e-06 0.001489
-0.001628 -3e-06 0.001503
-0.001608 -3e-06 0.001517
-0.001571 0.000743 0.001866
-0.001514 0.000758 0.001882
-0.002158 0.000552 0.002085
-0.002197 0.000602 0.002054
-0.002214 0.000601 0.002036
-0.002237 0.00061 0.001892
-0.002201 0.000734 0.001795
-0.001447 -8e-06 0.001631
-0.001427 -8e-06 0.001645
-0.001407 -9e-06 0.001659
-0.001386 -9e-06 0.001673
-0.001366 -9e-06 0.001687
-0.001346 -1e-05 0.001701
-0.001325 -1e-05 0.001715
-0.001305 -1.1e-05 0.001729
-0.001285 -1.1e-05 0.001743
-0.001264 -1.1e-05 0.001757
-0.001244 -1.1e-05 0.00177
-0.001223 -1.1e-05 0.001784
-0.001202 -1.1e-05 0.001797
-0.001182 -1.1e-05 0.001811
-0.001161 -1.1e-05 0.001824
-0.00114 -1.1e-05 0.001837
-0.00112 -1.1e-05 0.00185
-0.001099 -1.1e-05 0.001863
-0.001078 -1.1e-05 0.001877
-0.001057 -1.1e-05 0.001889
-0.001035 -1e-05 0.001902
-0.001014 -1e-05 0.001914
-0.000994 -1e-05 0.001928
-0.000972 -9e-06 0.00194
-0.000951 -9e-06 0.001953
-0.000929 -8e-06 0.001965
-0.000908 -8e-06 0.001977
-0.000888 -8e-06 0.001991
-0.000866 -7e-06 0.002002
-0.000845 -7e-06 0.002016
-0.002368 0.000641 0.001287
-0.002246 0.000548 0.001998
-0.001644 -8e-06 0.001436
-0.001624 -9e-06 0.001451
-0.001605 -9e-06 0.001466
-0.001585 -1e-05 0.001481
-0.002223 0.00071 0.001847
-0.002123 0.000563 0.002087
-0.002178 0.000604 0.00207
-0.00223 0.000602 0.002017
-0.002182 0.000674 0.001746
-0.002221 0.00063 0.001846
-0.002204 0.000651 0.001798
0.000472 -2e-05 0.002074
-0.001406 -1.7e-05 0.001613
-0.001386 -1.8e-05 0.001627
-0.001366 -1.8e-05 0.001641
-0.001345 -1.9e-05 0.001655
-0.001325 -1.9e-05 0.001669
-0.001305 -2e-05 0.001683
-0.001285 -2e-05 0.001697
-0.001264 -2e-05 0.001711
-0.001244 -2e-05 0.001725
-0.001223 -2e-05 0.001738
-0.001203 -2.1e-05 0.001752
-0.001182 -2.1e-05 0.001766
-0.001162 -2.1e-05 0.001779
-0.001141 -2.1e-05 0.001792
-0.00112 -2.1e-05 0.001806
-0.001099 -2.1e-05 0.001819
-0.001078 -2.1e-05 0.001832
-0.001057 -2e-05 0.001845
-0.001036 -2e-05 0.001858
-0.001016 -2e-05 0.001871
-0.000994 -2e-05 0.001883
-0.000973 -1.9e-05 0.001895
-0.000952 -1.9e-05 0.001908
-0.000931 -1.8e-05 0.001921
-0.000909 -1.8e-05 0.001932
-0.000888 -1.7e-05 0.001945
-0.002223 0.00052 0.001847
-0.002204 0.000542 0.001798
-0.002123 0.000509 0.002087
-0.002215 0.000492 0.002037
-0.00213 0.000683 0.001243
-0.002739 0.000687 0.001081
-0.002159 0.00047 0.002086
-0.002159 0.000443 0.002086
-0.002098 0.00072 0.001248
-0.002737 0.00044 0.001243
-0.002237 0.000529 0.001892
-0.002098 0.000693 0.001247
-0.002486 0.000598 0.001292
-0.001414 0.000696 0.002023
-0.002237 0.000447 0.001893
-0.001368 -2.9e-05 0.001599
-0.001348 -3e-05 0.001613
-0.001328 -3e-05 0.001627
-0.001308 -3.1e-05 0.001642
-0.002098 0.000666 0.001248
-0.002073 0.000672 0.001258
-0.002051 0.000675 0.001272
-0.002033 0.000676 0.001289
-0.002018 0.000676 0.001308
-0.002698 0.000699 0.001252
-0.002608 0.000729 0.001292
-0.002736 0.000576 0.001243
-0.002766 0.000467 0.001176
-0.002138 0.000637 0.001671
-0.002182 0.000484 0.001747
-0.002205 0.00046 0.001799
-0.002222 0.000439 0.001847
-0.002238 0.000419 0.001893
-0.002249 0.000402 0.001936
-0.002255 0.000389 0.001974
-0.002246 0.000384 0.001999
-0.002231 0.000384 0.002018
-0.002214 0.000384 0.002036
-0.002198 0.000384 0.002054
-0.00218 0.000385 0.002072
-0.002159 0.000388 0.002086
-0.002122 0.000401 0.002086
-0.002076 0.00042 0.002076
-0.00151 0.000679 0.001879
-0.001437 0.000686 0.001945
-0.001425 0.000683 0.001967
-0.001416 0.000678 0.001992
-0.001416 0.000667 0.002026
-0.001419 0.000656 0.00206
-0.002486 0.000489 0.001292
-0.002451 0.000501 0.001294
-0.00241 0.000516 0.001291
-0.002369 0.000532 0.001288
-0.002324 0.000549 0.001281
-0.002279 0.000567 0.001275
-0.00223 0.000587 0.001265
-0.002172 0.000613 0.001246
-0.00213 0.000629 0.001242
-0.002098 0.000639 0.001248
-0.002072 0.000645 0.001258
-0.002051 0.000648 0.001272
-0.002033 0.000649 0.001289
-0.002018 0.000648 0.001308
-0.002712 0.000697 0.001232
-0.002696 0.00064 0.001279
-0.002712 0.000598 0.001042
-0.002757 0.000467 0.001198
-0.002183 0.000456 0.001747
-0.002204 0.000433 0.001798
-0.002222 0.000412 0.001847
-0.002238 0.000392 0.001893
-0.002249 0.000375 0.001936
-0.002255 0.000361 0.001974
-0.002246 0.000357 0.001999
-0.002231 0.000357 0.002018
-0.002214 0.000357 0.002036
-0.002198 0.000357 0.002054
-0.00218 0.000358 0.002072
-0.002159 0.000361 0.002086
-0.002121 0.000374 0.002086
-0.002076 0.000393 0.002077
-0.001468 0.000659 0.001908
-0.001451 0.000659 0.001925
-0.001436 0.000659 0.001944
-0.001424 0.000656 0.001967
-0.001416 0.000651 0.001992
-0.001415 0.000641 0.002024
-0.00142 0.000628 0.002061
-0.002486 0.000462 0.001292
-0.002451 0.000474 0.001294
-0.00241 0.000489 0.001291
-0.002368 0.000505 0.001287
-0.002324 0.000522 0.001281
-0.002278 0.00054 0.001274
-0.00223 0.00056 0.001265
-0.002174 0.000585 0.001248
-0.00213 0.000602 0.001242
-0.002098 0.000612 0.001248
-0.002072 0.000618 0.001257
-0.002051 0.000621 0.001272
-0.002033 0.000622 0.001289
-0.002018 0.000621 0.001308
-0.002649 0.000713 0.001284
-0.002667 0.000636 -1e-05
-0.002699 0.000557 0.00128
-0.002479 0.000699 0.000472
-0.002773 0.000469 0.001151
-0.002155 0.000456 0.00169
-0.002184 0.000429 0.001748
-0.002205 0.000405 0.001799
-0.002222 0.000385 0.001847
-0.002237 0.000365 0.001893
-0.00225 0.000348 0.001936
-0.002255 0.000334 0.001974
-0.002246 0.00033 0.001998
-0.00223 0.00033 0.002018
-0.002214 0.00033 0.002036
-0.002197 0.00033 0.002054
-0.00218 0.000331 0.002072
-0.002159 0.000334 0.002086
-0.002122 0.000347 0.002086
-0.002075 0.000366 0.002077
-0.001468 0.000631 0.001907
-0.001451 0.000632 0.001925
-0.001436 0.000632 0.001944
-0.001424 0.000629 0.001966
-0.001415 0.000624 0.001992
-0.001414 0.000615 0.002023
-0.00142 0.000601 0.002062
-0.0018 -3e-05 0.001081
-0.00245 0.000447 0.001295
-0.00241 0.000461 0.001292
-0.002368 0.000478 0.001287
-0.002323 0.000495 0.001281
-0.002279 0.000513 0.001275
-0.00223 0.000533 0.001265
-0.002174 0.000557 0.001248
-0.00213 0.000575 0.001243
-0.002098 0.000585 0.001247
-0.002072 0.000591 0.001258
-0.002051 0.000594 0.001272
-0.002033 0.000595 0.001289
-0.002018 0.000594 0.001308
-0.002725 0.000663 0.001238
-0.002742 0.000604 0.001083
-0.002564 0.00061 0.001299
-0.002757 0.000494 0.001198
-0.002137 0.000691 0.001671
-0.002155 0.000429 0.00169
-0.002182 0.000402 0.001746
-0.002205 0.000378 0.001799
-0.002222 0.000358 0.001847
-0.002237 0.000338 0.001893
-0.00225 0.000321 0.001936
-0.002255 0.000307 0.001974
-0.002246 0.000303 0.001999
-0.002231 0.000302 0.002018
-0.002214 0.000302 0.002036
-0.002198 0.000303 0.002054
-0.00218 0.000303 0.002072
-0.002158 0.000307 0.002086
-0.002121 0.00032 0.002086
-0.002075 0.000339 0.002077
-0.001468 0.000604 0.001907
-0.001451 0.000605 0.001925
-0.001436 0.000604 0.001944
-0.001424 0.000602 0.001966
-0.001415 0.000597 0.001991
-0.001413 0.000588 0.002023
-0.00142 0.000573 0.002062
-0.002486 0.000408 0.001301
-0.00245 0.00042 0.001294
-0.00241 0.000434 0.001291
-0.002368 0.00045 0.001287
-0.002324 0.000468 0.001281
-0.002279 0.000485 0.001275
-0.00223 0.000506 0.001265
-0.002174 0.00053 0.001248
-0.00213 0.000548 0.001242
-0.002098 0.000558 0.001247
-0.002072 0.000564 0.001257
-0.002051 0.000567 0.001272
-0.002033 0.000568 0.001289
-0.002018 0.000567 0.001308
-0.002765 0.000636 0.001148
-0.002613 0.000618 0.001294
-0.002136 0.000719 0.001671
-0.002766 0.000451 0.001121
-0.002724 0.000441 0.001264
-0.002154 0.000403 0.001689
-0.002204 0.000352 0.001798
-0.002222 0.00033 0.001847
-0.002237 0.000311 0.001892
-0.00225 0.000293 0.001936
-0.002254 0.00028 0.001973
-0.002246 0.000276 0.001999
-0.002231 0.000275 0.002018
-0.002214 0.000275 0.002036
-0.002198 0.000275 0.002054
-0.00218 0.000276 0.002072
-0.002158 0.00028 0.002086
-0.002122 0.000292 0.002086
-0.002075 0.000312 0.002076
-0.001468 0.000577 0.001907
-0.001451 0.000578 0.001925
-0.001436 0.000577 0.001945
-0.001424 0.000575 0.001966
-0.001415 0.00057 0.001992
-0.001413 0.000561 0.002023
-0.00142 0.000546 0.002062
-0.002486 0.00038 0.001292
-0.00245 0.000392 0.001294
-0.00241 0.000407 0.001291
-0.002367 0.000424 0.001287
-0.002324 0.00044 0.001281
-0.002279 0.000458 0.001275
-0.002228 0.000479 0.001263
-0.002173 0.000504 0.001248
-0.002129 0.000521 0.001242
-0.002098 0.00053 0.001247
-0.002072 0.000536 0.001257
-0.00205 0.00054 0.001271
-0.002033 0.000541 0.001289
-0.002018 0.00054 0.001308
-0.002967 0.000701 0.00025
-0.002564 0.000638 0.001299
0.000448 -1.9e-05 0.002081
-0.002115 0.00068 0.001634
-0.002153 0.000376 0.001688
-0.002183 0.000348 0.001747
-0.002223 0.000303 0.001847
-0.002237 0.000284 0.001892
-0.00225 0.000266 0.001937
-0.002255 0.000253 0.001974
-0.002246 0.000248 0.001999
-0.002231 0.000248 0.002018
-0.002214 0.000248 0.002037
-0.002198 0.000248 0.002055
-0.00218 0.000249 0.002072
-0.002158 0.000253 0.002086
-0.002122 0.000265 0.002086
-0.002075 0.000284 0.002076
-0.001468 0.00055 0.001907
-0.001451 0.000551 0.001925
-0.001436 0.00055 0.001944
-0.001424 0.000547 0.001966
-0.001415 0.000542 0.001992
-0.001413 0.000534 0.002023
-0.00142 0.000519 0.002062
-0.002486 0.000353 0.001292
-0.00245 0.000365 0.001294
-0.00241 0.00038 0.001291
-0.002367 0.000397 0.001286
-0.002325 0.000413 0.001282
-0.002279 0.000431 0.001275
-0.002229 0.000452 0.001263
-0.002172 0.000477 0.001246
-0.002129 0.000494 0.001242
-0.002097 0.000503 0.001247
-0.002072 0.000509 0.001258
-0.002051 0.000512 0.001272
-0.002033 0.000514 0.001288
-0.002018 0.000513 0.001308
-0.002753 0.000632 0.001197
-0.002699 0.000584 0.00128
-0.002119 0.000744 0.001581
-0.002434 0.000717 0.000478
-0.001391 -2.9e-05 0.001579
-0.002184 0.00032 0.001748
-0.002204 0.000297 0.001798
-0.002222 0.000276 0.001847
-0.002237 0.000257 0.001892
-0.00225 0.000239 0.001937
-0.002255 0.000226 0.001974
-0.002246 0.000221 0.001998
-0.002231 0.000221 0.002018
-0.002214 0.000221 0.002037
-0.002198 0.000221 0.002055
-0.00218 0.000222 0.002072
-0.002158 0.000226 0.002085
-0.002122 0.000238 0.002087
-0.002075 0.000257 0.002076
-0.001408 -3e-05 0.001561
-0.001468 0.000523 0.001907
-0.00145 0.000524 0.001925
-0.001436 0.000523 0.001944
-0.001424 0.00052 0.001966
-0.001416 0.000515 0.001992
-0.001413 0.000506 0.002023
-0.00142 0.000492 0.002062
-0.002486 0.000326 0.001292
-0.00245 0.000338 0.001293
-0.00241 0.000353 0.001291
-0.002367 0.000369 0.001286
-0.002324 0.000386 0.001281
-0.002279 0.000404 0.001275
-0.002228 0.000425 0.001263
-0.002173 0.000449 0.001248
-0.002129 0.000466 0.001242
-0.002097 0.000476 0.001247
-0.002072 0.000482 0.001257
-0.00205 0.000485 0.001271
-0.002033 0.000486 0.001288
-0.002018 0.000485 0.001308
-0.002744 0.000632 0.001219
-0.002747 0.000575 0.001221
-0.002612 0.000591 0.001294
-0.002564 0.000583 0.001299
-0.002184 0.000293 0.001748
-0.002204 0.00027 0.001798
-0.002222 0.000249 0.001847
-0.002237 0.00023 0.001893
-0.00225 0.000212 0.001937
-0.002254 0.000199 0.001973
-0.002245 0.000195 0.001998
-0.002231 0.000194 0.002018
-0.002215 0.000193 0.002037
-0.002198 0.000194 0.002055
-0.002179 0.000195 0.002071
-0.002157 0.000199 0.002085
-0.002122 0.00021 0.002087
-0.002075 0.00023 0.002076
-0.001468 0.000496 0.001907
-0.00145 0.000497 0.001925
-0.001436 0.000496 0.001944
-0.001424 0.000493 0.001966
-0.001415 0.000488 0.001992
-0.001413 0.000479 0.002023
-0.001421 0.000464 0.002063
-0.002486 0.000298 0.001292
-0.002451 0.000311 0.001294
-0.00241 0.000325 0.001291
-0.002366 0.000343 0.001286
-0.002323 0.000359 0.001281
-0.002278 0.000377 0.001274
-0.00223 0.000397 0.001265
-0.002174 0.000421 0.001249
-0.002129 0.000439 0.001242
-0.002097 0.000449 0.001247
-0.002072 0.000455 0.001258
-0.00205 0.000458 0.001271
-0.002032 0.000459 0.001288
-0.002017 0.000458 0.001308
-0.002762 0.000643 0.001119
-0.002766 0.000577 0.001175
-0.002757 0.000549 0.001198
-0.002766 0.000478 0.001121
-0.001789 -2.9e-05 0.001103
-0.002155 0.000293 0.00169
-0.002184 0.000266 0.001748
-0.002205 0.000242 0.001799
-0.002221 0.000222 0.001846
-0.002237 0.000203 0.001892
-0.00225 0.000184 0.001937
-0.002253 0.000172 0.001972
-0.002244 0.000168 0.001997
-0.002229 0.000167 0.002017
-0.002214 0.000167 0.002036
-0.002197 0.000167 0.002054
-0.002178 0.000169 0.00207
-0.002156 0.000172 0.002084
-0.002122 0.000184 0.002086
-0.002076 0.000202 0.002077
-0.001468 0.000469 0.001907
-0.00145 0.000469 0.001925
-0.001436 0.000469 0.001944
-0.001424 0.000466 0.001966
-0.001415 0.000461 0.001992
-0.001413 0.000452 0.002023
-0.001421 0.000437 0.002063
-0.002737 0.000494 0.001243
-0.00245 0.000284 0.001293
-0.00241 0.000299 0.001291
-0.002367 0.000315 0.001286
-0.002324 0.000332 0.001281
-0.002278 0.00035 0.001274
-0.002174 0.000394 0.001249
-0.002129 0.000412 0.001242
-0.002097 0.000422 0.001247
-0.002072 0.000428 0.001258
-0.00205 0.000431 0.001271
-0.002033 0.000432 0.001289
-0.002017 0.000431 0.001308
-0.002742 0.000659 0.001083
-0.002771 0.000579 0.00115
-0.002772 0.000551 0.001151
-0.002743 0.000468 0.001083
-0.002323 0.000726 0.000651
-0.002156 0.000265 0.001691
-0.002183 0.000238 0.001748
-0.002205 0.000215 0.001799
-0.002237 0.000175 0.001893
-0.00225 0.000157 0.001937
-0.002252 0.000146 0.001971
-0.002241 0.000142 0.001995
-0.002227 0.000141 0.002015
-0.002212 0.000141 0.002034
-0.002194 0.000141 0.002052
-0.002176 0.000143 0.002068
-0.002155 0.000146 0.002082
-0.002121 0.000157 0.002086
-0.002075 0.000175 0.002077
-0.001468 0.000441 0.001907
-0.00145 0.000442 0.001925
-0.001436 0.000441 0.001944
-0.001423 0.000439 0.001966
-0.001415 0.000433 0.001992
-0.001413 0.000425 0.002023
-0.001421 0.00041 0.002063
-0.002724 0.000495 0.001264
-0.00245 0.000256 0.001294
-0.002409 0.000272 0.001291
-0.002367 0.000288 0.001286
-0.002324 0.000305 0.001281
-0.002277 0.000324 0.001273
-0.002229 0.000343 0.001264
-0.002175 0.000367 0.00125
-0.00213 0.000385 0.001243
-0.002097 0.000395 0.001247
-0.002072 0.000401 0.001258
-0.00205 0.000404 0.001272
-0.002033 0.000405 0.001289
-0.002018 0.000404 0.001308
-0.002711 0.000665 0.001258
-0.002713 0.000625 0.001042
-0.002766 0.000549 0.001175
-0.002115 0.000708 0.001634
-0.002158 0.000237 0.001693
-0.002185 0.00021 0.001749
-0.002205 0.000188 0.0018
-0.002222 0.000167 0.001847
-0.002237 0.000148 0.001893
-0.002249 0.000131 0.001936
-0.002249 0.000121 0.001969
-0.002238 0.000117 0.001992
-0.002224 0.000116 0.002012
-0.002208 0.000116 0.002031
-0.002191 0.000117 0.002049
-0.002172 0.000118 0.002065
-0.002151 0.000121 0.00208
-0.00212 0.00013 0.002085
-0.002075 0.000148 0.002077
-0.001468 0.000414 0.001907
-0.00145 0.000415 0.001925
-0.001436 0.000414 0.001944
-0.001424 0.000412 0.001966
-0.001416 0.000406 0.001992
-0.001413 0.000398 0.002023
-0.001421 0.000383 0.002063
-0.002486 0.000217 0.001293
-0.00245 0.000229 0.001294
-0.00241 0.000244 0.001292
-0.002366 0.000261 0.001286
-0.002323 0.000278 0.001281
-0.002278 0.000296 0.001274
-0.002228 0.000316 0.001263
-0.002175 0.000339 0.001249
-0.002129 0.000358 0.001242
-0.002097 0.000368 0.001247
-0.002072 0.000373 0.001258
-0.002051 0.000377 0.001272
-0.002033 0.000377 0.001289
-0.002017 0.000377 0.001308
-0.002711 0.00068 0.001041
-0.002766 0.000587 0.001121
-0.002747 0.000548 0.001221
-0.002563 0.000557 0.001298
-0.002157 0.00021 0.001692
-0.002184 0.000184 0.001748
-0.002205 0.00016 0.0018
-0.002221 0.000141 0.001846
-0.002237 0.000121 0.001892
-0.002248 0.000104 0.001935
-0.002244 9.6e-05 0.001965
-0.002232 9.4e-05 0.001987
-0.002218 9.3e-05 0.002007
-0.002202 9.2e-05 0.002026
-0.002185 9.3e-05 0.002044
-0.002167 9.4e-05 0.00206
-0.002146 9.7e-05 0.002075
-0.002119 0.000104 0.002084
-0.002075 0.000121 0.002077
-0.001468 0.000387 0.001908
-0.001451 0.000388 0.001925
-0.001436 0.000387 0.001944
-0.001424 0.000384 0.001966
-0.001416 0.000379 0.001993
-0.001413 0.000371 0.002023
-0.001421 0.000355 0.002063
-0.002486 0.00019 0.001293
-0.00245 0.000202 0.001294
-0.002411 0.000217 0.001292
-0.002365 0.000234 0.001285
-0.002279 0.000268 0.001275
-0.00223 0.000288 0.001265
-0.002174 0.000313 0.001249
-0.002129 0.00033 0.001242
-0.002097 0.00034 0.001247
-0.002072 0.000346 0.001258
-0.002051 0.000349 0.001272
-0.002033 0.00035 0.001289
-0.002018 0.000349 0.001308
-0.002737 0.000662 0.001216
0.000424 -1.9e-05 0.002088
-0.002658 0.000573 0.001288
-0.00254 0.000438 -0.001558
-0.002401 0.000728 0.000491
-0.002157 0.000183 0.001692
-0.002183 0.000157 0.001748
-0.002222 0.000113 0.001847
-0.002236 9.4e-05 0.001892
-0.002245 7.9e-05 0.001932
-0.002237 7.3e-05 0.001959
-0.002225 7.1e-05 0.00198
-0.00221 7e-05 0.002
-0.002195 7e-05 0.002019
-0.002178 7e-05 0.002037
-0.002159 7.2e-05 0.002054
-0.002139 7.4e-05 0.002069
-0.002115 7.9e-05 0.00208
-0.002075 9.4e-05 0.002077
-0.001425 -3e-05 0.001543
-0.001468 0.00036 0.001908
-0.00145 0.000361 0.001925
-0.001436 0.00036 0.001945
-0.001424 0.000357 0.001967
-0.001416 0.000352 0.001993
-0.001412 0.000344 0.002022
-0.001421 0.000328 0.002063
-0.002487 0.000162 0.001293
-0.00245 0.000175 0.001293
-0.00241 0.000189 0.001292
-0.002367 0.000206 0.001287
-0.002324 0.000223 0.001282
-0.002278 0.000242 0.001274
-0.00223 0.000261 0.001265
-0.002175 0.000285 0.00125
-0.002129 0.000303 0.001242
-0.002097 0.000313 0.001247
-0.002072 0.000319 0.001258
-0.00205 0.000322 0.001272
-0.002033 0.000323 0.001289
-0.002017 0.000322 0.001308
-0.002755 0.000664 0.00117
-0.002508 0.000661 0.0013
-0.002098 0.000749 0.001599
-0.002115 0.000653 0.001634
-0.001442 -3.1e-05 0.001525
-0.002221 8.6e-05 0.001846
-0.002236 6.7e-05 0.001892
-0.002238 5.6e-05 0.001926
-0.002228 5.2e-05 0.001951
-0.002215 5e-05 0.001972
-0.0022 4.9e-05 0.001992
-0.002184 4.9e-05 0.00201
-0.002167 5e-05 0.002028
-0.002149 5.1e-05 0.002045
-0.00213 5.3e-05 0.002061
-0.002107 5.7e-05 0.002074
-0.002071 6.9e-05 0.002074
-0.001468 0.000332 0.001908
-0.001451 0.000333 0.001925
-0.001436 0.000332 0.001945
-0.001424 0.00033 0.001967
-0.001416 0.000324 0.001993
-0.001413 0.000316 0.002023
-0.00142 0.000302 0.002062
-0.002486 0.000136 0.001292
-0.00245 0.000148 0.001293
-0.00241 0.000162 0.001291
-0.002367 0.000179 0.001287
-0.002323 0.000196 0.001281
-0.002279 0.000214 0.001275
-0.002229 0.000234 0.001264
-0.002175 0.000258 0.001249
-0.002129 0.000276 0.001242
-0.002097 0.000286 0.001247
-0.002071 0.000292 0.001257
-0.00205 0.000295 0.001271
-0.002033 0.000296 0.001289
-0.002017 0.000295 0.001308
-0.002613 0.000699 0.001294
-0.002723 0.000577 0.001264
-0.002712 0.000571 0.001042
-0.002699 0.000476 0.00128
-0.002159 0.000128 0.001693
-0.002184 0.000102 0.001748
-0.002203 8e-05 0.001798
-0.002222 5.9e-05 0.001847
-0.002231 4.3e-05 0.001887
-0.002227 3.6e-05 0.001917
-0.002216 3.2e-05 0.00194
-0.002202 3.1e-05 0.001961
-0.002188 3e-05 0.001981
-0.002172 3e-05 0.001999
-0.002155 3e-05 0.002017
-0.002137 3.1e-05 0.002034
-0.002117 3.3e-05 0.00205
-0.002096 3.7e-05 0.002064
-0.002066 4.5e-05 0.00207
-0.001459 -3.1e-05 0.001507
-0.001468 0.000305 0.001908
-0.00145 0.000306 0.001925
-0.001436 0.000305 0.001945
-0.001424 0.000302 0.001967
-0.001416 0.000297 0.001993
-0.001413 0.000289 0.002023
-0.001421 0.000274 0.002063
-0.002486 0.000109 0.001292
-0.002449 0.000121 0.001293
-0.002409 0.000136 0.001291
-0.002366 0.000153 0.001286
-0.002323 0.000169 0.001281
-0.002278 0.000187 0.001274
-0.002229 0.000207 0.001264
-0.002175 0.00023 0.00125
-0.002129 0.000249 0.001242
-0.002097 0.000259 0.001247
-0.002071 0.000265 0.001257
-0.00205 0.000268 0.001271
-0.002032 0.000269 0.001288
-0.002017 0.000268 0.001308
-0.002658 0.000682 0.001288
0.0004 -1.8e-05 0.002094
-0.002508 0.000634 0.0013
-0.002575 0.000687 0.000462
-0.002657 0.000492 0.001288
-0.002159 0.0001 0.001694
-0.002184 7.5e-05 0.001748
-0.002203 5.3e-05 0.001798
-0.002217 3.5e-05 0.001843
-0.002219 2.3e-05 0.001877
-0.002212 1.8e-05 0.001903
-0.0022 1.5e-05 0.001926
-0.002186 1.4e-05 0.001946
-0.00217 1.3e-05 0.001966
-0.002154 1.3e-05 0.001984
-0.002138 1.4e-05 0.002002
-0.00212 1.4e-05 0.00202
-0.002101 1.6e-05 0.002036
-0.00208 1.9e-05 0.00205
-0.002054 2.6e-05 0.002059
-0.001468 0.000278 0.001908
-0.00145 0.000279 0.001925
-0.001436 0.000278 0.001945
-0.001424 0.000275 0.001967
-0.001416 0.00027 0.001993
-0.001413 0.000262 0.002023
-0.001421 0.000247 0.002063
-0.002484 8.2e-05 0.001291
-0.002449 9.4e-05 0.001293
-0.002409 0.000109 0.001291
-0.002366 0.000126 0.001285
-0.002324 0.000141 0.001282
-0.002278 0.00016 0.001274
-0.002229 0.00018 0.001264
-0.002176 0.000203 0.00125
-0.002129 0.000222 0.001242
-0.002097 0.000232 0.001246
-0.002071 0.000238 0.001257
-0.00205 0.000241 0.001271
-0.002032 0.000242 0.001288
-0.002017 0.000241 0.001308
-0.002691 0.00067 0.001276
-0.002673 0.00054 0.001003
-0.002116 0.000734 0.001634
-0.002535 0.000703 0.000471
-0.002767 0.000505 0.001121
-0.002158 7.4e-05 0.001693
-0.002183 4.8e-05 0.001748
-0.0022 2.8e-05 0.001795
-0.002204 1.5e-05 0.001832
-0.002199 8e-06 0.00186
-0.002187 6e-06 0.001882
-0.002172 5e-06 0.001901
-0.002157 5e-06 0.001921
-0.00214 5e-06 0.001939
-0.002125 4e-06 0.001958
-0.002108 5e-06 0.001977
-0.002091 5e-06 0.001995
-0.002074 6e-06 0.002012
-0.002056 7e-06 0.002029
-0.002035 1.1e-05 0.002043
-0.001468 0.000251 0.001908
-0.00145 0.000252 0.001925
-0.001436 0.000251 0.001945
-0.001424 0.000248 0.001967
-0.001416 0.000243 0.001993
-0.001413 0.000235 0.002023
-0.001421 0.000219 0.002063
-0.002485 5.5e-05 0.001292
-0.002449 6.7e-05 0.001293
-0.002409 8.1e-05 0.001291
-0.002366 9.8e-05 0.001286
-0.002323 0.000115 0.001281
-0.002277 0.000133 0.001274
-0.002229 0.000153 0.001264
-0.002175 0.000176 0.00125
-0.002129 0.000195 0.001242
-0.002096 0.000205 0.001246
-0.002071 0.000211 0.001257
-0.00205 0.000214 0.001271
-0.002032 0.000215 0.001288
-0.002017 0.000214 0.001308
-0.002747 0.000662 0.001193
-0.002416 0.000721 -0.000306
0.000377 -1.8e-05 0.002101
-0.002823 0.000485 0.000403
-0.002511 0.000578 0.001301
-0.002158 4.7e-05 0.001693
-0.002178 2.4e-05 0.001744
-0.002186 9e-06 0.001783
-0.002179 4e-06 0.00181
-0.002165 2e-06 0.00183
-0.00215 2e-06 0.001849
-0.002133 2e-06 0.001868
-0.002117 2e-06 0.001886
-0.002102 1e-06 0.001905
-0.002085 2e-06 0.001923
-0.002068 2e-06 0.001942
-0.002052 2e-06 0.00196
-0.001468 0.000224 0.001907
-0.00145 0.000225 0.001925
-0.001436 0.000224 0.001945
-0.001424 0.000221 0.001967
-0.001416 0.000216 0.001993
-0.001413 0.000207 0.002023
-0.001421 0.000192 0.002063
-0.002484 2.8e-05 0.00129
-0.002448 4e-05 0.001292
-0.002408 5.5e-05 0.00129
-0.002366 7.1e-05 0.001286
-0.002324 8.7e-05 0.001282
-0.002279 0.000105 0.001275
-0.002228 0.000126 0.001264
-0.002173 0.00015 0.001248
-0.002129 0.000167 0.001242
-0.002097 0.000178 0.001247
-0.002071 0.000184 0.001257
-0.002049 0.000187 0.001271
-0.002032 0.000188 0.001288
-0.002017 0.000187 0.001308
-0.002568 0.000717 0.0013
-0.002659 0.0006 0.001288
-0.002723 0.00055 0.001264
-0.002563 0.00053 0.001298
-0.002534 0.000676 0.00047
-0.002154 2.2e-05 0.001689
-0.002163 6e-06 0.00173
-0.002158 -0.0 0.001758
-0.002144 -2e-06 0.001779
-0.00213 -3e-06 0.0018
-0.002114 -3e-06 0.001818
-0.002097 -3e-06 0.001836
-0.00208 -3e-06 0.001854
-0.002065 -3e-06 0.001873
-0.00205 -4e-06 0.001893
-0.001475 -3.2e-05 0.001489
-0.001468 0.000197 0.001907
-0.00145 0.000198 0.001925
-0.001436 0.000197 0.001945
-0.001424 0.000194 0.001967
-0.001416 0.000189 0.001993
-0.001413 0.00018 0.002023
-0.001421 0.000165 0.002063
-0.002474 5e-06 0.001284
-0.002445 1.4e-05 0.00129
-0.002406 2.9e-05 0.001289
-0.002365 4.4e-05 0.001285
-0.002325 5.9e-05 0.001283
-0.002277 7.9e-05 0.001273
-0.002228 9.9e-05 0.001264
-0.002174 0.000123 0.001249
-0.002129 0.00014 0.001242
-0.002097 0.00015 0.001247
-0.002071 0.000156 0.001257
-0.00205 0.00016 0.001271
-0.002032 0.000161 0.001288
-0.002017 0.00016 0.001308
-0.002756 0.000673 0.001117
-0.002506 0.000689 0.001299
-0.002737 0.000548 0.001243
-0.002941 0.000679 0.000346
-0.002128 2.1e-05 0.001634
-0.002138 5e-06 0.001676
-0.00213 -0.0 0.001701
-0.002114 -0.0 0.00172
-0.002097 -0.0 0.001738
-0.002078 1e-06 0.001754
-0.002047 1e-06 0.001792
-0.002033 -1e-06 0.001813
-0.002016 -0.0 0.001831
-0.001492 -3.2e-05 0.001471
-0.001468 0.00017 0.001907
-0.00145 0.000171 0.001925
-0.001436 0.00017 0.001944
-0.001424 0.000167 0.001967
-0.001416 0.000161 0.001993
-0.001413 0.000153 0.002023
-0.001421 0.000138 0.002063
-0.002442 -1e-06 0.001255
-0.002422 2e-06 0.00127
-0.002398 7e-06 0.001281
-0.002364 1.8e-05 0.001284
-0.002324 3.2e-05 0.001282
-0.002278 5.1e-05 0.001274
-0.002228 7.2e-05 0.001263
-0.002174 9.5e-05 0.001249
-0.002129 0.000113 0.001242
-0.002097 0.000123 0.001247
-0.002071 0.000129 0.001257
-0.00205 0.000132 0.001271
-0.002032 0.000133 0.001288
-0.002017 0.000132 0.001308
-0.00268 0.000703 0.001271
-0.002765 0.000615 0.00112
0.000353 -1.7e-05 0.002107
-0.00203 0.000713 0.001513
-0.001509 -3.2e-05 0.001453
-0.002068 1e-06 0.00168
-0.002054 -0.0 0.0017
-0.002037 0.0 0.001718
-0.001526 -3.3e-05 0.001435
-0.002006 -1e-06 0.001756
-0.001989 -0.0 0.001774
-0.001542 -3.3e-05 0.001416
-0.001891 0.0 0.001885
-0.001875 0.0 0.001903
-0.001468 0.000142 0.001908
-0.00145 0.000143 0.001925
-0.001436 0.000142 0.001945
-0.001424 0.00014 0.001967
-0.001415 0.000134 0.001993
-0.001413 0.000126 0.002023
-0.00142 0.000111 0.002063
-0.002396 1e-06 0.001214
-0.002381 -0.0 0.001234
-0.002365 -0.0 0.001253
-0.002347 1e-06 0.00127
-0.00232 8e-06 0.001278
-0.002281 2.2e-05 0.001277
-0.002229 4.4e-05 0.001264
-0.002172 6.9e-05 0.001247
-0.002129 8.6e-05 0.001242
-0.002097 9.6e-05 0.001247
-0.002071 0.000102 0.001257
-0.00205 0.000105 0.001271
-0.002032 0.000106 0.001288
-0.002017 0.000105 0.001308
-0.002004 0.000103 0.001329
-0.002732 0.000632 0.001241
-0.002757 0.000576 0.001198
-0.002747 0.000467 0.001221
-0.001559 -3.3e-05 0.001398
-0.002051 -6e-06 0.001632
-0.002032 -4e-06 0.001649
-0.002019 -6e-06 0.00167
-0.002003 -6e-06 0.001688
-0.001575 -3.3e-05 0.00138
-0.001939 -6e-06 0.001763
-0.001922 -5e-06 0.001781
-0.001591 -3.3e-05 0.001361
-0.001607 -3.3e-05 0.001342
-0.001859 -7e-06 0.001857
-0.001842 -7e-06 0.001875
-0.001468 0.000115 0.001908
-0.00145 0.000116 0.001925
-0.001436 0.000115 0.001945
-0.001424 0.000112 0.001967
-0.001416 0.000107 0.001993
-0.001413 9.9e-05 0.002023
-0.001421 8.4e-05 0.002063
-0.002509 0.000552 0.001301
-0.002741 0.000698 0.001164
-0.002574 0.000661 0.000462
-0.002563 0.000502 0.001298
-0.002297 -5e-06 0.001258
-0.002005 0.000757 0.001338
-0.002171 4.3e-05 0.001246
-0.002129 5.9e-05 0.001242
-0.002097 6.9e-05 0.001247
-0.002071 7.5e-05 0.001257
-0.00205 7.8e-05 0.001272
-0.002032 7.9e-05 0.001289
-0.002017 7.8e-05 0.001308
-0.002004 7.6e-05 0.001329
-0.002713 0.000706 0.001042
-0.002718 0.000634 0.001262
-0.002091 0.000698 0.001596
-0.002747 0.000521 0.001221
-0.001623 -3.3e-05 0.001324
-0.002003 -3e-06 0.00159
-0.001987 -4e-06 0.001609
-0.001971 -4e-06 0.001628
-0.001955 -4e-06 0.001646
-0.001937 -3e-06 0.001664
-0.001923 -4e-06 0.001684
-0.001906 -4e-06 0.001702
-0.001891 -4e-06 0.001721
-0.001875 -3e-06 0.00174
-0.001639 -3.3e-05 0.001305
-0.001655 -3.3e-05 0.001286
-0.001745 -4e-06 0.001889
-0.001728 -3e-06 0.001906
-0.00171 -2e-06 0.001923
-0.001487 8.6e-05 0.001892
-0.001468 8.8e-05 0.001908
-0.00145 8.9e-05 0.001925
-0.001436 8.8e-05 0.001945
-0.001424 8.5e-05 0.001967
-0.001415 8e-05 0.001993
-0.001412 7.2e-05 0.002023
-0.00142 5.7e-05 0.002062
-0.002318 -5e-06 0.001146
-0.002301 -5e-06 0.001164
-0.002489 0.000691 0.000826
-0.002975 0.000502 0.000326
-0.002773 0.000442 0.001152
-0.002214 -1e-06 0.001252
-0.002127 3.3e-05 0.00124
-0.002096 4.2e-05 0.001246
-0.002071 4.8e-05 0.001258
-0.00205 5.1e-05 0.001272
-0.002032 5.2e-05 0.001288
-0.002017 5.1e-05 0.001308
-0.002004 4.9e-05 0.001329
-0.002746 0.000603 0.00122
-0.002735 0.000604 0.001242
-0.002742 0.000523 0.001083
-0.002772 0.000524 0.001151
-0.002757 0.000521 0.001198
-0.002699 0.000448 0.00128
-0.001939 -1e-06 0.001567
-0.001923 -1e-06 0.001585
-0.001905 -0.0 0.001603
-0.00189 -1e-06 0.001622
-0.001875 -1e-06 0.001642
-0.001859 -1e-06 0.001661
-0.001842 -1e-06 0.001678
-0.001826 -1e-06 0.001698
-0.00181 -1e-06 0.001716
-0.00167 -3.2e-05 0.001267
-0.001698 -2e-06 0.001847
-0.001681 -1e-06 0.001865
-0.001665 -2e-06 0.001884
-0.001487 5.9e-05 0.001892
-0.001467 6.1e-05 0.001907
-0.00145 6.2e-05 0.001925
-0.001436 6.1e-05 0.001944
-0.001424 5.9e-05 0.001966
-0.001415 5.3e-05 0.001992
-0.001412 4.5e-05 0.002022
-0.001421 2.9e-05 0.002063
-0.00227 -3e-06 0.001104
-0.002253 -2e-06 0.001122
-0.002236 -2e-06 0.00114
-0.00222 -2e-06 0.001158
-0.002173 -3e-06 0.001215
-0.002157 -3e-06 0.001234
-0.002128 5e-06 0.001242
-0.002734 0.000696 0.001188
-0.002962 0.000671 0.000324
-0.002051 2.4e-05 0.001273
-0.002031 2.5e-05 0.001288
-0.002017 2.4e-05 0.001308
-0.002004 2.1e-05 0.00133
-0.002658 0.000519 0.001288
-0.001777 -2.8e-05 0.001125
-0.00199 0.0 0.001416
-0.001984 -6e-06 0.001443
-0.002766 0.000522 0.001176
-0.002767 0.000532 0.001121
-0.002724 0.000522 0.001264
-0.002757 0.00044 0.001198
-0.001895 -2e-06 0.001529
-0.001879 -1e-06 0.001547
-0.001862 -1e-06 0.001565
-0.001844 1e-06 0.001582
-0.001828 0.0 0.001601
-0.001812 0.0 0.00162
-0.001797 -0.0 0.001639
-0.001781 -0.0 0.001658
-0.001764 -0.0 0.001676
-0.001748 -0.0 0.001694
-0.001731 0.0 0.001713
-0.001654 -2e-06 0.001809
-0.001638 -2e-06 0.001828
-0.001623 -3e-06 0.001847
-0.001686 -3.2e-05 0.001248
-0.001508 2.8e-05 0.001878
-0.001486 3.2e-05 0.001891
-0.001467 3.4e-05 0.001907
-0.00145 3.5e-05 0.001925
-0.001436 3.4e-05 0.001944
-0.001425 3.1e-05 0.001967
-0.001416 2.6e-05 0.001993
-0.001413 1.7e-05 0.002024
-0.001422 1e-06 0.002064
-0.002226 -3e-06 0.001066
-0.00221 -2e-06 0.001084
-0.002194 -3e-06 0.001103
-0.002177 -2e-06 0.001121
-0.002714 0.000488 0.001043
-0.002127 -2e-06 0.001175
-0.002113 -3e-06 0.001196
-0.002096 -2e-06 0.001214
-0.002047 -2e-06 0.001269
-0.00203 -1e-06 0.001287
-0.002015 -2e-06 0.001307
-0.002747 0.000494 0.001221
-0.001953 -4e-06 0.001383
-0.001934 -2e-06 0.001399
-0.002971 0.000668 0.000301
-0.002756 0.000603 0.001198
-0.001867 -1e-06 0.001471
-0.001851 -1e-06 0.00149
-0.002954 0.000712 0.000174
-0.001819 -1e-06 0.001527
-0.001803 -1e-06 0.001546
-0.001787 -1e-06 0.001565
-0.001771 -1e-06 0.001584
-0.001738 -1e-06 0.00162
-0.001722 -1e-06 0.001639
-0.001706 -1e-06 0.001658
-0.00169 -1e-06 0.001676
-0.001673 -1e-06 0.001694
-0.001657 -1e-06 0.001713
-0.001641 -1e-06 0.001732
-0.001625 -1e-06 0.001751
-0.00161 -2e-06 0.00177
-0.001593 -1e-06 0.001788
-0.001577 -1e-06 0.001807
-0.001508 1e-06 0.001878
-0.001486 5e-06 0.001891
-0.001467 7e-06 0.001907
-0.001451 7e-06 0.001926
-0.001437 5e-06 0.001946
-0.001406 -6e-06 0.002018
-0.002164 -1e-06 0.001044
-0.002147 -1e-06 0.001062
-0.002133 -2e-06 0.001082
-0.002115 -1e-06 0.0011
-0.002357 0.000704 0.000731
-0.002083 -1e-06 0.001137
-0.002067 -1e-06 0.001155
-0.002658 0.000464 0.001288
-0.002019 -2e-06 0.001212
-0.002003 -2e-06 0.00123
-0.001985 -1e-06 0.001248
-0.002065 0.000717 0.001556
-0.00192 -1e-06 0.001321
-0.001904 -1e-06 0.00134
-0.001888 -1e-06 0.001359
-0.001873 -2e-06 0.001378
-0.001857 -2e-06 0.001397
-0.001841 -2e-06 0.001416
-0.001824 -1e-06 0.001434
-0.001808 -1e-06 0.001452
-0.002713 0.000543 0.001042
-0.001759 -1e-06 0.001508
-0.001743 -1e-06 0.001527
-0.001701 -3.1e-05 0.001228
-0.001644 -0.0 0.001637
-0.001629 -1e-06 0.001656
-0.001613 -1e-06 0.001675
-0.001596 -1e-06 0.001693
-0.001579 0.0 0.00171
-0.001532 -1e-06 0.001767
-0.001717 -3.1e-05 0.001209
-0.001732 -3e-05 0.00119
-0.001422 -3e-06 0.0019
-0.001405 -2e-06 0.001918
-0.001389 -3e-06 0.001937
-0.001747 -3e-05 0.00117
-0.001762 -2.9e-05 0.00115
-0.002437 0.000743 0.000479
-0.002481 0.000725 0.000473
-0.002071 -1e-06 0.001061
-0.002055 -1e-06 0.001079
-0.00204 -2e-06 0.001099
-0.002024 -2e-06 0.001118
-0.002008 -2e-06 0.001137
-0.002744 0.000707 0.001111
-0.002658 0.000546 0.001288
-0.001878 -2e-06 0.001284
-0.001861 -1e-06 0.001303
-0.001846 -2e-06 0.001322
-0.001829 -2e-06 0.00134
-0.001814 -2e-06 0.001359
-0.001797 -2e-06 0.001378
-0.002 0.000734 0.001472
-0.001987 0.000746 0.001439
-0.002017 0.000757 0.001317
-0.001617 -1e-06 0.00158
-0.001601 -0.0 0.001598
-0.001585 -1e-06 0.001618
-0.001571 -2e-06 0.001638
-0.001554 -2e-06 0.001656
-0.001537 -1e-06 0.001674
-0.001392 -1e-06 0.001842
-0.001375 -1e-06 0.00186
-0.00136 -2e-06 0.001879
-0.001342 -1e-06 0.001896
-0.001325 -0.0 0.001914
-0.001312 -2e-06 0.001935
-0.001294 -1e-06 0.001953
-0.002077 -2e-06 0.000968
-0.002061 -2e-06 0.000987
-0.002045 -2e-06 0.001005
-0.002026 -1e-06 0.001022
-0.002012 -2e-06 0.001042
-0.001995 -2e-06 0.00106
-0.001978 -1e-06 0.001077
-0.001963 -2e-06 0.001097
-0.001947 -2e-06 0.001116
-0.00207 0.000741 0.001559
-0.00251 0.000606 0.001301
-0.002612 0.000482 0.001294
-0.002091 0.000671 0.001595
-0.002742 0.000496 0.001083
-0.001836 -3e-06 0.001248
-0.00182 -3e-06 0.001267
-0.001804 -3e-06 0.001286
-0.001788 -4e-06 0.001304
-0.001772 -4e-06 0.001323
-0.001756 -4e-06 0.001342
-0.00174 -4e-06 0.001361
-0.002137 0.000664 0.001671
-0.002764 0.000605 0.001174
-0.001692 -4e-06 0.001417
-0.001676 -4e-06 0.001435
-0.001594 -3e-06 0.001527
-0.001578 -4e-06 0.001546
-0.001562 -4e-06 0.001565
-0.001545 -3e-06 0.001583
-0.001529 -3e-06 0.001601
-0.001511 -2e-06 0.001619
-0.001495 -3e-06 0.001637
-0.001479 -2e-06 0.001656
-0.001299 -0.0 0.001858
-0.001283 -1e-06 0.001877
-0.001266 -1e-06 0.001895
-0.001249 -0.0 0.001913
-0.002987 0.000443 0.000303
-0.002034 -2e-06 0.00093
-0.002018 -3e-06 0.000949
-0.002002 -3e-06 0.000968
-0.001987 -3e-06 0.000987
-0.001971 -3e-06 0.001006
-0.001955 -4e-06 0.001025
-0.001941 -5e-06 0.001046
-0.001925 -5e-06 0.001064
-0.001909 -6e-06 0.001083
-0.002743 0.000631 0.001083
-0.002658 0.000627 0.001288
-0.002698 0.000612 0.00128
-0.002742 0.000577 0.001083
-0.002612 0.000564 0.001294
-0.002737 0.000521 0.001243
-0.002613 0.000672 0.001295
-0.001786 -9e-06 0.001237
-0.001771 -1e-05 0.001256
-0.001755 -1e-05 0.001275
-0.001739 -1e-05 0.001294
-0.001723 -1.1e-05 0.001313
-0.001708 -1.1e-05 0.001332
-0.001692 -1.1e-05 0.001351
-0.001675 -1.1e-05 0.001369
-0.00166 -1.1e-05 0.001388
-0.001643 -1.1e-05 0.001407
-0.001627 -1.1e-05 0.001426
-0.001611 -1.1e-05 0.001444
-0.001595 -1.1e-05 0.001462
-0.001578 -1.1e-05 0.001481
-0.001561 -1.1e-05 0.001499
-0.001545 -1.1e-05 0.001517
-0.001529 -1.1e-05 0.001536
-0.001512 -1e-05 0.001554
-0.001496 -1e-05 0.001572
-0.001479 -1e-05 0.00159
-0.001463 -9e-06 0.001609
-0.001445 -9e-06 0.001626
-0.001428 -8e-06 0.001644
-0.001275 -4e-06 0.001805
-0.001257 -3e-06 0.001822
-0.00124 -2e-06 0.00184
-0.001224 -2e-06 0.001858
-0.002904 0.000406 -0.000639
-0.002761 0.000633 0.001173
-0.001982 -8e-06 0.000917
-0.001967 -9e-06 0.000938
-0.001953 -9e-06 0.000957
-0.002659 0.000654 0.001288
-0.002508 0.000715 0.0013
-0.002995 0.000499 0.00023
-0.002564 0.000692 0.001299
-0.002713 0.000652 0.001042
-0.002563 0.000666 0.001298
-0.002721 0.000605 0.001263
-0.002614 0.000645 0.001295
-0.002767 0.000559 0.001121
0.000329 -1.6e-05 0.002113
-0.001788 -1.7e-05 0.001173
-0.001772 -1.8e-05 0.001192
-0.001757 -1.8e-05 0.001212
-0.001741 -1.9e-05 0.001231
-0.001726 -1.9e-05 0.00125
-0.00171 -2e-05 0.001269
-0.001695 -2e-05 0.001288
-0.001679 -2e-05 0.001307
-0.001663 -2.1e-05 0.001326
-0.001648 -2.1e-05 0.001345
-0.001632 -2.1e-05 0.001364
-0.001616 -2.1e-05 0.001383
-0.0016 -2.1e-05 0.001401
-0.001583 -2.1e-05 0.00142
-0.001567 -2.1e-05 0.001438
-0.00155 -2.1e-05 0.001456
-0.001534 -2.1e-05 0.001475
-0.001518 -2.1e-05 0.001493
-0.0015 -2e-05 0.001511
-0.001483 -2e-05 0.001529
-0.001467 -1.9e-05 0.001547
-0.00145 -1.9e-05 0.001565
-0.001433 -1.8e-05 0.001583
-0.001416 -1.8e-05 0.001601
-0.001242 -1e-05 0.001776
-0.001224 -1e-05 0.001793
-0.001206 -8e-06 0.00181
-0.001189 -8e-06 0.001827
-0.002848 0.000695 -0.000805
-0.002397 0.000727 -0.000259
-0.002766 0.00044 0.001176
-0.002742 0.00055 0.001083
-0.0027 0.00053 0.00128
-0.002737 0.000467 0.001243
-0.002064 0.00069 0.001556
-0.002397 0.000752 -0.000234
-0.002699 0.000503 0.00128
-0.002774 0.000506 0.000421
-0.002996 0.0005 0.000205
-0.002612 0.000537 0.001294
-0.002724 0.000468 0.001265
-0.002092 0.000725 0.001596
-0.002747 0.00044 0.001221
-0.00251 0.000524 0.001301
-0.002014 0.000732 0.001315
-0.002002 0.000733 0.001337
-0.001982 0.000726 0.001409
-0.001986 0.000719 0.001438
-0.002 0.000707 0.001472
-0.00203 0.000686 0.001513
-0.002063 0.000663 0.001556
-0.002091 0.000644 0.001595
-0.002115 0.000626 0.001634
-0.002137 0.000609 0.001671
-0.002573 0.000634 0.000461
-0.002535 0.000648 0.000471
-0.002478 0.000672 0.000472
-0.002434 0.00069 0.000478
-0.0024 0.000702 0.00049
-0.002379 0.000708 0.000509
-0.002825 0.000674 0.000403
-0.002867 0.000602 0.000385
-0.002963 0.000573 0.000152
-0.002946 0.000568 0.000347
-0.002986 0.000552 0.000303
-0.002824 0.000647 0.000403
-0.002945 0.00046 0.000347
-0.002326 0.000722 0.000677
-0.002696 0.000555 0.001032
-0.002714 0.000461 0.001043
-0.002743 0.000441 0.001083
-0.002767 0.000423 0.001121
-0.002773 0.000415 0.001152
-0.002767 0.000413 0.001176
-0.002757 0.000413 0.001198
-0.002747 0.000412 0.001221
-0.002737 0.000412 0.001243
-0.002723 0.000414 0.001264
-0.002698 0.000421 0.00128
-0.002659 0.000437 0.001289
-0.002612 0.000455 0.001294
-0.002562 0.000475 0.001298
-0.002509 0.000497 0.001301
-0.002013 0.000705 0.001315
-0.002001 0.000706 0.001337
-0.001986 0.000704 0.001383
-0.001983 0.000699 0.00141
-0.001986 0.000692 0.001438
-0.002001 0.000679 0.001472
-0.002031 0.000658 0.001513
-0.002065 0.000636 0.001556
-0.002091 0.000616 0.001596
-0.002115 0.000599 0.001634
-0.002138 0.000582 0.001672
-0.002574 0.000606 0.000462
-0.002535 0.000621 0.000471
-0.002479 0.000645 0.000472
-0.002433 0.000663 0.000478
-0.002401 0.000674 0.000491
-0.002377 0.000681 0.000508
-0.002985 0.000615 0.000179
-0.002962 0.000627 0.000153
-0.002946 0.000622 0.000347
-0.002972 0.000612 0.000326
-0.002983 0.000608 0.000303
-0.002992 0.000608 0.000254
-0.002908 0.000557 0.000366
-0.00299 0.000443 0.000279
-0.002337 0.000715 0.000703
-0.002673 0.000567 0.001003
-0.002648 0.000581 0.000974
-0.002713 0.000434 0.001042
-0.002743 0.000414 0.001083
-0.002766 0.000396 0.001121
-0.002773 0.000388 0.001152
-0.002767 0.000386 0.001176
-0.002757 0.000385 0.001199
-0.002747 0.000385 0.001221
-0.002737 0.000385 0.001244
-0.002724 0.000386 0.001265
-0.002699 0.000394 0.00128
-0.002659 0.000409 0.001289
-0.002612 0.000428 0.001294
-0.002563 0.000448 0.001299
-0.002509 0.00047 0.001301
-0.001812 -3e-05 0.001059
-0.002013 0.000677 0.001315
-0.002001 0.000679 0.001337
-0.001992 0.000678 0.001359
-0.001985 0.000676 0.001383
-0.001982 0.000672 0.001409
-0.001987 0.000664 0.001439
-0.002 0.000652 0.001472
-0.002032 0.000631 0.001514
-0.002063 0.000609 0.001555
-0.002091 0.000589 0.001596
-0.002116 0.000572 0.001634
-0.002137 0.000555 0.001671
-0.002574 0.000579 0.000462
-0.002535 0.000594 0.000471
-0.002477 0.000619 0.000471
-0.002434 0.000635 0.000478
-0.002402 0.000647 0.000491
-0.002377 0.000654 0.000507
-0.002359 0.000658 0.000526
-0.002988 0.00064 0.000204
-0.002988 0.000636 0.000253
-0.002825 0.000702 0.000403
-0.002777 0.000722 0.000421
-0.002993 0.000609 0.000229
-0.002601 0.000713 0.000544
-0.00262 0.000623 0.000945
-0.002443 0.000687 0.000794
-0.002967 0.000702 0.000225
-0.002713 0.000407 0.001042
-0.002743 0.000387 0.001083
-0.002766 0.000369 0.001121
-0.002773 0.00036 0.001152
-0.002767 0.000358 0.001176
-0.002757 0.000358 0.001199
-0.002748 0.000358 0.001221
-0.002737 0.000358 0.001244
-0.002724 0.000359 0.001265
-0.002699 0.000367 0.00128
-0.002658 0.000383 0.001288
-0.002612 0.000401 0.001294
-0.002563 0.000421 0.001298
-0.002508 0.000444 0.0013
-0.002013 0.00065 0.001315
-0.002001 0.000651 0.001337
-0.001992 0.000651 0.001359
-0.001985 0.000649 0.001383
-0.001982 0.000645 0.001409
-0.001988 0.000636 0.001439
-0.002 0.000625 0.001472
-0.00203 0.000604 0.001513
-0.002062 0.000582 0.001555
-0.002091 0.000562 0.001596
-0.002116 0.000544 0.001634
-0.002136 0.000529 0.001671
-0.002574 0.000552 0.000462
-0.002533 0.000568 0.00047
-0.002479 0.00059 0.000472
-0.002434 0.000608 0.000478
-0.002401 0.00062 0.000491
-0.002377 0.000627 0.000507
-0.002359 0.000631 0.000525
-0.002345 0.000633 0.000546
-0.002868 0.00071 0.000385
-0.002985 0.000636 0.000278
-0.002776 0.000695 0.000421
-0.002993 0.00058 0.000254
-0.002886 0.000545 -0.000795
-0.002867 0.000493 0.000385
-0.002488 0.000664 0.000826
-0.002354 0.000733 0.000731
-0.002926 0.000554 0.000127
-0.002713 0.00038 0.001042
-0.002743 0.00036 0.001083
-0.002767 0.000342 0.001122
-0.002773 0.000333 0.001152
-0.002767 0.000331 0.001176
-0.002757 0.000331 0.001198
-0.002747 0.000331 0.001221
-0.002737 0.000331 0.001243
-0.002724 0.000332 0.001265
-0.002699 0.00034 0.00128
-0.002657 0.000356 0.001288
-0.002612 0.000374 0.001294
-0.002561 0.000394 0.001298
-0.002509 0.000416 0.001301
-0.002013 0.000623 0.001315
-0.002001 0.000624 0.001337
-0.001991 0.000624 0.001359
-0.001985 0.000622 0.001383
-0.001982 0.000618 0.001409
-0.001987 0.00061 0.001439
-0.002002 0.000597 0.001473
-0.002029 0.000578 0.001513
-0.002063 0.000555 0.001556
-0.002092 0.000535 0.001596
-0.002116 0.000517 0.001634
-0.002136 0.000502 0.001671
-0.002573 0.000525 0.000461
-0.002532 0.000541 0.00047
-0.002433 0.000581 0.000478
-0.002401 0.000593 0.000491
-0.002376 0.0006 0.000507
-0.002359 0.000604 0.000525
-0.002345 0.000606 0.000546
-0.002335 0.000605 0.000568
-0.002988 0.000607 0.000278
-0.002995 0.000555 0.000205
-0.002995 0.000526 0.00023
-0.002991 0.000525 0.000279
-0.002894 0.000458 0.000108
-0.002993 0.000471 0.000254
-0.002995 0.000472 0.00023
-0.002714 0.000352 0.001043
-0.002743 0.000332 0.001084
-0.002766 0.000315 0.001121
-0.002773 0.000306 0.001152
-0.002767 0.000304 0.001176
-0.002757 0.000304 0.001199
-0.002747 0.000303 0.001221
-0.002737 0.000303 0.001244
-0.002724 0.000305 0.001265
-0.002699 0.000312 0.00128
-0.002658 0.000328 0.001288
-0.002612 0.000347 0.001294
-0.002562 0.000367 0.001298
-0.00251 0.000388 0.001301
-0.002013 0.000596 0.001315
-0.002001 0.000597 0.001337
-0.001991 0.000597 0.001359
-0.001985 0.000594 0.001383
-0.001982 0.00059 0.001409
-0.001987 0.000583 0.001439
-0.002001 0.00057 0.001472
-0.00203 0.00055 0.001513
-0.002065 0.000527 0.001556
-0.002091 0.000508 0.001596
-0.002116 0.00049 0.001634
-0.002135 0.000475 0.001671
-0.002572 0.000498 0.000461
-0.002531 0.000514 0.000469
-0.002479 0.000536 0.000472
-0.002434 0.000554 0.000478
-0.0024 0.000566 0.00049
-0.002376 0.000573 0.000507
-0.002358 0.000577 0.000525
-0.002345 0.000578 0.000546
-0.002335 0.000578 0.000568
-0.002722 0.000692 0.000437
-0.002963 0.000545 0.000153
-0.002527 0.000699 0.000856
-0.002725 0.000609 0.000438
-0.002989 0.000423 0.000181
-0.001823 -3.1e-05 0.001037
-0.001834 -3.1e-05 0.001016
-0.002712 0.000326 0.001042
-0.002743 0.000305 0.001084
-0.002766 0.000288 0.001121
-0.002773 0.000279 0.001152
-0.002767 0.000277 0.001176
-0.002757 0.000276 0.001199
-0.002748 0.000276 0.001221
-0.002737 0.000276 0.001244
-0.002724 0.000278 0.001265
-0.002699 0.000285 0.00128
-0.002658 0.000301 0.001288
-0.002612 0.000319 0.001294
-0.002562 0.000339 0.001298
-0.002509 0.000361 0.001301
-0.002013 0.000569 0.001315
-0.002001 0.00057 0.001337
-0.001991 0.00057 0.001359
-0.001985 0.000567 0.001383
-0.001981 0.000564 0.001409
-0.001986 0.000556 0.001438
-0.002001 0.000543 0.001472
-0.002029 0.000523 0.001513
-0.002065 0.0005 0.001556
-0.002091 0.000481 0.001596
-0.002115 0.000463 0.001634
-0.00214 0.000447 0.001669
-0.002573 0.000471 0.000461
-0.002532 0.000487 0.000469
-0.002481 0.000508 0.000473
-0.002434 0.000526 0.000479
-0.0024 0.000539 0.00049
-0.002376 0.000546 0.000507
-0.002358 0.00055 0.000525
-0.002345 0.000551 0.000546
-0.002335 0.000551 0.000568
-0.002663 0.000718 0.000453
-0.002989 0.000532 0.00018
-0.002621 0.000649 0.000946
-0.002909 0.000506 -0.000739
-0.001845 -3.1e-05 0.000993
-0.002904 0.00046 -0.000639
-0.002713 0.000299 0.001042
-0.002744 0.000278 0.001084
-0.002767 0.00026 0.001122
-0.002773 0.000252 0.001152
