-0.000993 0.000742 -0.002383
-0.000981 0.000705 -0.002275
-0.001077 0.000728 -0.002152
-0.00174 0.000474 -0.00244
-0.001159 0.000739 -0.002142
-0.001448 0.000582 -0.002355
-0.001846 2e-06 -0.001585
-0.001861 2e-06 -0.001566
-0.001894 1e-06 -0.00153
-0.001909 2e-06 -0.00151
-0.001924 3e-06 -0.00149
-0.001941 2e-06 -0.001472
-0.001957 2e-06 -0.001454
-0.001973 2e-06 -0.001435
-0.001549 -2.7e-05 -0.001399
-0.002086 1e-06 -0.001305
-0.002101 2e-06 -0.001286
-0.002119 1e-06 -0.001268
-0.002136 -0.0 -0.00125
-0.002169 -1e-06 -0.001213
-0.002182 1e-06 -0.001192
-0.002158 2.6e-05 -0.00114
-0.001533 -2.7e-05 -0.001418
-0.000996 0.000694 -0.002432
-0.000997 0.000677 -0.002478
-0.001466 2e-06 -0.001942
-0.001481 2e-06 -0.001922
-0.001497 2e-06 -0.001903
-0.001515 1e-06 -0.001886
-0.00153 1e-06 -0.001867
-0.001517 -2.7e-05 -0.001436
-0.001129 0.00072 -0.00214
-0.001579 1e-06 -0.001812
-0.001595 1e-06 -0.001793
-0.001612 -0.0 -0.001775
-0.001501 -2.7e-05 -0.001455
-0.001698 -4e-06 -0.001687
-0.001715 -4e-06 -0.001669
-0.001769 2e-06 -0.001585
-0.001786 1e-06 -0.001568
-0.001802 1e-06 -0.001548
-0.00182 0.0 -0.001531
-0.001866 1e-06 -0.001474
-0.001882 1e-06 -0.001455
-0.001897 2e-06 -0.001435
-0.001914 1e-06 -0.001418
-0.001929 2e-06 -0.001398
-0.001484 -2.6e-05 -0.001473
-0.001468 -2.6e-05 -0.001491
-0.002043 0.0 -0.001268
-0.002059 0.0 -0.00125
-0.002075 0.0 -0.001231
-0.002091 0.0 -0.001212
-0.00145 -2.5e-05 -0.001509
-0.002138 1e-06 -0.001155
-0.002152 2e-06 -0.001135
-0.002153 1e-05 -0.001104
-0.00178 0.000448 -0.002412
-0.001361 -0.0 -0.001982
-0.001376 -0.0 -0.001963
-0.001392 -0.0 -0.001944
-0.001407 1e-06 -0.001924
-0.001421 2e-06 -0.001904
-0.001438 1e-06 -0.001886
-0.001453 2e-06 -0.001866
-0.00147 1e-06 -0.001848
-0.001485 2e-06 -0.001829
-0.001815 0.00048 -0.002376
-0.001799 0.000476 -0.002396
-0.001548 2e-06 -0.001753
-0.001565 2e-06 -0.001735
-0.00158 2e-06 -0.001716
-0.001655 0.00071 -0.002447
-0.001815 0.000453 -0.002376
-0.001628 2e-06 -0.001659
-0.001645 1e-06 -0.001642
-0.001662 1e-06 -0.001623
-0.001677 1e-06 -0.001604
-0.001585 0.000572 -0.002429
-0.001434 -2.5e-05 -0.001527
-0.001724 2e-06 -0.001547
-0.001741 2e-06 -0.001529
-0.001757 2e-06 -0.00151
-0.001869 1e-06 -0.001379
-0.001885 1e-06 -0.001361
-0.001416 -2.4e-05 -0.001545
-0.0014 -2.4e-05 -0.001563
-0.001102 0.000725 -0.002144
-0.000994 0.00066 -0.002383
-0.001996 2e-06 -0.001228
-0.002011 2e-06 -0.001209
-0.002077 1e-06 -0.001136
-0.002094 0.0 -0.001118
-0.002111 -0.0 -0.0011
-0.002127 -0.0 -0.001082
-0.002143 1e-06 -0.001063
-0.002158 3e-06 -0.001043
-0.0018 0.000448 -0.002397
-0.00176 0.000447 -0.002426
-0.001329 2e-06 -0.001922
-0.001346 1e-06 -0.001905
-0.001362 1e-06 -0.001886
-0.000996 0.000633 -0.002521
-0.001814 0.000589 -0.002374
-0.001411 1e-06 -0.001831
-0.001427 1e-06 -0.001812
-0.001444 1e-06 -0.001794
-0.001459 2e-06 -0.001775
-0.001475 0.0 -0.001756
-0.001491 1e-06 -0.001737
-0.001521 0.0 -0.001698
-0.001537 1e-06 -0.001679
-0.001555 0.0 -0.001662
-0.001568 2e-06 -0.001641
-0.001585 1e-06 -0.001623
-0.001601 1e-06 -0.001604
-0.001617 1e-06 -0.001585
-0.001633 1e-06 -0.001567
-0.001698 0.000448 -0.002465
-0.00098 0.00055 -0.002675
-0.001695 2e-06 -0.00149
-0.001396 0.000635 -0.002322
-0.001921 1e-06 -0.00123
-0.001937 1e-06 -0.00121
-0.001952 2e-06 -0.001191
-0.001969 1e-06 -0.001174
-0.001987 1e-06 -0.001156
-0.002018 0.0 -0.001118
-0.002032 1e-06 -0.001098
-0.002047 2e-06 -0.001078
-0.002063 2e-06 -0.00106
-0.00208 1e-06 -0.001041
-0.002096 1e-06 -0.001023
-0.002112 1e-06 -0.001004
-0.001271 0.0 -0.001906
-0.001286 1e-06 -0.001886
-0.001301 1e-06 -0.001867
-0.000996 0.00065 -0.002476
-0.001397 0.000688 -0.002324
-0.001255 0.000693 -0.002194
-0.001796 0.000642 -0.002391
-0.001817 0.000657 -0.002336
-0.00141 2e-06 -0.001733
-0.001427 2e-06 -0.001715
-0.001444 2e-06 -0.001697
-0.001459 2e-06 -0.001678
-0.001476 1e-06 -0.001659
-0.001493 1e-06 -0.001641
-0.001509 1e-06 -0.001623
-0.001525 1e-06 -0.001604
-0.001541 1e-06 -0.001586
-0.001557 1e-06 -0.001567
-0.001574 0.0 -0.001549
-0.001589 0.0 -0.00153
-0.00176 0.000474 -0.002426
-0.000987 0.000561 -0.002641
-0.001653 -0.0 -0.001455
-0.001796 1e-06 -0.001285
-0.001811 2e-06 -0.001266
-0.001827 2e-06 -0.001247
-0.001844 1e-06 -0.001229
-0.00186 1e-06 -0.00121
-0.001875 2e-06 -0.00119
-0.00189 2e-06 -0.001171
-0.001906 3e-06 -0.001152
-0.001922 2e-06 -0.001133
-0.001938 2e-06 -0.001115
-0.000997 0.000622 -0.002477
-0.002001 3e-06 -0.001039
-0.002018 2e-06 -0.001021
-0.002036 1e-06 -0.001004
-0.002053 0.0 -0.000986
-0.002069 0.0 -0.000968
-0.001224 2e-06 -0.001866
-0.001241 1e-06 -0.001848
-0.001256 1e-06 -0.001829
-0.001497 0.000531 -0.002385
-0.001188 0.000725 -0.002144
-0.001496 0.00064 -0.002384
-0.000987 0.000697 -0.002641
-0.001815 0.000676 -0.002289
-0.001542 0.000727 -0.002409
-0.001374 -2e-06 -0.001703
-0.001391 -3e-06 -0.001684
-0.001407 -3e-06 -0.001666
-0.001424 -4e-06 -0.001648
-0.001441 -4e-06 -0.00163
-0.001457 -4e-06 -0.001611
-0.001473 -4e-06 -0.001593
-0.00149 -5e-06 -0.001575
-0.001507 -5e-06 -0.001556
-0.001524 -6e-06 -0.001539
-0.001539 -6e-06 -0.00152
-0.00176 0.000583 -0.002427
-0.001627 0.000499 -0.002449
-0.001667 0.000484 -0.002463
-0.001103 0.000751 -0.002146
-0.001621 -7e-06 -0.001427
-0.001637 -7e-06 -0.001408
-0.001652 -7e-06 -0.001389
-0.001668 -7e-06 -0.00137
-0.001685 -7e-06 -0.001352
-0.0017 -7e-06 -0.001333
-0.001716 -6e-06 -0.001314
-0.001732 -6e-06 -0.001295
-0.001747 -6e-06 -0.001276
-0.001763 -6e-06 -0.001257
-0.001779 -6e-06 -0.001238
-0.001794 -5e-06 -0.001219
-0.001809 -5e-06 -0.001199
-0.001824 -4e-06 -0.00118
-0.00184 -4e-06 -0.001161
-0.001855 -4e-06 -0.001142
-0.00187 -3e-06 -0.001122
-0.001885 -2e-06 -0.001102
-0.001931 -1e-06 -0.001044
-0.001946 -0.0 -0.001024
-0.00196 0.0 -0.001005
-0.001975 1e-06 -0.000985
-0.001991 1e-06 -0.000966
-0.002007 1e-06 -0.000947
-0.002022 1e-06 -0.000928
-0.001697 0.00053 -0.002465
-0.000997 0.000721 -0.002433
-0.001203 -3e-06 -0.001816
-0.001221 -4e-06 -0.001799
-0.001747 0.000703 -0.002407
-0.001542 0.000619 -0.002408
-0.000992 0.00071 -0.002604
-0.001695 0.000613 -0.002462
-0.001666 0.00062 -0.002463
-0.001718 0.000611 -0.002453
-0.000994 0.000726 -0.002563
-0.001798 0.000613 -0.002394
0.000474 -1.9e-05 0.002072
-0.001627 0.000636 -0.002448
-0.00141 -1.2e-05 -0.001603
-0.001426 -1.3e-05 -0.001585
-0.001443 -1.3e-05 -0.001567
-0.00146 -1.4e-05 -0.001549
-0.001477 -1.4e-05 -0.001531
-0.001493 -1.4e-05 -0.001513
-0.00151 -1.5e-05 -0.001494
-0.001526 -1.5e-05 -0.001476
-0.001543 -1.5e-05 -0.001458
-0.001559 -1.6e-05 -0.00144
-0.001575 -1.6e-05 -0.001421
-0.00159 -1.5e-05 -0.001401
-0.001607 -1.6e-05 -0.001383
-0.001623 -1.6e-05 -0.001364
-0.001639 -1.6e-05 -0.001346
-0.001655 -1.6e-05 -0.001327
-0.00167 -1.5e-05 -0.001308
-0.001686 -1.5e-05 -0.001289
-0.001702 -1.5e-05 -0.00127
-0.001718 -1.5e-05 -0.001251
-0.001733 -1.5e-05 -0.001231
-0.001748 -1.4e-05 -0.001212
-0.001763 -1.4e-05 -0.001193
-0.001779 -1.4e-05 -0.001173
-0.001794 -1.3e-05 -0.001154
-0.001809 -1.2e-05 -0.001135
-0.001824 -1.2e-05 -0.001115
-0.001839 -1.1e-05 -0.001095
-0.001884 -9e-06 -0.001037
-0.001898 -8e-06 -0.001016
-0.001912 -7e-06 -0.000996
-0.001927 -7e-06 -0.000977
-0.001666 0.000538 -0.002463
-0.000996 0.000668 -0.002431
-0.000909 0.000702 -0.002829
-0.000987 0.000632 -0.002675
-0.00172 0.000446 -0.002454
-0.001586 0.00049 -0.00243
-0.001448 0.000554 -0.002356
-0.000241 0.000759 -0.002419
-0.000988 0.000717 -0.00224
-0.000997 0.00064 -0.002432
-0.00178 0.000475 -0.002411
-0.001777 0.000746 -0.001647
-0.000789 0.000706 -0.002858
-0.000988 0.000534 -0.002641
-0.000992 0.000547 -0.002604
-0.000994 0.000563 -0.002563
-0.000996 0.000578 -0.002521
-0.000997 0.000595 -0.002477
-0.000997 0.000613 -0.002433
-0.000994 0.000632 -0.002384
-0.000985 0.000657 -0.002326
-0.000981 0.000678 -0.002275
-0.000988 0.00069 -0.00224
-0.001 0.000697 -0.002214
-0.001016 0.000701 -0.002193
-0.001034 0.000703 -0.002176
-0.001055 0.000703 -0.002163
-0.001077 0.000701 -0.002152
-0.001101 0.000698 -0.002143
-0.001129 0.000693 -0.00214
-0.001159 0.000684 -0.00214
-0.000695 0.000471 -0.002803
-0.001397 0.000553 -0.002324
-0.001449 0.000527 -0.002356
-0.001497 0.000503 -0.002385
-0.001542 0.000482 -0.002409
-0.001585 0.000464 -0.002429
-0.001627 0.000445 -0.002448
-0.001667 0.000429 -0.002464
-0.001698 0.00042 -0.002466
-0.00172 0.000419 -0.002455
-0.001741 0.000419 -0.002441
-0.001761 0.00042 -0.002427
-0.00178 0.00042 -0.002412
-0.0018 0.000421 -0.002397
-0.001816 0.000425 -0.002376
-0.001818 0.00044 -0.002336
-0.001755 0.000721 -0.001659
-0.001777 0.000719 -0.001649
-0.000967 0.000478 -0.002766
-0.000989 0.000507 -0.002641
-0.000992 0.00052 -0.002604
-0.000994 0.000535 -0.002563
-0.000996 0.000551 -0.002521
-0.000997 0.000568 -0.002478
-0.000997 0.000585 -0.002433
-0.000994 0.000606 -0.002383
-0.000986 0.000629 -0.002327
-0.000981 0.000651 -0.002274
-0.000988 0.000663 -0.00224
-0.001 0.00067 -0.002213
-0.001016 0.000674 -0.002193
-0.001034 0.000676 -0.002176
-0.001055 0.000676 -0.002163
-0.001077 0.000674 -0.002152
-0.001101 0.000671 -0.002143
-0.001128 0.000666 -0.002139
-0.00116 0.000657 -0.002139
-0.00015 0.00068 -0.002623
-0.001396 0.000526 -0.002322
-0.001449 0.000499 -0.002357
-0.001497 0.000476 -0.002385
-0.001542 0.000455 -0.002409
-0.001585 0.000436 -0.002429
-0.001628 0.000418 -0.002449
-0.001667 0.000402 -0.002464
-0.001698 0.000393 -0.002466
-0.00172 0.000392 -0.002455
-0.001741 0.000392 -0.002441
-0.001761 0.000392 -0.002427
-0.001781 0.000393 -0.002412
-0.0018 0.000394 -0.002397
-0.001816 0.000398 -0.002376
-0.001818 0.000413 -0.002336
-0.001755 0.000694 -0.001658
-0.001777 0.000692 -0.001649
-0.000955 0.000433 -0.00281
-0.000989 0.00048 -0.002641
-0.000992 0.000493 -0.002604
-0.000994 0.000508 -0.002563
-0.000996 0.000524 -0.002521
-0.000997 0.00054 -0.002478
-0.000997 0.000558 -0.002432
-0.000994 0.000579 -0.002383
-0.000986 0.000603 -0.002326
-0.000981 0.000624 -0.002275
-0.000987 0.000636 -0.002239
-0.001 0.000643 -0.002213
-0.001016 0.000647 -0.002193
-0.001034 0.000649 -0.002176
-0.001055 0.000648 -0.002163
-0.001077 0.000647 -0.002152
-0.001101 0.000644 -0.002143
-0.000916 0.00061 -0.002851
-0.000917 0.000555 -0.002853
-0.00015 0.000626 -0.002622
-0.001396 0.000499 -0.002322
-0.001448 0.000472 -0.002356
-0.001497 0.000449 -0.002385
-0.001542 0.000428 -0.002409
-0.001585 0.000409 -0.002429
-0.001628 0.000391 -0.002449
-0.001667 0.000375 -0.002464
-0.001698 0.000366 -0.002466
-0.00172 0.000365 -0.002455
-0.001741 0.000365 -0.002441
-0.001761 0.000365 -0.002427
-0.001781 0.000366 -0.002412
-0.0018 0.000367 -0.002397
-0.001816 0.000371 -0.002376
-0.001818 0.000385 -0.002337
-0.001755 0.000666 -0.001659
-0.001777 0.000665 -0.001649
-0.000695 0.000499 -0.002802
-0.00099 0.000453 -0.002641
-0.000992 0.000466 -0.002603
-0.000994 0.000481 -0.002563
-0.000996 0.000497 -0.002521
-0.000997 0.000514 -0.002477
-0.000997 0.000531 -0.002433
-0.000994 0.000551 -0.002383
-0.000986 0.000575 -0.002326
-0.000981 0.000597 -0.002275
-0.000987 0.000609 -0.002239
-0.001 0.000616 -0.002213
-0.001016 0.00062 -0.002192
-0.001034 0.000622 -0.002176
-0.001055 0.000621 -0.002162
-0.000793 0.000673 -0.00287
-0.000979 0.00066 -0.00272
-0.000955 0.000569 -0.00281
-0.000126 0.000578 -0.002711
-0.000162 0.000644 -0.002579
-0.001397 0.000472 -0.002323
-0.001448 0.000445 -0.002356
-0.001497 0.000422 -0.002385
-0.001543 0.000401 -0.002409
-0.001584 0.000383 -0.002428
-0.001628 0.000364 -0.002449
-0.001667 0.000348 -0.002464
-0.001698 0.000339 -0.002465
-0.00172 0.000338 -0.002455
-0.00174 0.000338 -0.002441
-0.001761 0.000338 -0.002427
-0.00178 0.000339 -0.002412
-0.0018 0.00034 -0.002397
-0.001816 0.000344 -0.002376
-0.001818 0.000358 -0.002337
-0.001777 0.000637 -0.001649
-0.001803 0.000633 -0.001645
-0.001218 0.000741 -0.002159
-0.00099 0.000425 -0.002642
-0.000992 0.000439 -0.002603
-0.000995 0.000454 -0.002563
-0.000996 0.00047 -0.002521
-0.000997 0.000487 -0.002477
-0.000997 0.000504 -0.002433
-0.000994 0.000524 -0.002383
-0.000986 0.000548 -0.002326
-0.000981 0.00057 -0.002274
-0.000987 0.000582 -0.002239
-0.001 0.000589 -0.002213
-0.001015 0.000593 -0.002192
-0.001034 0.000595 -0.002175
-0.001055 0.000594 -0.002162
-0.001077 0.000593 -0.002151
-0.000968 0.000613 -0.002767
-0.000731 0.000561 -0.002835
-0.000917 0.000473 -0.002853
-0.00087 0.000473 -0.002868
-0.001396 0.000445 -0.002321
-0.001449 0.000418 -0.002356
-0.001497 0.000395 -0.002385
-0.001542 0.000374 -0.002409
-0.001585 0.000355 -0.002428
-0.001628 0.000336 -0.002448
-0.001667 0.00032 -0.002464
-0.001698 0.000312 -0.002465
-0.00172 0.00031 -0.002455
-0.00174 0.000311 -0.002441
-0.00176 0.000311 -0.002426
-0.00178 0.000312 -0.002412
-0.0018 0.000313 -0.002397
-0.001816 0.000317 -0.002376
-0.001818 0.000331 -0.002337
-0.001777 0.00061 -0.001649
-0.001803 0.000606 -0.001644
-0.001188 0.000752 -0.002145
-0.000989 0.000398 -0.002641
-0.000991 0.000412 -0.002603
-0.000995 0.000426 -0.002563
-0.000996 0.000443 -0.00252
-0.000997 0.000459 -0.002477
-0.000997 0.000477 -0.002432
-0.000994 0.000497 -0.002383
-0.000986 0.000521 -0.002326
-0.000981 0.000542 -0.002274
-0.000987 0.000555 -0.002239
-0.000999 0.000562 -0.002213
-0.001015 0.000566 -0.002192
-0.001034 0.000568 -0.002175
-0.001054 0.000567 -0.002162
-0.001077 0.000566 -0.002151
-0.000968 0.00064 -0.002768
-0.00087 0.000554 -0.002868
-0.001251 0.000781 -0.002182
-0.000766 0.000487 -0.002867
-0.001448 0.000391 -0.002356
-0.001497 0.000367 -0.002386
-0.001542 0.000347 -0.002409
-0.001585 0.000328 -0.002428
-0.001628 0.000309 -0.002449
-0.001667 0.000294 -0.002463
-0.001698 0.000285 -0.002465
-0.00172 0.000283 -0.002455
-0.00174 0.000284 -0.00244
-0.00176 0.000284 -0.002426
-0.00178 0.000285 -0.002411
-0.0018 0.000286 -0.002396
-0.001816 0.000289 -0.002376
-0.001818 0.000304 -0.002336
-0.001778 0.000583 -0.001649
-0.001803 0.000578 -0.001644
-0.001361 0.000719 -0.002287
-0.000988 0.000371 -0.002641
-0.000992 0.000384 -0.002604
-0.000995 0.000399 -0.002563
-0.000996 0.000416 -0.00252
-0.000997 0.000432 -0.002477
-0.000996 0.00045 -0.002432
-0.000994 0.00047 -0.002383
-0.000987 0.000493 -0.002327
-0.000981 0.000515 -0.002274
-0.000987 0.000528 -0.002239
-0.000999 0.000535 -0.002212
-0.001015 0.000539 -0.002192
-0.001034 0.000541 -0.002175
-0.001054 0.00054 -0.002162
-0.000764 0.00068 -0.002861
-0.000893 0.000609 -0.002861
-0.000766 0.000569 -0.002867
-0.00087 0.000527 -0.002868
-0.001291 0.000728 -0.002228
-0.000767 0.00046 -0.002867
-0.000731 0.000479 -0.002836
-0.001449 0.000363 -0.002357
-0.001498 0.00034 -0.002386
-0.001542 0.000319 -0.002409
-0.001585 0.000301 -0.002429
-0.001628 0.000282 -0.002449
-0.001667 0.000267 -0.002463
-0.001698 0.000258 -0.002465
-0.00172 0.000256 -0.002455
-0.001741 0.000256 -0.002441
-0.001761 0.000257 -0.002426
-0.00178 0.000257 -0.002412
-0.0018 0.000258 -0.002396
-0.001815 0.000263 -0.002375
-0.001818 0.000277 -0.002337
-0.001778 0.000556 -0.001649
-0.001803 0.000551 -0.001644
-0.000939 0.000503 -0.00284
-0.000987 0.000344 -0.002641
-0.000992 0.000357 -0.002604
-0.000995 0.000372 -0.002563
-0.000996 0.000388 -0.00252
-0.000996 0.000406 -0.002475
-0.000995 0.000424 -0.00243
-0.000994 0.000442 -0.002384
-0.000986 0.000466 -0.002327
-0.000981 0.000488 -0.002274
-0.000987 0.000501 -0.002238
-0.001 0.000508 -0.002212
-0.001015 0.000512 -0.002192
-0.001034 0.000513 -0.002175
-0.001054 0.000513 -0.002162
-0.001077 0.000511 -0.002151
-0.000796 0.000614 -0.00288
-0.000797 0.000558 -0.002882
-0.000939 0.00053 -0.00284
-0.000836 -2.4e-05 -0.001919
-0.000102 0.000553 -0.002765
-0.000569 0.00066 -0.002645
-0.001497 0.000313 -0.002385
-0.001542 0.000293 -0.002408
-0.001585 0.000273 -0.002429
-0.001627 0.000255 -0.002448
-0.001667 0.000239 -0.002463
-0.001698 0.000231 -0.002465
-0.00172 0.000229 -0.002454
-0.001741 0.000229 -0.002441
-0.001761 0.000229 -0.002427
-0.001781 0.00023 -0.002412
-0.0018 0.000231 -0.002396
-0.001815 0.000235 -0.002375
-0.001818 0.00025 -0.002336
-0.001778 0.000529 -0.001649
-0.001803 0.000524 -0.001644
-0.000294 0.000728 -0.002388
-0.000987 0.000317 -0.002641
-0.000992 0.00033 -0.002603
-0.000994 0.000346 -0.002562
-0.000996 0.000361 -0.00252
-0.000996 0.000379 -0.002476
-0.000997 0.000396 -0.002432
-0.000994 0.000415 -0.002383
-0.000986 0.000439 -0.002327
-0.000981 0.000461 -0.002273
-0.000987 0.000474 -0.002238
-0.001 0.000481 -0.002212
-0.001015 0.000485 -0.002192
-0.001034 0.000486 -0.002175
-0.001054 0.000486 -0.002162
-0.000731 0.000697 -0.002835
-0.000822 0.00061 -0.002879
-0.000822 0.000555 -0.002881
-0.000979 0.000579 -0.002719
-0.000658 0.000522 -0.002761
-0.001397 0.000336 -0.002322
-0.001449 0.000309 -0.002357
-0.001497 0.000286 -0.002385
-0.001542 0.000265 -0.002408
-0.001586 0.000246 -0.002429
-0.001627 0.000228 -0.002448
-0.001667 0.000212 -0.002463
-0.001697 0.000204 -0.002464
-0.00172 0.000202 -0.002454
-0.00174 0.000202 -0.00244
-0.00176 0.000203 -0.002426
-0.00178 0.000203 -0.002411
-0.001799 0.000204 -0.002395
-0.001815 0.000209 -0.002374
-0.001818 0.000223 -0.002336
-0.001778 0.000501 -0.001649
-0.001803 0.000497 -0.001644
-0.000859 -2.4e-05 -0.001911
-0.000987 0.00029 -0.002641
-0.000991 0.000303 -0.002602
-0.000994 0.000318 -0.002562
-0.000996 0.000335 -0.00252
-0.000997 0.000351 -0.002476
-0.000997 0.000368 -0.002432
-0.000993 0.000388 -0.002382
-0.000986 0.000412 -0.002326
-0.000981 0.000434 -0.002274
-0.000987 0.000446 -0.002238
-0.001 0.000453 -0.002212
-0.001016 0.000457 -0.002192
-0.001034 0.000459 -0.002175
-0.001054 0.000459 -0.002162
-0.000867 0.000667 -0.00286
-0.000846 0.000609 -0.002874
-0.000846 0.000555 -0.002875
-0.000967 0.000559 -0.002767
0.000116 0.000446 -0.002997
-0.000669 0.000576 -0.002767
-0.001397 0.000309 -0.002322
-0.001449 0.000282 -0.002356
-0.001498 0.000258 -0.002386
-0.001542 0.000238 -0.002408
-0.001586 0.000219 -0.002429
-0.001627 0.000201 -0.002448
-0.001667 0.000185 -0.002463
-0.001696 0.000177 -0.002463
-0.001719 0.000175 -0.002453
-0.00174 0.000175 -0.00244
-0.00176 0.000176 -0.002426
-0.00178 0.000176 -0.002411
-0.001799 0.000178 -0.002395
-0.001814 0.000182 -0.002373
-0.001818 0.000196 -0.002336
-0.000979 0.000252 -0.002673
-0.000986 0.000263 -0.00264
-0.000991 0.000276 -0.002602
-0.000994 0.000291 -0.002562
-0.000995 0.000308 -0.002519
-0.000997 0.000324 -0.002476
-0.000996 0.000342 -0.002431
-0.000994 0.000361 -0.002382
-0.000986 0.000385 -0.002326
-0.000981 0.000407 -0.002274
-0.000987 0.000419 -0.002238
-0.001 0.000426 -0.002212
-0.001016 0.00043 -0.002192
-0.001034 0.000432 -0.002175
-0.001055 0.000431 -0.002162
-0.000869 0.000637 -0.002866
0.000451 -1.8e-05 0.002078
-0.000967 0.000586 -0.002767
-0.000955 0.000541 -0.002811
-0.000731 0.000452 -0.002836
-0.001254 0.000749 -0.002192
-0.000882 -2.3e-05 -0.001903
-0.001498 0.000231 -0.002387
-0.001543 0.00021 -0.00241
-0.001585 0.000192 -0.002428
-0.001628 0.000173 -0.002449
-0.001666 0.000158 -0.002462
-0.001695 0.000151 -0.002462
-0.001718 0.000149 -0.002451
-0.001739 0.000149 -0.002439
-0.00176 0.000149 -0.002425
-0.001779 0.00015 -0.00241
-0.001797 0.000152 -0.002393
-0.001813 0.000156 -0.002372
-0.001817 0.000169 -0.002335
-0.000979 0.000224 -0.002674
-0.000986 0.000236 -0.00264
-0.000991 0.000249 -0.002602
-0.000994 0.000264 -0.002562
-0.000995 0.00028 -0.002519
-0.000996 0.000297 -0.002475
-0.000996 0.000315 -0.002431
-0.00098 0.00038 -0.002273
-0.000987 0.000392 -0.002238
-0.001 0.000399 -0.002212
-0.001016 0.000403 -0.002192
-0.001034 0.000404 -0.002175
-0.001055 0.000404 -0.002162
-0.000795 0.000642 -0.002877
0.000569 0.000745 -0.002361
-0.000917 0.000527 -0.002853
-0.000797 0.000449 -0.002884
-0.000767 0.000433 -0.002868
-0.001449 0.000227 -0.002357
-0.001498 0.000204 -0.002386
-0.001543 0.000183 -0.002409
-0.001585 0.000165 -0.002429
-0.001628 0.000146 -0.002449
-0.001666 0.000132 -0.002461
-0.001693 0.000126 -0.002458
-0.001716 0.000124 -0.002448
-0.001737 0.000123 -0.002435
-0.001757 0.000124 -0.002421
-0.001777 0.000125 -0.002406
-0.001795 0.000126 -0.002389
-0.001811 0.00013 -0.002369
-0.001817 0.000142 -0.002335
-0.001734 0.000422 -0.001671
-0.001361 0.000665 -0.002287
-0.000987 0.000209 -0.00264
-0.000992 0.000222 -0.002603
-0.000994 0.000237 -0.002562
-0.000996 0.000253 -0.00252
-0.000996 0.00027 -0.002475
-0.000995 0.000288 -0.00243
-0.000994 0.000307 -0.002382
-0.000986 0.000331 -0.002326
-0.00098 0.000353 -0.002273
-0.000987 0.000365 -0.002238
-0.000999 0.000372 -0.002212
-0.001015 0.000376 -0.002192
-0.001034 0.000377 -0.002175
-0.001055 0.000377 -0.002162
-0.001077 0.000375 -0.002151
-0.000916 0.000582 -0.002852
-0.000893 0.000527 -0.002861
-0.000183 0.000712 -0.00248
-0.001063 0.000736 -0.002158
-0.001449 0.0002 -0.002357
-0.001498 0.000177 -0.002386
-0.001543 0.000156 -0.002409
-0.001585 0.000138 -0.002428
-0.001628 0.000118 -0.002449
-0.001664 0.000106 -0.002458
-0.00169 0.000101 -0.002453
-0.001712 0.0001 -0.002442
-0.001734 9.9e-05 -0.00243
-0.001754 9.9e-05 -0.002416
-0.001773 0.0001 -0.002401
-0.001792 0.000102 -0.002384
-0.001808 0.000106 -0.002364
-0.001715 0.000393 -0.001687
-0.001734 0.000395 -0.001671
-0.001755 0.000395 -0.001658
-0.001778 0.000393 -0.001649
-0.001803 0.000389 -0.001643
-0.000986 0.00017 -0.002675
-0.000987 0.000181 -0.00264
-0.000991 0.000195 -0.002602
-0.000994 0.00021 -0.002562
-0.000996 0.000226 -0.002519
-0.000995 0.000244 -0.002474
-0.000996 0.00026 -0.00243
-0.000994 0.00028 -0.002382
-0.000984 0.000305 -0.002324
-0.000981 0.000326 -0.002273
-0.000987 0.000338 -0.002238
-0.000999 0.000345 -0.002212
-0.001015 0.000348 -0.002192
-0.001034 0.00035 -0.002175
-0.001055 0.00035 -0.002162
-0.001077 0.000348 -0.002151
-0.000766 0.000596 -0.002867
-0.000893 0.000554 -0.002861
-0.001326 0.000736 -0.002259
-0.000594 0.000672 -0.002679
-0.001021 0.000728 -0.002188
-0.001042 0.000733 -0.002171
-0.001498 0.000149 -0.002386
-0.001543 0.000129 -0.002409
-0.001585 0.00011 -0.002429
-0.001627 9.2e-05 -0.002448
-0.00166 8.2e-05 -0.002453
-0.001685 7.8e-05 -0.002445
-0.001707 7.7e-05 -0.002435
-0.001728 7.6e-05 -0.002422
-0.001749 7.7e-05 -0.002408
-0.001768 7.8e-05 -0.002393
-0.001787 7.9e-05 -0.002376
-0.001804 8.2e-05 -0.002358
-0.001715 0.000366 -0.001687
-0.001734 0.000368 -0.001671
-0.001755 0.000367 -0.001658
-0.001778 0.000365 -0.001648
-0.001803 0.000361 -0.001641
-0.001832 0.000354 -0.001643
-0.000986 0.000143 -0.002675
-0.000987 0.000154 -0.00264
-0.000991 0.000168 -0.002602
-0.000994 0.000183 -0.002561
-0.000995 0.000199 -0.002519
-0.000996 0.000216 -0.002475
-0.000996 0.000233 -0.002431
-0.000993 0.000253 -0.002382
-0.000985 0.000277 -0.002325
-0.00098 0.000298 -0.002273
-0.000987 0.000311 -0.002238
-0.001 0.000317 -0.002212
-0.001016 0.000321 -0.002192
-0.001034 0.000323 -0.002175
-0.001055 0.000323 -0.002162
-0.001077 0.000321 -0.002151
-0.000845 0.000637 -0.002872
-0.000658 0.00063 -0.002762
-0.000695 0.00058 -0.002802
-0.000695 0.000526 -0.002803
-0.000731 0.000506 -0.002836
-0.001396 0.000173 -0.002321
-0.00145 0.000145 -0.002358
-0.001498 0.000122 -0.002386
-0.001543 0.000102 -0.002409
-0.001586 8.3e-05 -0.00243
-0.001625 6.7e-05 -0.002445
-0.001654 6e-05 -0.002444
-0.001678 5.7e-05 -0.002435
-0.0017 5.5e-05 -0.002424
-0.001722 5.5e-05 -0.002412
-0.001742 5.5e-05 -0.002398
-0.001762 5.6e-05 -0.002383
-0.00178 5.8e-05 -0.002366
-0.001797 6.1e-05 -0.002348
-0.00138 -2.3e-05 -0.00158
-0.001716 0.000339 -0.001687
-0.001734 0.00034 -0.001671
-0.001755 0.00034 -0.001658
-0.001778 0.000338 -0.001648
-0.001803 0.000334 -0.001641
-0.001832 0.000327 -0.00164
-0.00022 0.000756 -0.002432
-0.000988 0.000127 -0.00264
-0.000991 0.000141 -0.002602
-0.000994 0.000155 -0.002562
-0.000996 0.000171 -0.002519
-0.000997 0.000188 -0.002476
-0.000995 0.000207 -0.002429
-0.000993 0.000226 -0.002382
-0.000985 0.00025 -0.002325
-0.00098 0.000271 -0.002273
-0.000987 0.000284 -0.002238
-0.001 0.00029 -0.002212
-0.001016 0.000294 -0.002192
-0.001034 0.000296 -0.002175
-0.001055 0.000295 -0.002162
-0.001077 0.000294 -0.002151
-0.000934 0.000673 -0.002827
-0.00087 0.000581 -0.002868
-0.000846 0.000527 -0.002875
-0.000766 0.000515 -0.002867
-0.001396 0.000147 -0.002321
-0.00145 0.000118 -0.002359
-0.001498 9.5e-05 -0.002385
-0.001542 7.5e-05 -0.002408
-0.001585 5.6e-05 -0.002428
-0.00162 4.4e-05 -0.002436
-0.001647 3.9e-05 -0.002432
-0.00167 3.7e-05 -0.002423
-0.001692 3.6e-05 -0.002411
-0.001713 3.5e-05 -0.002398
-0.001733 3.5e-05 -0.002385
-0.001753 3.6e-05 -0.00237
-0.001772 3.8e-05 -0.002353
-0.001789 4e-05 -0.002335
-0.00136 -2.4e-05 -0.001595
-0.001715 0.000312 -0.001687
-0.001734 0.000313 -0.001671
-0.001755 0.000313 -0.001659
-0.001778 0.000311 -0.001649
-0.001803 0.000307 -0.001642
-0.001832 0.0003 -0.00164
-0.000658 0.000495 -0.002761
-0.000987 0.0001 -0.00264
-0.000991 0.000114 -0.002601
-0.000994 0.000128 -0.002562
-0.000996 0.000144 -0.002521
-0.000996 0.000161 -0.002475
-0.000996 0.000179 -0.00243
-0.000993 0.000199 -0.002382
-0.000986 0.000222 -0.002326
-0.000981 0.000243 -0.002274
-0.000987 0.000256 -0.002238
-0.001 0.000263 -0.002213
-0.001016 0.000267 -0.002192
-0.001034 0.000268 -0.002175
-0.001055 0.000268 -0.002162
-0.001077 0.000266 -0.002151
-0.00089 0.000668 -0.002852
-0.000797 0.000586 -0.002881
-0.000766 0.000542 -0.002867
-0.001064 0.000761 -0.002162
-0.001397 0.000118 -0.002322
-0.00145 9.1e-05 -0.002359
-0.001497 6.9e-05 -0.002384
-0.00154 5e-05 -0.002405
-0.00158 3.3e-05 -0.002421
-0.00161 2.5e-05 -0.002422
-0.001636 2.1e-05 -0.002416
-0.001658 1.9e-05 -0.002405
-0.00168 1.8e-05 -0.002393
-0.001701 1.8e-05 -0.002381
-0.001721 1.8e-05 -0.002367
-0.001741 1.9e-05 -0.002352
-0.00176 2e-05 -0.002336
-0.001778 2.2e-05 -0.002319
-0.001715 0.000285 -0.001687
-0.001734 0.000286 -0.001671
-0.001755 0.000286 -0.001658
-0.001778 0.000284 -0.001649
-0.001803 0.00028 -0.001643
-0.000815 0.000703 -0.002856
-0.000987 7.2e-05 -0.00264
-0.000991 8.6e-05 -0.002602
-0.000994 0.000102 -0.002561
-0.000997 0.000116 -0.002522
-0.000997 0.000134 -0.002476
-0.000995 0.000152 -0.002429
-0.000993 0.000172 -0.002381
-0.000986 0.000195 -0.002326
-0.000981 0.000216 -0.002274
-0.000987 0.000229 -0.002238
-0.001 0.000236 -0.002213
-0.001016 0.00024 -0.002192
-0.001034 0.000241 -0.002175
-0.001055 0.000241 -0.002162
-0.001077 0.000239 -0.002151
-0.000913 0.000669 -0.002841
-0.000938 0.000585 -0.002839
-0.000797 0.000531 -0.002883
-0.000847 0.000418 -0.002876
-0.00134 -2.5e-05 -0.00161
-0.001397 9.1e-05 -0.002323
-0.00145 6.4e-05 -0.002358
-0.001496 4.3e-05 -0.002382
-0.001536 2.6e-05 -0.002398
-0.00157 1.5e-05 -0.002405
-0.001596 1e-05 -0.002401
-0.00162 7e-06 -0.002391
-0.001642 6e-06 -0.00238
-0.001663 6e-06 -0.002367
-0.001683 6e-06 -0.002354
-0.001704 6e-06 -0.00234
-0.001724 6e-06 -0.002326
-0.001743 7e-06 -0.002311
-0.001763 8e-06 -0.002295
-0.001716 0.000257 -0.001687
-0.001734 0.000259 -0.001671
-0.001755 0.000259 -0.001658
-0.001778 0.000257 -0.001648
-0.001803 0.000253 -0.001642
-0.001832 0.000245 -0.00164
-0.000984 3.3e-05 -0.002673
-0.000986 4.6e-05 -0.002639
-0.000991 5.9e-05 -0.002602
-0.000994 7.4e-05 -0.002561
-0.000996 9e-05 -0.00252
-0.000996 0.000107 -0.002476
-0.000996 0.000125 -0.00243
-0.000993 0.000145 -0.002381
-0.000986 0.000167 -0.002327
-0.000981 0.000189 -0.002274
-0.000987 0.000202 -0.002238
-0.001 0.000208 -0.002212
-0.001016 0.000212 -0.002192
-0.001034 0.000214 -0.002175
-0.001055 0.000214 -0.002162
-0.001077 0.000212 -0.002151
9.1e-05 0.000446 -0.002997
-0.000979 0.000633 -0.00272
-0.000822 0.000528 -0.002881
-0.000823 0.0005 -0.002882
-0.001399 6.3e-05 -0.002325
-0.001448 3.8e-05 -0.002355
-0.001491 1.9e-05 -0.002375
-0.001524 9e-06 -0.002381
-0.001549 5e-06 -0.002374
-0.001571 4e-06 -0.002362
-0.001592 4e-06 -0.002349
-0.001611 5e-06 -0.002333
-0.001653 4e-06 -0.002308
-0.001675 3e-06 -0.002296
-0.001694 4e-06 -0.002281
-0.001715 4e-06 -0.002267
-0.001735 5e-06 -0.002253
-0.001716 0.00023 -0.001687
-0.001734 0.000232 -0.001671
-0.001755 0.000232 -0.001658
-0.001778 0.000229 -0.001648
-0.001803 0.000225 -0.001641
-0.001832 0.000218 -0.00164
-0.000284 0.000711 -0.00239
-0.000984 2.1e-05 -0.002635
-0.00099 3.3e-05 -0.0026
-0.000994 4.7e-05 -0.002561
-0.000997 6.2e-05 -0.002521
-0.000997 7.9e-05 -0.002476
-0.000995 9.8e-05 -0.00243
-0.000993 0.000117 -0.002381
-0.000986 0.00014 -0.002326
-0.000981 0.000162 -0.002274
-0.000988 0.000174 -0.002239
-0.001 0.000181 -0.002212
-0.001016 0.000185 -0.002192
-0.001034 0.000187 -0.002175
-0.001055 0.000187 -0.002162
-0.001077 0.000185 -0.002151
-0.000937 0.000642 -0.002834
-0.000695 0.000608 -0.002802
-0.000661 0.000603 -0.002758
-0.000183 0.000685 -0.002481
-0.000797 0.000421 -0.002884
-0.001397 3.7e-05 -0.002322
-0.001443 1.5e-05 -0.002347
-0.001477 4e-06 -0.002353
-0.001502 0.0 -0.002347
-0.001522 1e-06 -0.002333
-0.001542 1e-06 -0.002319
-0.001564 1e-06 -0.002306
-0.001584 0.0 -0.002293
-0.001604 1e-06 -0.002278
-0.001625 1e-06 -0.002265
-0.001645 3e-06 -0.002251
-0.001716 0.000203 -0.001687
-0.001735 0.000204 -0.001671
-0.001755 0.000204 -0.001658
-0.001778 0.000202 -0.001649
-0.001803 0.000198 -0.001642
-0.001833 0.000191 -0.001641
-0.000917 0.000419 -0.002853
-0.000893 0.000581 -0.002861
-0.000984 1.1e-05 -0.00259
-0.000992 2.1e-05 -0.002558
-0.000996 3.5e-05 -0.00252
-0.000996 5.3e-05 -0.002475
-0.000996 7e-05 -0.00243
-0.000992 9.1e-05 -0.00238
-0.000986 0.000114 -0.002325
-0.000981 0.000135 -0.002274
-0.000987 0.000147 -0.002239
-0.001 0.000154 -0.002213
-0.001016 0.000158 -0.002192
-0.001034 0.00016 -0.002175
-0.001055 0.00016 -0.002162
-0.001077 0.000158 -0.002151
-0.000892 0.000637 -0.002858
-0.000955 0.000596 -0.00281
-0.000518 0.000696 -0.002569
-0.000894 0.000473 -0.002861
-0.001392 1.4e-05 -0.002315
-0.001426 2e-06 -0.002322
-0.001492 -1e-06 -0.002287
-0.001511 0.0 -0.002272
-0.001573 0.0 -0.002231
-0.001755 0.000177 -0.001658
-0.001778 0.000175 -0.001649
-0.001803 0.000171 -0.001644
-0.000939 0.000421 -0.002841
-0.000286 0.000763 -0.002396
-0.000839 0.000701 -0.002853
-0.00098 4e-06 -0.00254
-0.000991 1.2e-05 -0.002513
-0.000997 2.5e-05 -0.002476
-0.000997 4.2e-05 -0.002432
-0.000992 6.4e-05 -0.00238
-0.000986 8.7e-05 -0.002325
-0.000981 0.000108 -0.002274
-0.000987 0.00012 -0.002238
-0.001 0.000127 -0.002212
-0.001016 0.000131 -0.002192
-0.001034 0.000133 -0.002175
-0.001055 0.000132 -0.002162
-0.001077 0.000131 -0.002151
-0.000954 0.00068 -0.002806
-0.000938 0.000613 -0.002837
-0.001361 0.000745 -0.002289
-0.000893 0.0005 -0.00286
-0.00132 -2.5e-05 -0.001624
-0.001475 3e-06 -0.002217
-0.001495 4e-06 -0.002202
-0.001538 3e-06 -0.002177
-0.001558 3e-06 -0.002164
-0.001579 2e-06 -0.002151
-0.0016 3e-06 -0.002138
-0.00162 3e-06 -0.002123
-0.001662 2e-06 -0.002098
-0.001683 2e-06 -0.002085
-0.001735 0.00015 -0.001671
-0.000951 2e-06 -0.002496
-0.00097 3e-06 -0.00248
-0.000987 6e-06 -0.002461
-0.000997 1.5e-05 -0.002432
-0.000995 3.4e-05 -0.002384
-0.000985 6e-05 -0.002325
-0.000981 8.1e-05 -0.002273
-0.000987 9.3e-05 -0.002238
-0.001 0.0001 -0.002212
-0.001016 0.000104 -0.002191
-0.001034 0.000106 -0.002175
-0.001055 0.000105 -0.002162
-0.001077 0.000104 -0.002151
-0.000821 0.000639 -0.002876
-0.00087 0.000609 -0.002868
-0.000979 0.000606 -0.00272
0.000417 0.000718 -0.002388
-0.001321 2e-06 -0.002251
-0.001344 0.0 -0.002242
-0.001365 -0.0 -0.002229
-0.001385 1e-06 -0.002214
-0.001405 1e-06 -0.0022
-0.001426 1e-06 -0.002187
-0.001447 0.0 -0.002174
-0.001468 0.0 -0.002161
-0.001488 1e-06 -0.002147
-0.001508 0.0 -0.002133
-0.001528 1e-06 -0.002118
-0.001548 2e-06 -0.002104
-0.001569 1e-06 -0.002091
-0.00159 1e-06 -0.002078
-0.00161 2e-06 -0.002063
-0.00163 2e-06 -0.002049
-0.001651 2e-06 -0.002036
-0.0013 -2.5e-05 -0.001638
-0.001735 0.000123 -0.001671
-0.001755 0.000123 -0.001658
-0.001778 0.000121 -0.001649
-0.001803 0.000116 -0.001644
-0.00128 -2.6e-05 -0.001652
-0.00126 -2.6e-05 -0.001667
-0.000979 0.000551 -0.00272
-0.00092 1e-06 -0.002449
-0.000941 1e-06 -0.002436
-0.000963 -0.0 -0.002425
-0.0002 0.000749 -0.002452
-0.000991 2.8e-05 -0.002332
-0.00098 5.4e-05 -0.002272
-0.000987 6.6e-05 -0.002237
-0.000999 7.3e-05 -0.002211
-0.001015 7.7e-05 -0.002191
-0.001034 7.9e-05 -0.002175
-0.001055 7.8e-05 -0.002161
-0.000695 0.000716 -0.002803
-0.000955 0.00065 -0.002809
-0.000968 0.000667 -0.002768
-0.000987 0.00052 -0.002665
-0.001296 -3e-06 -0.002213
-0.001317 -4e-06 -0.002201
-0.001338 -4e-06 -0.002188
-0.001358 -4e-06 -0.002174
-0.001379 -4e-06 -0.00216
-0.001399 -4e-06 -0.002147
-0.001419 -3e-06 -0.002132
-0.00144 -3e-06 -0.002118
-0.00146 -3e-06 -0.002104
-0.001482 -5e-06 -0.002094
-0.001503 -4e-06 -0.00208
-0.001522 -3e-06 -0.002064
-0.001543 -4e-06 -0.002051
-0.001564 -4e-06 -0.002039
-0.001585 -4e-06 -0.002025
-0.001605 -4e-06 -0.002011
-0.001626 -4e-06 -0.001998
-0.001708 -3e-06 -0.001944
-0.001717 6e-06 -0.001913
-0.001734 9.6e-05 -0.001671
-0.001755 9.6e-05 -0.001657
-0.001777 9.4e-05 -0.001647
-0.001803 9e-05 -0.001641
-0.001832 8.2e-05 -0.00164
-0.00124 -2.7e-05 -0.001681
-0.000261 0.000711 -0.002397
-0.000981 0.000682 -0.002666
-0.000261 0.000739 -0.002398
-0.000543 0.000677 -0.002609
-0.001219 -2.7e-05 -0.001695
-0.000979 2.8e-05 -0.00227
-0.000987 3.9e-05 -0.002238
-0.000999 4.6e-05 -0.002211
-0.001016 5e-05 -0.002191
0.000427 -1.8e-05 0.002085
-0.001054 5.1e-05 -0.002161
-0.001077 5e-05 -0.00215
-0.000102 0.000661 -0.002766
-0.000657 0.000657 -0.002763
-0.000846 0.000473 -0.002875
-0.001199 -2.7e-05 -0.001709
-0.001263 -3e-06 -0.002164
-0.001282 -2e-06 -0.002148
-0.0013 0.0 -0.002131
-0.001322 -0.0 -0.002119
-0.001343 -1e-06 -0.002106
-0.001363 -1e-06 -0.002092
-0.001384 -1e-06 -0.00208
-0.001427 -2e-06 -0.002054
-0.001446 -1e-06 -0.002039
-0.001466 -1e-06 -0.002024
-0.001488 -1e-06 -0.002012
-0.001508 -2e-06 -0.001999
-0.001528 -1e-06 -0.001984
-0.001549 -1e-06 -0.001971
-0.00157 -1e-06 -0.001958
-0.001179 -2.7e-05 -0.001723
-0.001694 -2e-06 -0.001877
-0.001698 6.5e-05 -0.001705
-0.001715 6.7e-05 -0.001686
-0.001734 6.9e-05 -0.00167
-0.001754 6.9e-05 -0.001657
-0.001777 6.7e-05 -0.001646
-0.001803 6.3e-05 -0.00164
-0.001832 5.6e-05 -0.001639
-0.001158 -2.7e-05 -0.001737
-0.001138 -2.7e-05 -0.00175
-0.000838 -1e-06 -0.00237
-0.000859 -2e-06 -0.002357
-0.000955 0.000487 -0.002811
-0.000978 1e-06 -0.002269
-0.000987 1.1e-05 -0.002238
-0.000999 1.9e-05 -0.002211
-0.000797 0.000476 -0.002883
-0.000846 0.0005 -0.002875
-0.001054 2.4e-05 -0.002161
-0.001077 2.2e-05 -0.00215
-0.000417 0.000744 -0.002409
-0.000162 0.000671 -0.002579
-0.001042 0.000758 -0.002174
-0.001192 -5e-06 -0.002146
-0.001117 -2.8e-05 -0.001764
-0.001287 1e-06 -0.002067
-0.001307 2e-06 -0.002051
-0.001328 2e-06 -0.002038
-0.001348 2e-06 -0.002025
-0.00141 2e-06 -0.001984
-0.00143 2e-06 -0.00197
-0.001452 2e-06 -0.001958
-0.001576 1e-06 -0.001878
-0.001597 1e-06 -0.001865
-0.001683 3.3e-05 -0.001726
-0.001698 3.8e-05 -0.001704
-0.001715 4e-05 -0.001686
-0.001734 4.2e-05 -0.00167
-0.001754 4.2e-05 -0.001656
-0.001777 4e-05 -0.001646
-0.001803 3.6e-05 -0.00164
-0.001832 2.8e-05 -0.00164
-0.001096 -2.7e-05 -0.001777
-0.000803 0.0 -0.002317
-0.000823 1e-06 -0.002302
-0.000728 0.000727 -0.002828
-0.00087 0.000418 -0.002869
-0.000884 2e-06 -0.002261
-0.000905 1e-06 -0.002248
-0.001076 -2.7e-05 -0.00179
-0.000969 0.0 -0.00221
-0.000823 0.000473 -0.002882
-0.00087 0.0005 -0.002868
-0.001052 -1e-06 -0.002158
-0.001075 -3e-06 -0.002147
-0.001098 -5e-06 -0.002137
-0.001154 -0.0 -0.002089
-0.001175 -0.0 -0.002075
-0.000955 0.00046 -0.00281
-0.000917 0.000446 -0.002853
-0.000894 0.000446 -0.002861
0.001225 0.000755 -0.002078
-0.001277 0.0 -0.002007
-0.001297 1e-06 -0.001992
-0.001317 1e-06 -0.001978
-0.001338 1e-06 -0.001965
-0.001547 -1e-06 -0.001833
-0.001566 -0.0 -0.001818
-0.001669 -0.0 -0.00175
-0.001683 5e-06 -0.001727
-0.001698 1e-05 -0.001705
-0.001715 1.3e-05 -0.001686
-0.001735 1.4e-05 -0.001671
-0.001755 1.4e-05 -0.001657
-0.001778 1.2e-05 -0.001649
-0.001804 7e-06 -0.001642
-0.001833 0.0 -0.001641
-0.00073 0.0 -0.002295
-0.000751 -0.0 -0.002283
-0.000773 -1e-06 -0.002271
-0.000793 -0.0 -0.002256
-0.000812 1e-06 -0.00224
-0.000833 1e-06 -0.002228
-0.000853 1e-06 -0.002214
-0.000874 1e-06 -0.0022
-0.000935 2e-06 -0.002158
-0.000956 1e-06 -0.002145
-0.000939 0.000476 -0.00284
-0.001055 -2.7e-05 -0.001803
-0.001059 1e-06 -0.002078
-0.001079 2e-06 -0.002063
-0.001099 2e-06 -0.00205
-0.001119 2e-06 -0.002036
-0.001141 1e-06 -0.002024
-0.001161 1e-06 -0.00201
-0.001182 2e-06 -0.001996
-0.001254 0.000722 -0.002191
-0.000183 0.000739 -0.00248
-0.001265 1e-06 -0.001944
-0.001285 1e-06 -0.001929
-0.001347 1e-06 -0.001888
-0.001367 1e-06 -0.001875
-0.001388 1e-06 -0.001862
-0.001408 1e-06 -0.001847
-0.001532 1e-06 -0.001767
-0.001614 1e-06 -0.001712
-0.001636 1e-06 -0.0017
-0.001034 -2.7e-05 -0.001816
-0.001724 -5e-06 -0.001656
-0.001745 -5e-06 -0.001642
-0.001765 -4e-06 -0.001628
-0.000978 0.000525 -0.002718
-0.000717 1e-06 -0.002232
-0.000737 2e-06 -0.002217
-0.000758 2e-06 -0.002204
-0.000779 1e-06 -0.002192
-0.0008 1e-06 -0.002178
-0.000821 1e-06 -0.002165
-0.000842 0.0 -0.002153
-0.000695 0.000553 -0.002803
-0.001291 0.000674 -0.002227
-0.001326 0.000656 -0.002256
-0.000939 0.000449 -0.002841
-0.000846 0.000446 -0.002875
-0.001291 0.000701 -0.002228
-0.000218 0.000705 -0.002424
-0.000968 0.000505 -0.002767
-0.001047 1e-06 -0.002016
-0.001068 1e-06 -0.002003
-0.000162 0.000698 -0.002578
-0.001129 1e-06 -0.001961
-0.001149 2e-06 -0.001946
-0.000887 0.000701 -0.002839
-0.001013 -2.6e-05 -0.001829
-0.000992 -2.6e-05 -0.001842
-0.001294 1e-06 -0.001853
-0.001315 1e-06 -0.00184
-0.001335 1e-06 -0.001826
-0.001356 1e-06 -0.001813
-0.001377 1e-06 -0.0018
-0.001398 1e-06 -0.001787
-0.001417 2e-06 -0.001771
-0.001583 1e-06 -0.001665
-0.001686 1e-06 -0.001597
-0.001705 2e-06 -0.001581
-0.001725 2e-06 -0.001567
-0.00097 -2.5e-05 -0.001854
-0.000949 -2.4e-05 -0.001866
-0.000706 1e-06 -0.00217
-0.000727 1e-06 -0.002157
-0.000747 1e-06 -0.002142
-0.000769 1e-06 -0.00213
-0.000931 0.000706 -0.002815
-0.000731 0.000534 -0.002835
-0.000619 0.00063 -0.00271
-0.000218 0.000732 -0.002425
-0.00024 0.000735 -0.002412
-0.000284 0.000738 -0.002391
-0.000731 0.000588 -0.002835
-0.000731 0.000642 -0.002836
-0.000819 0.000669 -0.00287
-0.000968 0.000694 -0.002768
-0.000979 0.000714 -0.00272
-0.000938 0.000558 -0.00284
-0.001361 0.000638 -0.002287
-0.000863 0.000701 -0.002847
-0.001098 1e-06 -0.001914
-0.001118 1e-06 -0.0019
-0.001139 1e-06 -0.001887
-0.000797 0.000503 -0.002883
-0.000198 0.000698 -0.002446
-0.00015 0.000653 -0.002622
-0.001263 -0.0 -0.001807
-0.001284 0.0 -0.001793
-0.001304 -0.0 -0.001779
-0.001325 -0.0 -0.001766
-0.001345 0.0 -0.001752
-0.001365 1e-06 -0.001737
-0.001386 1e-06 -0.001724
-0.001632 1e-06 -0.001561
-0.001654 0.0 -0.001549
-0.001675 0.0 -0.001535
4.2e-05 0.000502 -0.002994
-0.000126 0.000633 -0.00271
-0.000674 1e-06 -0.002121
-0.000695 1e-06 -0.002108
-0.000715 1e-06 -0.002095
-0.000736 1e-06 -0.002082
-0.000198 0.000725 -0.002447
-0.000823 0.000446 -0.002882
-0.00087 0.000445 -0.002869
-0.000822 0.000582 -0.002881
-0.000731 0.000669 -0.002836
-0.000467 0.000741 -0.002473
-0.000695 0.000662 -0.002802
-0.000766 0.000624 -0.002866
-0.000843 0.000668 -0.002866
-0.000948 -4e-06 -0.001955
-0.000969 -5e-06 -0.001943
-0.00095 0.000712 -0.002794
-0.000915 0.000639 -0.002848
-0.000979 0.000687 -0.002721
-0.001052 -5e-06 -0.001889
-0.001074 -6e-06 -0.001877
-0.001094 -6e-06 -0.001863
-0.001115 -6e-06 -0.001851
-0.001136 -6e-06 -0.001837
-0.001156 -6e-06 -0.001823
-0.001177 -6e-06 -0.00181
-0.001197 -6e-06 -0.001796
-0.001218 -7e-06 -0.001783
-0.001239 -7e-06 -0.001769
-0.001259 -6e-06 -0.001755
-0.001279 -6e-06 -0.001741
-0.0013 -6e-06 -0.001728
-0.00132 -6e-06 -0.001714
-0.00134 -6e-06 -0.0017
-0.001361 -5e-06 -0.001686
-0.001381 -5e-06 -0.001671
-0.001401 -5e-06 -0.001658
-0.001421 -4e-06 -0.001644
-0.001582 -0.0 -0.001529
-0.001601 1e-06 -0.001513
-0.001621 1e-06 -0.001499
-0.001642 1e-06 -0.001485
-0.001662 2e-06 -0.001471
-5.4e-05 0.000616 -0.002863
-0.000625 -2e-06 -0.002092
-0.000647 -3e-06 -0.00208
-0.000668 -4e-06 -0.002068
-0.00069 -5e-06 -0.002056
-0.000711 -5e-06 -0.002044
-0.000967 0.000532 -0.002767
-0.001361 0.000692 -0.002287
-0.000846 0.000582 -0.002875
-0.000766 0.000652 -0.002865
-0.000695 0.000689 -0.002802
-0.000657 0.000685 -0.002762
-0.000695 0.000635 -0.002803
-0.000493 0.000718 -0.002522
-0.000731 0.000615 -0.002835
-0.000926 -1.2e-05 -0.001921
-0.000947 -1.3e-05 -0.001909
-0.000968 -1.4e-05 -0.001896
-0.000989 -1.4e-05 -0.001883
-0.00101 -1.4e-05 -0.00187
-0.001032 -1.5e-05 -0.001858
-0.001053 -1.5e-05 -0.001845
-0.001073 -1.6e-05 -0.001832
-0.001094 -1.5e-05 -0.001818
-0.001115 -1.6e-05 -0.001805
-0.001135 -1.6e-05 -0.001792
-0.001156 -1.6e-05 -0.001778
-0.001177 -1.6e-05 -0.001765
-0.001197 -1.6e-05 -0.001751
-0.001218 -1.6e-05 -0.001737
-0.001238 -1.5e-05 -0.001723
-0.001258 -1.5e-05 -0.001709
-0.001279 -1.5e-05 -0.001696
-0.001299 -1.5e-05 -0.001681
-0.001319 -1.4e-05 -0.001667
-0.001339 -1.4e-05 -0.001653
-0.001359 -1.4e-05 -0.001639
-0.001379 -1.3e-05 -0.001624
-0.001399 -1.2e-05 -0.001609
-0.001557 -7e-06 -0.001491
-0.001577 -6e-06 -0.001477
-0.001597 -6e-06 -0.001462
-0.001616 -5e-06 -0.001447
-0.0002 0.000717 -0.002702
-0.000102 0.000715 -0.002768
-0.000823 0.000419 -0.002882
-0.000619 0.000657 -0.00271
-0.000262 0.000763 -0.002403
-0.000594 0.000644 -0.002679
-0.000955 0.000514 -0.002811
-0.001327 0.000708 -0.00226
-0.000979 0.000497 -0.002719
-3e-05 0.00049 -0.002902
-0.001218 0.000714 -0.00216
-0.000239 0.000709 -0.002409
-0.001326 0.000682 -0.002259
-0.000894 0.000418 -0.002862
0.000141 0.000447 -0.002995
-0.000906 -2.3e-05 -0.001892
-0.000928 -2.4e-05 -0.001879
-0.000968 0.00045 -0.002767
-0.000978 0.00047 -0.002718
-0.000987 0.000493 -0.002665
-0.001042 0.000706 -0.002171
-0.001063 0.000709 -0.002158
-0.001186 0.000696 -0.002152
-0.001219 0.000686 -0.00216
-0.001254 0.000667 -0.002193
-0.001291 0.000646 -0.002228
-0.001326 0.000629 -0.002256
-0.00136 0.000612 -0.002284
-0.000136 0.000584 -0.002661
-0.00015 0.000599 -0.002623
-0.000162 0.000617 -0.002579
-0.000171 0.000639 -0.002526
-0.000183 0.000658 -0.00248
-0.000198 0.000671 -0.002446
-0.000217 0.000678 -0.002424
-0.000238 0.000682 -0.002408
-0.000261 0.000684 -0.002397
-0.000284 0.000684 -0.00239
0.000116 0.000638 -0.002993
-0.000175 0.000735 -0.002665
1.8e-05 0.000456 -0.002975
-6e-06 0.000472 -0.002941
0.000214 0.000468 -0.002951
-0.000695 0.000445 -0.002802
-0.000731 0.000424 -0.002837
-0.000767 0.000406 -0.002868
-0.000797 0.000394 -0.002883
-0.000823 0.000392 -0.002882
-0.000846 0.000391 -0.002875
-0.00087 0.000391 -0.002868
-0.000894 0.000391 -0.002861
-0.000917 0.000392 -0.002853
-0.000939 0.000394 -0.00284
-0.000955 0.000405 -0.002811
-0.000967 0.000423 -0.002766
-0.000978 0.000443 -0.002718
-0.000987 0.000466 -0.002665
-0.000813 -2.5e-05 -0.001928
-0.001189 0.000669 -0.002148
-0.001219 0.000659 -0.00216
-0.001254 0.00064 -0.002191
-0.001291 0.00062 -0.002226
-0.001325 0.000603 -0.002254
-0.00136 0.000584 -0.002285
-0.000135 0.000557 -0.00266
-0.00015 0.000572 -0.002622
-0.000162 0.00059 -0.002578
-0.000172 0.000612 -0.002526
-0.000183 0.000631 -0.002479
-0.000198 0.000644 -0.002446
-0.000217 0.000651 -0.002424
-0.000238 0.000655 -0.002408
-0.000261 0.000657 -0.002397
-0.000284 0.000657 -0.00239
-0.000176 0.000722 -0.002751
0.000213 0.000577 -0.002949
0.000165 0.000476 -0.002993
0.000141 0.000475 -0.002995
1.8e-05 0.000483 -0.002975
-0.000789 -2.5e-05 -0.001937
-0.000766 -2.6e-05 -0.001945
-0.000695 0.000418 -0.002801
-0.000731 0.000397 -0.002836
-0.000767 0.000378 -0.002868
-0.000797 0.000367 -0.002884
-0.000823 0.000365 -0.002881
-0.000846 0.000364 -0.002875
-0.00087 0.000364 -0.002868
-0.000893 0.000364 -0.002861
-0.000917 0.000365 -0.002853
-0.000939 0.000367 -0.00284
-0.000955 0.000378 -0.00281
-0.000968 0.000396 -0.002767
-0.000979 0.000416 -0.002719
-0.000988 0.000438 -0.002666
-0.001134 0.000654 -0.002138
-0.00116 0.00065 -0.002139
-0.001188 0.000642 -0.002146
-0.001219 0.000632 -0.00216
-0.001254 0.000613 -0.002191
-0.001291 0.000593 -0.002226
-0.001325 0.000576 -0.002254
-0.00136 0.000557 -0.002284
-0.000135 0.00053 -0.00266
-0.000149 0.000545 -0.002622
-0.000162 0.000562 -0.002578
-0.000172 0.000583 -0.002528
-0.000183 0.000604 -0.00248
-0.000198 0.000617 -0.002446
-0.000217 0.000624 -0.002424
-0.000238 0.000628 -0.002408
-0.000261 0.00063 -0.002397
-0.000284 0.00063 -0.00239
-7.8e-05 0.000691 -0.002818
0.00019 0.000562 -0.002982
9.1e-05 0.000555 -0.002997
-3e-05 0.000598 -0.002904
4.2e-05 0.000475 -0.002993
0.000753 0.000639 -0.00259
-0.000695 0.00039 -0.002802
-0.000731 0.00037 -0.002836
-0.000767 0.000351 -0.002868
-0.000797 0.00034 -0.002884
-0.000823 0.000337 -0.002882
-0.000847 0.000337 -0.002875
-0.00087 0.000337 -0.002868
-0.000894 0.000337 -0.002861
-0.000917 0.000337 -0.002853
-0.000939 0.00034 -0.00284
-0.000955 0.000352 -0.002809
-0.000967 0.000369 -0.002765
-0.000979 0.000389 -0.002718
-0.000988 0.000411 -0.002665
-0.001063 0.000627 -0.002158
-0.001086 0.000629 -0.002148
-0.001109 0.000629 -0.00214
-0.001134 0.000627 -0.002137
-0.00116 0.000622 -0.002139
-0.001188 0.000616 -0.002145
-0.001218 0.000605 -0.002159
-0.001254 0.000586 -0.002192
-0.00129 0.000566 -0.002226
-0.001326 0.000547 -0.002257
-0.001361 0.000529 -0.002286
-0.000569 0.000633 -0.002646
-0.00015 0.000517 -0.002622
-0.000162 0.000535 -0.002578
-0.000172 0.000557 -0.002527
-0.000183 0.000577 -0.002479
-0.000198 0.00059 -0.002445
-0.000217 0.000597 -0.002424
-0.000238 0.000601 -0.002408
-0.00026 0.000603 -0.002397
-0.000284 0.000603 -0.00239
-7.8e-05 0.000718 -0.00282
0.000246 0.000517 -0.002883
-0.00015 0.000739 -0.002657
6.7e-05 0.000555 -0.002997
-5.4e-05 0.000562 -0.002863
-0.000102 0.000607 -0.002767
0.000116 0.000501 -0.002995
-0.000661 0.000386 -0.002759
-0.000695 0.000363 -0.002802
-0.000732 0.000342 -0.002837
-0.000767 0.000324 -0.002867
-0.000797 0.000313 -0.002883
-0.000823 0.00031 -0.002882
-0.000847 0.000309 -0.002876
-0.00087 0.000309 -0.002869
-0.000894 0.000309 -0.002862
-0.000917 0.00031 -0.002854
-0.000939 0.000313 -0.00284
-0.000955 0.000324 -0.00281
-0.000967 0.000343 -0.002764
-0.000979 0.000362 -0.002718
-0.000988 0.000384 -0.002666
-0.001086 0.000602 -0.002147
-0.001109 0.000602 -0.00214
-0.001134 0.0006 -0.002136
-0.00116 0.000596 -0.002137
-0.001188 0.000589 -0.002144
-0.001218 0.000579 -0.002158
-0.001254 0.000558 -0.002192
-0.001291 0.000538 -0.002226
-0.001326 0.00052 -0.002256
-0.00136 0.000503 -0.002285
0.001127 0.000714 -0.002742
-0.00015 0.00049 -0.002622
-0.000162 0.000508 -0.002579
-0.000172 0.00053 -0.002527
-0.000183 0.00055 -0.002479
-0.000198 0.000563 -0.002445
-0.000217 0.00057 -0.002423
-0.000238 0.000574 -0.002407
-0.00026 0.000576 -0.002396
-0.000284 0.000576 -0.002389
-0.000309 0.000574 -0.002385
1.8e-05 0.000647 -0.002973
-0.000644 0.000725 -0.002739
0.000165 0.000558 -0.002992
0.00019 0.000535 -0.002983
-0.000642 0.000671 -0.00274
-0.000594 0.000726 -0.002679
-0.000658 0.000358 -0.002763
-0.000695 0.000336 -0.002802
-0.000732 0.000315 -0.002837
-0.000767 0.000297 -0.002868
-0.000798 0.000286 -0.002883
-0.000823 0.000283 -0.002882
-0.000847 0.000282 -0.002876
-0.00087 0.000282 -0.002869
-0.000894 0.000282 -0.002861
-0.000917 0.000283 -0.002853
-0.000939 0.000286 -0.00284
-0.000955 0.000297 -0.00281
-0.000967 0.000315 -0.002765
-0.000979 0.000334 -0.002719
-0.000987 0.000357 -0.002665
-0.001086 0.000575 -0.002147
-0.001109 0.000575 -0.00214
-0.001134 0.000573 -0.002137
-0.00116 0.000569 -0.002136
-0.001188 0.000562 -0.002144
-0.001218 0.000551 -0.002159
-0.001254 0.000531 -0.002192
-0.001291 0.000511 -0.002226
-0.001327 0.000491 -0.002261
-0.00136 0.000477 -0.002282
0.00109 0.000396 -0.002794
-0.000149 0.000463 -0.002622
-0.000162 0.000481 -0.002578
-0.000172 0.000502 -0.002529
-0.000183 0.000523 -0.002479
-0.000198 0.000535 -0.002445
-0.000217 0.000543 -0.002423
-0.000238 0.000547 -0.002407
-0.00026 0.000549 -0.002396
-0.000284 0.000549 -0.002389
-0.000309 0.000547 -0.002385
0.000141 0.00064 -0.00299
6.7e-05 0.000582 -0.002996
-6e-06 0.00058 -0.002942
-7.8e-05 0.000637 -0.002818
0.000962 0.000495 -0.002792
-0.000102 0.000688 -0.002767
-0.000657 0.000332 -0.002762
