0.001589 9e-06 0.001675
0.001604 9e-06 0.001655
0.001498 0.000581 0.002313
0.000609 0.000524 0.002887
0.001476 0.000464 0.002631
0.001711 1.1e-05 0.00152
0.001728 1e-05 0.001502
0.001775 1e-05 0.001445
0.001791 1e-05 0.001426
0.001807 1e-05 0.001408
0.001823 9e-06 0.001389
0.001838 1e-05 0.00137
0.001853 1e-05 0.00135
0.001511 0.000438 0.002463
0.00078 0.000734 0.002298
0.001998 8e-06 0.001182
0.002061 8e-06 0.001106
0.002076 8e-06 0.001087
0.001509 0.000538 0.002416
0.002104 1e-05 0.001046
0.002135 1.1e-05 0.001008
0.00215 1.1e-05 0.000988
0.002165 1.2e-05 0.000969
0.001434 0.000411 0.002656
0.00198 0.000526 0.002058
0.001369 1e-05 0.001845
0.001496 0.000438 0.002616
0.001431 1.1e-05 0.001768
0.001449 9e-06 0.001751
0.001463 1e-05 0.001731
0.001477 1.1e-05 0.00171
0.002053 0.000553 0.002078
0.001434 0.000384 0.002656
0.002053 0.000527 0.002077
0.001592 0.000668 0.001882
0.001389 0.000414 0.002678
0.001412 0.000412 0.002668
0.001591 0.000696 0.001881
0.001682 1e-05 0.001465
0.001699 1e-05 0.001446
0.001714 9e-06 0.001427
0.001729 1.1e-05 0.001407
0.001745 1e-05 0.001389
0.001761 1e-05 0.00137
0.001776 1.1e-05 0.00135
0.001792 1.1e-05 0.001331
0.001806 1.1e-05 0.001312
0.001823 1e-05 0.001294
0.001948 1.1e-05 0.001141
0.001963 1.1e-05 0.001122
0.001978 1.2e-05 0.001102
0.00201 1.1e-05 0.001065
0.002028 1e-05 0.001047
0.002059 1e-05 0.001009
0.002075 1e-05 0.000991
0.002092 1e-05 0.000972
0.002107 1e-05 0.000953
0.002126 8e-06 0.000936
0.001508 0.000484 0.002416
0.001488 0.000714 0.002255
0.001308 1e-05 0.001827
0.001324 1e-05 0.001808
0.002122 0.00053 0.002093
0.001725 0.000663 0.001946
0.002122 0.000503 0.002093
0.001514 0.000709 0.0019
0.001404 9e-06 0.001715
0.001421 8e-06 0.001697
0.001438 7e-06 0.001679
0.001454 7e-06 0.00166
0.001469 8e-06 0.00164
0.001508 0.000457 0.002416
0.000532 0.000199 0.002971
0.001435 0.000744 0.002002
0.00151 0.000568 0.002549
0.002053 0.000663 0.002077
0.001506 0.000581 0.002588
0.001477 0.000491 0.002632
0.001626 0.000738 0.001888
0.001476 0.000382 0.002631
0.002017 0.000485 0.002069
0.001647 4e-06 0.001436
0.001664 4e-06 0.001418
0.00168 4e-06 0.001399
0.001695 4e-06 0.00138
0.00171 4e-06 0.00136
0.001726 4e-06 0.001341
0.001741 4e-06 0.001322
0.001756 5e-06 0.001302
0.001772 4e-06 0.001283
0.001788 4e-06 0.001265
0.001878 7e-06 0.001147
0.001893 7e-06 0.001128
0.001909 7e-06 0.001109
0.001923 9e-06 0.001088
0.001938 8e-06 0.001069
0.002013 1.1e-05 0.000971
0.002028 1.1e-05 0.000952
0.002061 1.1e-05 0.000915
0.002076 1.1e-05 0.000895
0.00143 0.000667 0.001995
0.001511 0.000465 0.002463
0.001505 0.000667 0.002368
0.00127 6e-06 0.001795
0.001287 5e-06 0.001778
0.00198 0.000662 0.002058
0.001942 0.000676 0.002046
0.002122 0.000611 0.002093
0.001903 0.000719 0.002032
0.001371 0.000235 0.002681
0.001388 1e-06 0.001669
0.001405 0.0 0.001651
0.001422 -1e-06 0.001633
0.001438 -1e-06 0.001615
0.001504 0.000736 0.002541
0.001472 -2e-06 0.001579
0.001488 -3e-06 0.00156
0.001505 -3e-06 0.001542
0.001521 -4e-06 0.001524
0.001537 -4e-06 0.001505
0.002088 0.00065 0.002086
0.001775 0.000747 0.001976
0.000578 0.000283 0.002952
0.001602 -5e-06 0.00143
0.001617 -5e-06 0.001411
0.001633 -5e-06 0.001392
0.001649 -5e-06 0.001374
0.001665 -5e-06 0.001355
0.00168 -5e-06 0.001335
0.001696 -5e-06 0.001316
0.001712 -5e-06 0.001297
0.001727 -5e-06 0.001278
0.001742 -5e-06 0.001259
0.001757 -4e-06 0.001239
0.001772 -4e-06 0.00122
0.001787 -3e-06 0.0012
0.001846 -1e-06 0.001121
0.001862 -1e-06 0.001102
0.001876 0.0 0.001081
0.00189 1e-06 0.001061
0.001905 1e-06 0.001042
0.00192 2e-06 0.001022
0.001456 0.00041 0.002644
0.000669 0.000584 0.002672
0.001739 0.00076 0.001967
0.00182 0.000727 0.001998
0.002017 0.000648 0.002068
0.001903 0.000692 0.002032
0.000609 0.000334 0.002888
0.002088 0.000623 0.002086
0.002053 0.000635 0.002078
0.000532 0.00058 0.002971
0.001389 0.00055 0.002677
0.001862 0.000709 0.002017
0.001447 0.000688 0.002633
0.001378 0.000694 0.002662
0.001395 0.000234 0.002675
0.001444 -1.2e-05 0.001555
0.001461 -1.3e-05 0.001538
0.001477 -1.4e-05 0.001519
0.001494 -1.4e-05 0.001501
0.00151 -1.5e-05 0.001483
0.001527 -1.5e-05 0.001464
0.001543 -1.5e-05 0.001446
0.001559 -1.5e-05 0.001427
0.001574 -1.6e-05 0.001408
0.001591 -1.6e-05 0.001389
0.001607 -1.6e-05 0.001371
0.001622 -1.6e-05 0.001352
0.001638 -1.6e-05 0.001333
0.001654 -1.6e-05 0.001314
0.001669 -1.6e-05 0.001294
0.001684 -1.6e-05 0.001275
0.001699 -1.5e-05 0.001255
0.001715 -1.5e-05 0.001236
0.00173 -1.5e-05 0.001217
0.001745 -1.4e-05 0.001197
0.00176 -1.4e-05 0.001177
0.001774 -1.3e-05 0.001158
0.001789 -1.3e-05 0.001138
0.001804 -1.2e-05 0.001118
0.001833 -1e-05 0.001078
0.001848 -1e-05 0.001058
0.001862 -9e-06 0.001039
0.001477 0.000409 0.002632
0.001475 0.000552 0.002192
0.001426 0.000626 0.002033
0.00143 0.00064 0.001995
0.001441 0.000648 0.001967
0.001456 0.000652 0.001945
0.001474 0.000655 0.001927
0.001493 0.000655 0.001912
0.001514 0.000655 0.001899
0.001537 0.000653 0.001888
0.001562 0.000649 0.001882
0.001591 0.000641 0.001881
0.001626 0.000629 0.001889
0.001674 0.000607 0.001914
0.001727 0.00058 0.001948
0.001774 0.000558 0.001975
0.00182 0.000537 0.001998
0.001863 0.000518 0.002017
0.001904 0.000501 0.002034
0.001942 0.000486 0.002046
0.001981 0.000471 0.002059
0.002017 0.000458 0.002069
0.002053 0.000445 0.002078
0.002088 0.000432 0.002087
0.001342 0.000325 0.002673
0.000685 0.000602 0.002565
0.0007 0.000687 0.00237
0.000533 0.000335 0.002972
0.000659 0.000427 0.002723
0.000623 0.000484 0.00285
0.000578 0.000446 0.002952
0.000648 0.000626 0.002768
0.000678 0.000741 0.002622
0.001412 0.000358 0.002667
0.001434 0.000357 0.002656
0.001455 0.000356 0.002644
0.001477 0.000355 0.002632
0.001496 0.000356 0.002616
0.001506 0.000364 0.002587
0.00151 0.000378 0.002549
0.00151 0.000394 0.002506
0.001511 0.000411 0.002463
0.001509 0.000429 0.002416
0.001505 0.00045 0.002367
0.001498 0.000472 0.002312
0.001488 0.000497 0.002254
0.001473 0.000527 0.002188
0.001426 0.000599 0.002033
0.001429 0.000613 0.001994
0.001441 0.00062 0.001967
0.001456 0.000625 0.001945
0.001473 0.000628 0.001927
0.001493 0.000628 0.001912
0.001514 0.000628 0.001899
0.001536 0.000626 0.001888
0.001562 0.000622 0.001882
0.001592 0.000614 0.001881
0.001627 0.000602 0.001889
0.001674 0.00058 0.001914
0.001727 0.000552 0.00195
0.001775 0.00053 0.001975
0.00182 0.00051 0.001998
0.001862 0.000491 0.002017
0.001904 0.000474 0.002034
0.001942 0.000459 0.002046
0.00198 0.000444 0.002058
0.002017 0.000431 0.002068
0.002053 0.000418 0.002078
0.002089 0.000405 0.002088
0.001246 0.000445 0.002616
0.000736 0.000675 0.002322
0.000717 0.000697 0.002341
0.000685 0.000413 0.002563
0.000685 0.000386 0.002562
0.000636 0.000446 0.002811
0.000623 0.00043 0.002851
0.001213 0.000569 0.002593
0.000483 0.000583 0.002979
0.001412 0.000331 0.002668
0.001434 0.000329 0.002656
0.001455 0.000328 0.002644
0.001477 0.000328 0.002632
0.001496 0.000329 0.002616
0.001506 0.000337 0.002588
0.00151 0.000351 0.002549
0.001511 0.000367 0.002506
0.001511 0.000384 0.002463
0.001509 0.000402 0.002417
0.001505 0.000422 0.002367
0.001498 0.000445 0.002313
0.001488 0.00047 0.002254
0.001475 0.000498 0.002191
0.001426 0.000572 0.002032
0.001429 0.000585 0.001994
0.001441 0.000593 0.001967
0.001456 0.000598 0.001945
0.001473 0.000601 0.001927
0.001493 0.000601 0.001912
0.001514 0.000601 0.001898
0.001536 0.000599 0.001888
0.001562 0.000595 0.001882
0.001591 0.000587 0.001881
0.001627 0.000575 0.001889
0.001675 0.000552 0.001916
0.001728 0.000525 0.001951
0.001774 0.000503 0.001974
0.00182 0.000482 0.001998
0.001863 0.000464 0.002017
0.001904 0.000446 0.002034
0.001942 0.000432 0.002046
0.00198 0.000417 0.002058
0.002017 0.000404 0.002068
0.002053 0.00039 0.002078
0.002088 0.000378 0.002087
0.000854 0.000512 0.002285
0.00078 0.00068 0.002298
0.000757 0.000679 0.002308
0.001418 0.00029 0.002665
0.000699 0.000497 0.002368
0.000636 0.000337 0.002811
0.001213 0.000378 0.002594
0.00078 0.000571 0.002297
0.000668 0.000557 0.002672
0.000556 0.000497 0.002965
0.001178 0.000721 0.002567
0.001434 0.000302 0.002656
0.001455 0.000301 0.002644
0.001477 0.0003 0.002632
0.001496 0.000302 0.002616
0.001506 0.00031 0.002587
0.00151 0.000324 0.002549
0.001511 0.00034 0.002507
0.001511 0.000356 0.002463
0.001509 0.000375 0.002417
0.001505 0.000395 0.002367
0.001498 0.000417 0.002314
0.001487 0.000444 0.002254
0.001474 0.000472 0.00219
0.001427 0.000544 0.002034
0.00143 0.000558 0.001995
0.001441 0.000566 0.001967
0.001456 0.000571 0.001945
0.001473 0.000573 0.001927
0.001493 0.000574 0.001911
0.001514 0.000574 0.001898
0.001536 0.000572 0.001888
0.001562 0.000568 0.001881
0.001591 0.00056 0.001881
0.001626 0.000548 0.001889
0.001675 0.000524 0.001916
0.001728 0.000498 0.00195
0.001774 0.000476 0.001974
0.00182 0.000455 0.001998
0.001863 0.000437 0.002017
0.001904 0.000419 0.002034
0.001942 0.000405 0.002046
0.00198 0.00039 0.002058
0.002017 0.000376 0.002068
0.002053 0.000363 0.002078
0.002088 0.000351 0.002087
0.000678 0.000497 0.00262
0.001144 0.000519 0.002542
0.000991 0.000636 0.002389
0.000881 0.00056 0.00229
0.000716 0.000561 0.002341
0.00078 0.000707 0.002298
0.0007 0.000741 0.00237
0.000556 0.000607 0.002964
0.001434 0.000275 0.002656
0.001455 0.000274 0.002644
0.001477 0.000273 0.002632
0.001496 0.000275 0.002616
0.001506 0.000283 0.002587
0.00151 0.000297 0.002549
0.001511 0.000312 0.002507
0.001511 0.00033 0.002462
0.001509 0.000348 0.002416
0.001506 0.000367 0.002369
0.001498 0.000391 0.002313
0.001488 0.000416 0.002254
0.001474 0.000445 0.002189
0.001427 0.000517 0.002034
0.00143 0.000531 0.001995
0.001441 0.000539 0.001966
0.001456 0.000544 0.001945
0.001473 0.000546 0.001927
0.001493 0.000547 0.001912
0.001514 0.000547 0.001898
0.001537 0.000545 0.001888
0.001562 0.00054 0.001882
0.001591 0.000533 0.001881
0.001626 0.000521 0.001888
0.001676 0.000497 0.001917
0.001727 0.000471 0.001949
0.001774 0.000449 0.001974
0.00182 0.000428 0.001998
0.001863 0.000409 0.002018
0.001904 0.000392 0.002033
0.001942 0.000377 0.002046
0.00198 0.000363 0.002058
0.002017 0.000349 0.002068
0.002053 0.000336 0.002078
0.002088 0.000324 0.002087
0.000578 0.000256 0.002951
0.001032 0.00061 0.002436
0.000947 0.000667 0.002333
0.000854 0.000566 0.002285
0.000804 0.000571 0.00229
0.000659 0.0004 0.002723
0.0007 0.000551 0.002368
0.000736 0.000703 0.002322
0.000718 0.000749 0.002345
0.000609 0.000633 0.002888
0.001434 0.000248 0.002656
0.001456 0.000247 0.002644
0.001477 0.000246 0.002632
0.001496 0.000248 0.002615
0.001506 0.000255 0.002588
0.00151 0.000269 0.002549
0.001511 0.000285 0.002507
0.001511 0.000302 0.002463
0.00151 0.00032 0.002417
0.001506 0.00034 0.002369
0.001498 0.000363 0.002313
0.001488 0.000389 0.002255
0.001426 0.000491 0.002032
0.00143 0.000504 0.001995
0.001441 0.000512 0.001966
0.001456 0.000517 0.001944
0.001473 0.000519 0.001927
0.001493 0.00052 0.001912
0.001514 0.000519 0.001899
0.001537 0.000517 0.001888
0.001562 0.000513 0.001882
0.001592 0.000505 0.001881
0.001626 0.000493 0.001889
0.001675 0.00047 0.001916
0.001727 0.000444 0.001948
0.001775 0.000421 0.001975
0.00182 0.000401 0.001998
0.001864 0.000382 0.002018
0.001904 0.000365 0.002033
0.001943 0.00035 0.002046
0.00198 0.000336 0.002058
0.002017 0.000322 0.002068
0.002053 0.000309 0.002078
0.002088 0.000297 0.002087
0.000685 0.000494 0.002563
0.001144 0.000547 0.002541
0.001179 0.00053 0.002568
0.001212 0.000433 0.002592
0.000828 0.00057 0.002286
0.000669 0.00042 0.002674
0.001213 0.000459 0.002594
0.000678 0.000578 0.002621
0.000677 0.000633 0.00262
0.000532 0.000607 0.00297
0.001434 0.000221 0.002656
0.001456 0.000219 0.002645
0.001477 0.000219 0.002631
0.001495 0.000221 0.002615
0.001506 0.000228 0.002587
0.00151 0.000242 0.002549
0.001511 0.000258 0.002507
0.001512 0.000274 0.002464
0.00151 0.000293 0.002417
0.001506 0.000313 0.002368
0.001498 0.000336 0.002313
0.001488 0.000362 0.002254
0.001475 0.000389 0.002192
0.001427 0.000462 0.002034
0.00143 0.000476 0.001995
0.001441 0.000485 0.001966
0.001456 0.000489 0.001945
0.001474 0.000492 0.001927
0.001493 0.000493 0.001912
0.001514 0.000492 0.001899
0.001537 0.00049 0.001889
0.001562 0.000486 0.001882
0.001591 0.000478 0.001881
0.001627 0.000466 0.001889
0.001727 0.000417 0.001949
0.001775 0.000394 0.001975
0.00182 0.000374 0.001998
0.001863 0.000355 0.002018
0.001903 0.000338 0.002033
0.001943 0.000323 0.002047
0.001981 0.000308 0.002058
0.002017 0.000295 0.002068
0.002053 0.000282 0.002078
0.002088 0.00027 0.002087
0.00078 0.000544 0.002297
0.000609 0.000442 0.002888
0.001213 0.000514 0.002593
0.001371 0.000317 0.002682
0.001279 0.000377 0.002637
0.000854 0.000702 0.002286
0.000688 0.000723 0.002414
0.000594 0.000619 0.002923
0.001434 0.000194 0.002656
0.001455 0.000193 0.002644
0.001476 0.000192 0.00263
0.001495 0.000194 0.002614
0.001506 0.000201 0.002587
0.001509 0.000216 0.002548
0.001511 0.000231 0.002507
0.001512 0.000247 0.002464
0.00151 0.000266 0.002417
0.001506 0.000286 0.002368
0.001498 0.000309 0.002313
0.001487 0.000335 0.002253
0.001474 0.000363 0.00219
0.001428 0.000435 0.002034
0.00143 0.000449 0.001995
0.001441 0.000457 0.001967
0.001456 0.000462 0.001945
0.001474 0.000465 0.001927
0.001493 0.000465 0.001912
0.001514 0.000465 0.001899
0.001537 0.000463 0.001889
0.001562 0.000459 0.001882
0.001591 0.000451 0.001881
0.001626 0.000439 0.001889
0.001674 0.000416 0.001915
0.001727 0.00039 0.001949
0.001775 0.000367 0.001976
0.001821 0.000346 0.001999
0.001864 0.000327 0.002018
0.001904 0.000311 0.002033
0.001943 0.000295 0.002047
0.001981 0.000281 0.002059
0.002017 0.000268 0.002068
0.002054 0.000254 0.002078
0.002088 0.000243 0.002087
0.001342 0.000352 0.002673
0.000828 0.000678 0.002287
0.000854 0.000675 0.002286
0.000578 0.000364 0.002952
0.001145 0.000328 0.002544
0.000678 0.00047 0.002621
0.000828 0.000705 0.002287
0.000669 0.000611 0.002673
0.000623 0.000647 0.00285
0.001433 0.000167 0.002655
0.001455 0.000166 0.002643
0.001475 0.000166 0.002629
0.001493 0.000168 0.002612
0.001506 0.000175 0.002586
0.00151 0.000188 0.002549
0.001511 0.000204 0.002507
0.001512 0.00022 0.002464
0.00151 0.000239 0.002417
0.001506 0.000259 0.002368
0.001499 0.000281 0.002314
0.001487 0.000308 0.002253
0.001473 0.000336 0.002188
0.001427 0.000408 0.002033
0.00143 0.000422 0.001995
0.001441 0.00043 0.001967
0.001456 0.000435 0.001945
0.001474 0.000437 0.001927
0.001493 0.000438 0.001912
0.001514 0.000438 0.001899
0.001537 0.000436 0.001889
0.001562 0.000431 0.001882
0.001592 0.000424 0.001881
0.001626 0.000412 0.001888
0.001675 0.000389 0.001916
0.001727 0.000363 0.001949
0.001775 0.000339 0.001976
0.00182 0.000319 0.001998
0.001864 0.0003 0.002018
0.001904 0.000284 0.002033
0.001943 0.000268 0.002047
0.001981 0.000253 0.002059
0.002018 0.00024 0.002069
0.002053 0.000227 0.002078
0.002088 0.000215 0.002087
0.001178 0.000476 0.002567
0.000804 0.000679 0.002291
0.000659 0.000509 0.002721
0.000595 0.000212 0.002923
0.000659 0.000291 0.002723
0.001108 0.000348 0.00251
0.000659 0.000482 0.002721
0.00131 0.000527 0.002656
0.00137 0.000589 0.002681
0.000531 0.000635 0.002968
0.001432 0.000141 0.002652
0.001453 0.000141 0.00264
0.001473 0.000141 0.002626
0.001492 0.000142 0.00261
0.001505 0.000148 0.002586
0.00151 0.00016 0.00255
0.001511 0.000176 0.002507
0.001512 0.000193 0.002464
0.00151 0.000212 0.002417
0.001506 0.000231 0.002368
0.001499 0.000254 0.002314
0.001488 0.00028 0.002254
0.001428 0.000381 0.002034
0.00143 0.000395 0.001995
0.001441 0.000403 0.001967
0.001456 0.000408 0.001945
0.001474 0.00041 0.001927
0.001493 0.000411 0.001912
0.001514 0.000411 0.001899
0.001537 0.000408 0.001889
0.001562 0.000404 0.001882
0.001592 0.000397 0.001881
0.001627 0.000385 0.001889
0.001675 0.000361 0.001916
0.001727 0.000336 0.001948
0.001776 0.000312 0.001976
0.001821 0.000292 0.001999
0.001865 0.000272 0.002019
0.001904 0.000256 0.002034
0.001943 0.000241 0.002047
0.001981 0.000226 0.002059
0.002018 0.000213 0.002069
0.002053 0.000201 0.002077
0.002088 0.000188 0.002087
0.000659 0.000454 0.002722
0.000669 0.000529 0.002673
0.000648 0.00049 0.002769
0.000716 0.000616 0.00234
0.000911 0.000632 0.002303
0.000757 0.000706 0.002308
0.000648 0.000544 0.002768
0.001341 0.000596 0.002674
0.001144 0.000737 0.002541
0.001428 0.000117 0.002647
0.001449 0.000116 0.002635
0.001469 0.000116 0.002621
0.001489 0.000118 0.002605
0.001504 0.000122 0.002583
0.001509 0.000134 0.002548
0.001511 0.00015 0.002506
0.001511 0.000166 0.002463
0.001509 0.000185 0.002417
0.001506 0.000205 0.002368
0.001498 0.000227 0.002313
0.001487 0.000254 0.002253
0.001428 0.000353 0.002034
0.00143 0.000368 0.001995
0.001441 0.000376 0.001967
0.001456 0.000381 0.001945
0.001474 0.000383 0.001927
0.001493 0.000384 0.001912
0.001514 0.000384 0.001898
0.001537 0.000381 0.001889
0.001563 0.000377 0.001882
0.001592 0.000369 0.001882
0.001626 0.000358 0.001888
0.001675 0.000335 0.001916
0.001728 0.000308 0.001949
0.001776 0.000285 0.001976
0.001821 0.000264 0.001999
0.001864 0.000245 0.002019
0.001904 0.000229 0.002033
0.001943 0.000214 0.002047
0.001981 0.000199 0.002059
0.002018 0.000186 0.002069
0.002054 0.000173 0.002078
0.002088 0.000161 0.002087
0.001144 0.000438 0.002542
0.001179 0.000503 0.002568
0.000678 0.000551 0.002621
0.0007 0.000605 0.002369
0.000557 0.000361 0.002966
0.000648 0.000463 0.002768
0.001071 0.000613 0.002477
0.000881 0.00075 0.002291
0.000659 0.000699 0.002723
0.001423 9.4e-05 0.00264
0.001445 9.3e-05 0.002628
0.001465 9.3e-05 0.002614
0.001484 9.4e-05 0.002598
0.001501 9.7e-05 0.002579
0.001509 0.000107 0.002547
0.001511 0.000122 0.002506
0.001511 0.000139 0.002463
0.00151 0.000157 0.002417
0.001505 0.000178 0.002367
0.001499 0.0002 0.002313
0.001486 0.000227 0.002252
0.001428 0.000326 0.002035
0.00143 0.00034 0.001995
0.001441 0.000349 0.001967
0.001456 0.000353 0.001945
0.001474 0.000356 0.001927
0.001493 0.000357 0.001912
0.001514 0.000356 0.001899
0.001537 0.000354 0.001889
0.001563 0.00035 0.001882
0.001592 0.000342 0.001881
0.001627 0.00033 0.001889
0.001675 0.000307 0.001916
0.001728 0.000281 0.001949
0.001776 0.000258 0.001976
0.001821 0.000237 0.001999
0.001865 0.000218 0.002019
0.001904 0.000202 0.002034
0.001944 0.000186 0.002048
0.001981 0.000172 0.002059
0.002018 0.000158 0.002069
0.002054 0.000146 0.002078
0.002088 0.000134 0.002087
0.000484 0.000365 0.00298
0.000459 0.000394 0.002984
0.000484 0.000392 0.002981
0.000804 0.00049 0.00229
0.000804 0.000625 0.002291
0.001371 0.000425 0.002682
0.000623 0.000512 0.00285
0.000669 0.000692 0.002674
0.001417 7.2e-05 0.002631
0.001438 7.1e-05 0.002618
0.001459 7.1e-05 0.002604
0.001478 7.2e-05 0.002589
0.001496 7.4e-05 0.002571
0.001507 8.2e-05 0.002544
0.001511 9.5e-05 0.002507
0.001511 0.000112 0.002462
0.00151 0.00013 0.002417
0.001506 0.00015 0.002367
0.001498 0.000173 0.002313
0.001428 0.000299 0.002034
0.00143 0.000313 0.001996
0.001441 0.000321 0.001967
0.001457 0.000326 0.001945
0.001474 0.000329 0.001927
0.001493 0.00033 0.001912
0.001514 0.000329 0.001899
0.001537 0.000327 0.001889
0.001563 0.000322 0.001883
0.001592 0.000315 0.001882
0.001626 0.000303 0.001888
0.001675 0.00028 0.001915
0.001728 0.000253 0.00195
0.001777 0.00023 0.001978
0.001821 0.000209 0.002
0.001864 0.000191 0.002019
0.001905 0.000174 0.002034
0.001944 0.000159 0.002048
0.001981 0.000145 0.002059
0.002017 0.000132 0.002068
0.002054 0.000118 0.002078
0.002087 0.000107 0.002086
0.0007 0.000469 0.002369
0.00131 0.000445 0.002657
0.001278 0.000458 0.002638
0.000623 0.000294 0.00285
0.001395 0.000289 0.002676
0.000557 0.000388 0.002966
0.000659 0.000563 0.002722
0.000999 0.00076 0.002414
0.001408 5.2e-05 0.002618
0.00143 5.1e-05 0.002606
0.00145 5.1e-05 0.002592
0.00147 5.1e-05 0.002578
0.001488 5.3e-05 0.00256
0.001502 5.8e-05 0.002538
0.00151 6.9e-05 0.002505
0.00151 8.5e-05 0.002462
0.001509 0.000104 0.002416
0.001506 0.000123 0.002367
0.001486 0.000173 0.002251
0.001474 0.0002 0.00219
0.001427 0.000272 0.002034
0.00143 0.000286 0.001995
0.001441 0.000294 0.001967
0.001457 0.000299 0.001945
0.001474 0.000301 0.001927
0.001493 0.000302 0.001912
0.001514 0.000302 0.001899
0.001537 0.0003 0.001889
0.001563 0.000295 0.001883
0.001592 0.000288 0.001882
0.001627 0.000276 0.001889
0.001776 0.000203 0.001977
0.001822 0.000182 0.002001
0.001865 0.000163 0.002019
0.001905 0.000147 0.002034
0.001943 0.000132 0.002047
0.001981 0.000118 0.002059
0.002017 0.000105 0.002068
0.002054 9.1e-05 0.002078
0.002087 8e-05 0.002085
0.001071 0.000478 0.002475
0.000533 0.000389 0.002972
0.001246 0.000472 0.002616
0.001371 0.000371 0.002682
0.001399 -2.5e-05 0.001554
0.00131 0.000391 0.002656
0.001278 0.000404 0.002638
0.000736 0.000621 0.002322
0.000508 0.00039 0.002977
0.0007 0.000714 0.002369
0.001108 0.000701 0.002511
0.001245 0.00069 0.002615
0.001419 3.3e-05 0.00259
0.001439 3.3e-05 0.002576
0.001459 3.3e-05 0.002562
0.001478 3.4e-05 0.002545
0.001494 3.8e-05 0.002525
0.001506 4.5e-05 0.002499
0.00151 5.9e-05 0.002461
0.001509 7.7e-05 0.002415
0.001505 9.6e-05 0.002366
0.00138 -2.5e-05 0.001569
0.001485 0.000146 0.00225
0.001474 0.000173 0.002189
0.001428 0.000245 0.002034
0.00143 0.000259 0.001995
0.001441 0.000267 0.001967
0.001456 0.000272 0.001945
0.001474 0.000274 0.001927
0.001493 0.000275 0.001912
0.001514 0.000275 0.001899
0.001537 0.000273 0.001889
0.001563 0.000268 0.001882
0.001592 0.000261 0.001882
0.001627 0.000248 0.001889
0.001727 0.000199 0.001949
0.001777 0.000175 0.001978
0.001822 0.000155 0.002
0.001864 0.000136 0.002019
0.001904 0.00012 0.002034
0.001943 0.000105 0.002047
0.001981 9.1e-05 0.002058
0.002017 7.7e-05 0.002068
0.002052 6.5e-05 0.002076
0.002084 5.6e-05 0.002079
0.002109 5.2e-05 0.002072
0.001417 0.000236 0.002665
0.001342 0.000433 0.002674
0.001032 0.000583 0.002435
0.001071 0.000396 0.002475
0.000609 0.000279 0.002888
0.000578 0.000419 0.002952
0.000557 0.000415 0.002966
0.000594 0.000483 0.002923
0.000636 0.000555 0.002811
0.000623 0.000539 0.002851
0.001278 0.00054 0.002637
0.000689 0.000748 0.002418
0.000609 0.000605 0.002888
0.001444 1.9e-05 0.002539
0.001463 2e-05 0.002523
0.001481 2.2e-05 0.002506
0.001495 2.7e-05 0.002483
0.001505 3.6e-05 0.002454
0.001508 5e-05 0.002414
0.001504 7e-05 0.002365
0.001485 0.00012 0.002249
0.001471 0.000148 0.002185
0.001428 0.000217 0.002034
0.00143 0.000232 0.001995
0.001441 0.00024 0.001966
0.001456 0.000245 0.001945
0.001474 0.000247 0.001927
0.001493 0.000248 0.001912
0.001514 0.000248 0.001898
0.001537 0.000246 0.001888
0.001563 0.000241 0.001882
0.001592 0.000233 0.001882
0.001627 0.000221 0.00189
0.001676 0.000198 0.001917
0.001728 0.000172 0.00195
0.001777 0.000148 0.001978
0.001821 0.000128 0.002
0.001865 0.000109 0.00202
0.001904 9.3e-05 0.002034
0.001943 7.8e-05 0.002047
0.00198 6.4e-05 0.002057
0.002016 5.1e-05 0.002066
0.002048 4.2e-05 0.00207
0.002075 3.6e-05 0.002066
0.001033 0.0005 0.002437
0.001071 0.000559 0.002477
0.000991 0.00061 0.002388
0.000736 0.000594 0.002321
0.000623 0.000267 0.002851
0.000459 0.00034 0.002984
0.000533 0.000416 0.002972
0.000609 0.000497 0.002888
0.000578 0.000473 0.002952
0.000717 0.000724 0.002342
0.000684 0.000577 0.002561
0.000678 0.000389 0.00262
0.001371 0.000262 0.002682
0.000757 0.000516 0.002307
0.001416 1.5e-05 0.002499
0.001437 1.4e-05 0.002485
0.001456 1.5e-05 0.002469
0.001476 1.6e-05 0.002455
0.001492 1.9e-05 0.002434
0.001501 2.8e-05 0.002405
0.001503 4.4e-05 0.002364
0.001497 6.5e-05 0.002311
0.001486 9.1e-05 0.002251
0.001426 0.000192 0.002032
0.00143 0.000204 0.001995
0.001441 0.000213 0.001966
0.001456 0.000217 0.001945
0.001474 0.00022 0.001927
0.001493 0.000221 0.001912
0.001514 0.00022 0.001898
0.001537 0.000218 0.001889
0.001563 0.000214 0.001882
0.001592 0.000206 0.001882
0.001627 0.000194 0.001889
0.001675 0.000171 0.001916
0.001728 0.000144 0.00195
0.001777 0.000121 0.001977
0.001822 0.0001 0.002001
0.001865 8.2e-05 0.002019
0.001903 6.7e-05 0.002032
0.001942 5.1e-05 0.002046
0.001978 3.9e-05 0.002055
0.00201 2.9e-05 0.002058
0.002038 2.3e-05 0.002055
0.002062 2e-05 0.002046
0.000828 0.000597 0.002286
0.001108 0.000539 0.00251
0.000881 0.000668 0.002291
0.000716 0.000588 0.002341
0.000636 0.000282 0.002811
0.000609 0.000252 0.002888
0.000484 0.000338 0.00298
0.001213 0.000405 0.002593
0.001108 0.000484 0.002511
0.001144 0.000492 0.002542
0.000636 0.0005 0.00281
0.000533 0.000443 0.002971
0.000828 0.000542 0.002286
0.001032 0.00042 0.002436
0.000947 0.000478 0.002332
0.000609 0.000361 0.002887
0.001427 1.2e-05 0.002427
0.001448 1.2e-05 0.002414
0.001469 1.1e-05 0.002401
0.001486 1.4e-05 0.002382
0.001496 2.2e-05 0.002353
0.001496 4e-05 0.002309
0.001487 6.4e-05 0.002252
0.00136 -2.6e-05 0.001584
0.001426 0.000164 0.002032
0.00143 0.000178 0.001994
0.001441 0.000186 0.001966
0.001456 0.00019 0.001945
0.001474 0.000193 0.001927
0.001493 0.000193 0.001912
0.001514 0.000193 0.001898
0.001537 0.000191 0.001888
0.001563 0.000186 0.001882
0.001593 0.000178 0.001883
0.001626 0.000167 0.001888
0.001675 0.000144 0.001916
0.001729 0.000116 0.001951
0.001776 9.5e-05 0.001976
0.001821 7.4e-05 0.001999
0.001864 5.5e-05 0.002018
0.001903 4e-05 0.002031
0.001939 2.7e-05 0.00204
0.001969 1.9e-05 0.002041
0.001993 1.6e-05 0.002032
0.002015 1.5e-05 0.002021
0.002035 1.4e-05 0.002007
0.000757 0.000624 0.002307
0.000912 0.000658 0.002304
0.0007 0.000659 0.00237
0.000595 0.000375 0.002923
0.000911 0.000523 0.002303
0.001173 1e-05 0.002535
0.001196 7e-06 0.002525
0.000429 0.000675 0.002971
0.001254 9e-06 0.00248
0.001274 9e-06 0.002465
0.000425 0.000709 0.002959
0.000716 0.00048 0.002341
0.001311 0.000255 0.002656
0.001279 0.000268 0.002637
0.001341 -2.7e-05 0.001599
0.001321 -2.7e-05 0.001614
0.001487 2e-05 0.002296
0.001487 3.6e-05 0.002253
0.001428 0.000136 0.002034
0.00143 0.00015 0.001995
0.001441 0.000158 0.001966
0.001456 0.000163 0.001945
0.001474 0.000165 0.001927
0.001493 0.000166 0.001912
0.001514 0.000166 0.001898
0.001537 0.000164 0.001889
0.001563 0.000159 0.001882
0.001593 0.000151 0.001883
0.001627 0.00014 0.001889
0.001675 0.000117 0.001916
0.001729 8.9e-05 0.001952
0.001776 6.7e-05 0.001976
0.001821 4.7e-05 0.001999
0.001862 3e-05 0.002015
0.001896 1.7e-05 0.002023
0.001925 1.2e-05 0.00202
0.001949 9e-06 0.002011
0.001968 9e-06 0.001996
0.001988 1e-05 0.001981
0.002008 1e-05 0.001967
0.000716 0.000507 0.002341
0.000716 0.00067 0.002341
0.000484 0.000419 0.00298
0.000557 0.000253 0.002965
0.000881 0.000533 0.00229
0.000854 0.000539 0.002285
0.000648 0.000354 0.002769
0.001159 1e-05 0.002471
0.001201 1e-05 0.002444
0.00122 1.1e-05 0.002429
0.001241 1.1e-05 0.002416
0.00126 1.2e-05 0.0024
0.00128 1.2e-05 0.002387
0.0013 1.2e-05 0.002372
0.001319 1.3e-05 0.002355
0.001341 1.2e-05 0.002345
0.001362 1.2e-05 0.002331
0.001381 1.3e-05 0.002316
0.001178 0.000748 0.002568
0.001422 1.3e-05 0.002287
0.001443 1.2e-05 0.002275
0.001463 1.2e-05 0.002261
0.001477 1.7e-05 0.002238
0.001428 0.000109 0.002034
0.00143 0.000123 0.001995
0.001441 0.000131 0.001967
0.001456 0.000136 0.001945
0.001474 0.000138 0.001927
0.001494 0.000139 0.001912
0.001514 0.000139 0.001899
0.001537 0.000136 0.001889
0.001563 0.000132 0.001883
0.001593 0.000124 0.001883
0.001627 0.000113 0.001889
0.001729 6.2e-05 0.001951
0.001776 4e-05 0.001977
0.001818 2.2e-05 0.001994
0.001849 1.3e-05 0.001997
0.001872 1.1e-05 0.001987
0.001914 1e-05 0.00196
0.001936 9e-06 0.001949
0.001997 9e-06 0.001907
0.000688 0.000561 0.002411
0.000508 0.000417 0.002976
0.000459 0.000421 0.002983
0.001179 0.000449 0.002568
0.001278 0.000703 0.002636
0.001144 0.000465 0.002541
0.001301 -2.8e-05 0.001629
0.001166 1.2e-05 0.002393
0.001186 1.2e-05 0.002379
0.001206 1.2e-05 0.002366
0.001227 1.2e-05 0.002352
0.001248 1.1e-05 0.002338
0.001268 1.1e-05 0.002325
0.001289 1.1e-05 0.002311
0.00131 1.1e-05 0.002298
0.00133 1.1e-05 0.002284
0.001351 1e-05 0.002271
0.000648 0.000734 0.002769
0.001392 1e-05 0.002244
0.001413 1e-05 0.002231
0.001433 1e-05 0.002217
0.001455 9e-06 0.002205
0.001468 1.5e-05 0.002181
0.001427 8.3e-05 0.002033
0.00143 9.6e-05 0.001994
0.001441 0.000104 0.001966
0.001456 0.000109 0.001945
0.001474 0.000111 0.001927
0.001494 0.000112 0.001912
0.001514 0.000112 0.001899
0.001538 0.000109 0.001889
0.001563 0.000105 0.001883
0.001593 9.7e-05 0.001882
0.001626 8.6e-05 0.001888
0.001281 -2.8e-05 0.001643
0.00173 3.4e-05 0.001953
0.001771 1.7e-05 0.001969
0.001797 1.2e-05 0.001964
0.001818 1.2e-05 0.001951
0.001838 1.2e-05 0.001936
0.001858 1.2e-05 0.001922
0.001938 1.4e-05 0.001865
0.001959 1.3e-05 0.001852
0.001261 -2.9e-05 0.001658
0.000828 0.000488 0.002286
0.000595 0.000429 0.002923
0.000594 0.000456 0.002923
0.000659 0.000372 0.002723
0.000757 0.000543 0.002307
0.001245 0.000717 0.002614
0.001057 7e-06 0.002408
0.001077 7e-06 0.002394
0.001241 -2.9e-05 0.001673
0.001221 -2.9e-05 0.001686
0.001141 5e-06 0.002356
0.001162 5e-06 0.002344
0.001182 5e-06 0.002329
0.001203 5e-06 0.002316
0.001201 -2.9e-05 0.001701
0.000636 0.000717 0.002812
0.001212 0.000732 0.002592
0.001366 5e-06 0.002205
0.001386 5e-06 0.002191
0.001406 5e-06 0.002177
0.001427 4e-06 0.002165
0.001447 5e-06 0.002149
0.001441 7.7e-05 0.001966
0.001456 8.2e-05 0.001945
0.001515 8.4e-05 0.001899
0.001538 8.2e-05 0.00189
0.001563 7.8e-05 0.001883
0.001592 7e-05 0.001882
0.001625 6e-05 0.001886
0.001724 1.1e-05 0.001943
0.001751 6e-06 0.00194
0.001773 5e-06 0.001928
0.001792 6e-06 0.001912
0.001812 6e-06 0.001898
0.001831 7e-06 0.001883
0.001851 8e-06 0.001867
0.00187 9e-06 0.001852
0.00189 1e-05 0.001837
0.001909 1e-05 0.001822
0.001929 1.1e-05 0.001807
0.000685 0.000521 0.002563
0.000609 0.00047 0.002887
0.00131 0.0005 0.002657
0.00067 0.000392 0.002675
0.000983 7e-06 0.002388
0.001006 6e-06 0.002377
0.001026 5e-06 0.002364
0.001046 6e-06 0.002349
0.001181 -2.9e-05 0.001714
0.001166 7e-06 0.002263
0.001186 8e-06 0.002248
0.001207 7e-06 0.002235
0.001289 8e-06 0.00218
0.001309 8e-06 0.002166
0.001329 8e-06 0.002152
0.00135 8e-06 0.002138
0.00137 8e-06 0.002124
0.001411 7e-06 0.002097
0.001432 7e-06 0.002083
0.001441 5e-05 0.001966
0.001456 5.5e-05 0.001944
0.001474 5.7e-05 0.001927
0.001538 5.5e-05 0.00189
0.001563 5.1e-05 0.001883
0.001593 4.3e-05 0.001882
0.001698 6e-06 0.001906
0.001719 6e-06 0.001892
0.00174 6e-06 0.001879
0.001841 6e-06 0.001809
0.001861 6e-06 0.001795
0.001883 5e-06 0.001783
0.000991 0.000527 0.002389
0.001342 0.000488 0.002674
0.001278 0.000513 0.002637
0.001213 0.000296 0.002594
0.000953 5e-06 0.002343
0.000973 6e-06 0.002329
0.001009 9e-06 0.002294
0.001028 1e-05 0.002279
0.001049 1e-05 0.002266
0.000595 0.000239 0.002923
0.001109 1.1e-05 0.002222
0.001131 1e-05 0.00221
0.00115 1.1e-05 0.002195
0.001171 1.1e-05 0.002181
0.00116 -2.9e-05 0.001728
0.00114 -2.9e-05 0.001742
0.001251 1.2e-05 0.002124
0.00127 1.2e-05 0.002109
0.001291 1.2e-05 0.002096
0.001313 1.1e-05 0.002084
0.001332 1.2e-05 0.002069
0.001119 -2.9e-05 0.001756
0.001442 2.2e-05 0.001967
0.001456 2.8e-05 0.001944
0.001564 2.2e-05 0.001884
0.001594 1.5e-05 0.001884
0.001623 7e-06 0.001883
0.001099 -2.9e-05 0.001769
0.001078 -2.9e-05 0.001783
0.001785 9e-06 0.00177
0.001806 8e-06 0.001757
0.001826 8e-06 0.001743
0.001246 0.000282 0.002616
0.000911 0.000441 0.002303
0.000659 0.000318 0.002722
0.000648 0.000299 0.002769
0.001057 -2.8e-05 0.001796
0.000921 4e-06 0.002297
0.000993 1.2e-05 0.002228
0.001014 1.2e-05 0.002214
0.001034 1.2e-05 0.0022
0.000578 0.000229 0.002951
0.001076 1.1e-05 0.002174
0.001096 1.1e-05 0.00216
0.001117 1.1e-05 0.002146
0.001137 1.1e-05 0.002133
0.001036 -2.8e-05 0.001809
0.000804 0.000517 0.00229
0.001237 1.2e-05 0.002061
0.001258 1.2e-05 0.002047
0.001278 1.3e-05 0.002032
0.001298 1.3e-05 0.002019
0.00134 0.00068 0.002669
0.00134 1.2e-05 0.001993
0.00136 1.2e-05 0.001979
0.001382 1.1e-05 0.001966
0.001425 9e-06 0.001943
0.001444 1e-05 0.001926
0.001586 1.1e-05 0.001829
0.001749 1.1e-05 0.001718
0.001769 1.2e-05 0.001703
0.00181 1.1e-05 0.001675
0.001831 1.1e-05 0.001663
0.000948 0.000422 0.002334
0.00099 0.000393 0.002387
0.001015 -2.8e-05 0.001822
0.000994 -2.7e-05 0.001835
0.000973 -2.7e-05 0.001848
0.000952 -2.6e-05 0.001861
0.000982 1.1e-05 0.002167
0.001002 1.1e-05 0.002153
0.001022 1.2e-05 0.002138
0.001042 1.2e-05 0.002125
0.001064 1.1e-05 0.002112
0.001084 1.1e-05 0.002099
0.001105 1e-05 0.002086
0.000636 0.000744 0.002812
0.000931 -2.5e-05 0.001873
0.000757 0.00057 0.002307
0.000828 0.000515 0.002286
0.001207 1.1e-05 0.002017
0.001228 1e-05 0.002003
0.001248 1e-05 0.001989
0.001269 1.1e-05 0.001975
0.00131 0.00069 0.002656
0.00131 1e-05 0.001948
0.001331 9e-06 0.001935
0.001351 9e-06 0.001921
0.001371 1e-05 0.001907
0.001246 0.000391 0.002616
0.001534 1e-05 0.001796
0.001554 1e-05 0.001781
0.001674 1.2e-05 0.001696
0.001371 0.000344 0.002682
0.001778 1e-05 0.001629
0.001798 1.1e-05 0.001615
0.001818 1.1e-05 0.0016
0.001179 0.000421 0.002568
0.001108 0.000457 0.002511
0.000849 1e-05 0.00219
0.000623 0.000701 0.002851
0.000669 0.000447 0.002674
0.00097 1.1e-05 0.002106
0.000989 1.1e-05 0.00209
0.00101 1.1e-05 0.002077
0.001033 1e-05 0.002067
0.001052 1.1e-05 0.002051
0.001072 1.1e-05 0.002037
0.000623 0.000729 0.002851
0.000854 0.00062 0.002285
0.001176 9e-06 0.00197
0.001195 1e-05 0.001954
0.000609 0.000388 0.002887
0.001339 9e-06 0.001859
0.001359 1e-05 0.001845
0.00138 9e-06 0.001832
0.001401 9e-06 0.001819
0.001505 7e-06 0.001753
0.001524 8e-06 0.001738
0.001544 8e-06 0.001724
0.001624 9e-06 0.001666
0.001647 8e-06 0.001655
0.001666 9e-06 0.00164
0.001686 9e-06 0.001626
0.001705 1e-05 0.00161
0.000533 0.000362 0.002972
0.001746 1e-05 0.001582
0.001765 1.1e-05 0.001566
0.001785 1.1e-05 0.001552
0.000508 0.000363 0.002976
0.001278 0.000431 0.002638
0.000757 8e-06 0.002187
0.000778 8e-06 0.002173
0.000817 9e-06 0.002143
0.000837 1e-05 0.002129
0.000856 1e-05 0.002113
0.000876 1.1e-05 0.002099
0.000897 1e-05 0.002086
0.000917 1.1e-05 0.002072
0.000938 1e-05 0.002058
0.000958 1e-05 0.002044
0.000999 1.1e-05 0.002016
0.001018 1.1e-05 0.002002
0.001039 1.1e-05 0.001987
0.000757 0.000489 0.002307
0.000736 0.000486 0.002321
0.000669 0.000339 0.002674
0.001342 0.00027 0.002673
0.001141 1.1e-05 0.001919
0.001162 1.1e-05 0.001906
0.000699 0.000524 0.002368
0.000804 0.000544 0.00229
0.001222 1.1e-05 0.001864
0.001244 1e-05 0.001852
0.001264 9e-06 0.001837
0.001325 1e-05 0.001795
0.001345 1.1e-05 0.001781
0.001366 1e-05 0.001768
0.001386 1.1e-05 0.001754
0.001406 1e-05 0.001739
0.000557 0.00028 0.002965
0.001549 1.1e-05 0.001643
0.001569 1e-05 0.001628
0.001587 1.3e-05 0.001612
0.00161 1.1e-05 0.001601
0.001632 9e-06 0.00159
0.001651 1.1e-05 0.001573
0.001673 9e-06 0.001563
0.001734 1e-05 0.001521
0.001755 9e-06 0.001508
0.001774 1e-05 0.001492
0.000533 0.00028 0.002971
0.000722 1e-05 0.002135
0.000742 1e-05 0.002122
0.000762 1e-05 0.002107
0.000783 1e-05 0.002093
0.000804 1e-05 0.00208
0.000824 1e-05 0.002066
0.000845 9e-06 0.002054
0.000865 9e-06 0.002039
0.000887 8e-06 0.002028
0.000908 8e-06 0.002014
0.000929 7e-06 0.002002
0.00095 7e-06 0.001988
0.00097 7e-06 0.001975
0.000992 6e-06 0.001963
0.001012 6e-06 0.001949
0.000636 0.000636 0.002811
0.000677 0.000715 0.002619
0.000686 0.000738 0.002565
0.001096 5e-06 0.001896
0.001116 4e-06 0.001882
0.001137 4e-06 0.001869
0.001157 4e-06 0.001855
0.001178 4e-06 0.001842
0.001199 3e-06 0.001829
0.001219 4e-06 0.001814
0.001239 4e-06 0.0018
0.001259 4e-06 0.001787
0.00128 3e-06 0.001773
0.0013 4e-06 0.001759
0.00132 4e-06 0.001744
0.00134 4e-06 0.00173
0.00136 4e-06 0.001716
0.001381 5e-06 0.001702
0.0015 7e-06 0.001615
0.00152 8e-06 0.0016
0.00154 8e-06 0.001586
0.00156 8e-06 0.001571
0.001579 9e-06 0.001556
0.001599 9e-06 0.001541
0.001619 9e-06 0.001527
0.001638 1.1e-05 0.001511
0.001657 1.2e-05 0.001495
0.001678 1.1e-05 0.001482
0.001071 0.000532 0.002476
0.001032 0.000556 0.002435
0.001071 0.000369 0.002475
0.000578 0.000555 0.002951
0.000736 5e-06 0.002068
0.000757 4e-06 0.002056
0.000778 4e-06 0.002043
0.0008 3e-06 0.002031
0.000821 2e-06 0.002018
0.000842 1e-06 0.002005
0.000863 1e-06 0.001993
0.000884 0.0 0.00198
0.000905 -1e-06 0.001967
0.000927 -1e-06 0.001955
0.000948 -2e-06 0.001942
0.000969 -2e-06 0.001929
0.00099 -3e-06 0.001916
0.001011 -3e-06 0.001903
0.001031 -4e-06 0.00189
0.001052 -4e-06 0.001876
0.001073 -4e-06 0.001863
0.001094 -4e-06 0.00185
0.001114 -5e-06 0.001836
0.001135 -5e-06 0.001822
0.001155 -5e-06 0.001809
0.001176 -5e-06 0.001795
0.001197 -5e-06 0.001782
0.001217 -6e-06 0.001769
0.001237 -5e-06 0.001754
0.001258 -5e-06 0.001741
0.001278 -5e-06 0.001726
0.001298 -5e-06 0.001712
0.001318 -5e-06 0.001698
0.001338 -4e-06 0.001683
0.001358 -4e-06 0.001669
0.001378 -4e-06 0.001654
0.001398 -3e-06 0.00164
0.001418 -3e-06 0.001625
0.001437 -2e-06 0.00161
0.001457 -2e-06 0.001596
0.001477 -1e-06 0.00158
0.001497 -0.0 0.001566
0.001516 0.0 0.00155
0.001536 1e-06 0.001536
0.001555 2e-06 0.001521
0.001574 3e-06 0.001505
0.001594 3e-06 0.00149
0.001613 5e-06 0.001474
0.001632 5e-06 0.001459
0.001652 6e-06 0.001444
0.001342 0.000379 0.002674
0.000991 0.000582 0.002388
0.000609 0.000579 0.002888
0.000594 0.000565 0.002923
0.001178 0.000639 0.002568
0.001108 0.000674 0.002511
0.001213 0.000623 0.002593
0.000622 0.000566 0.00285
0.000668 0.000639 0.002672
0.000609 0.000552 0.002887
0.000685 0.000684 0.002564
0.001144 0.000628 0.002541
0.001278 0.000567 0.002637
0.000636 0.00069 0.002812
0.000927 -1.2e-05 0.001912
0.000949 -1.3e-05 0.001899
0.00097 -1.3e-05 0.001886
0.000991 -1.4e-05 0.001873
0.001012 -1.4e-05 0.001861
0.001033 -1.5e-05 0.001848
0.001054 -1.5e-05 0.001835
0.001074 -1.6e-05 0.001821
0.001095 -1.6e-05 0.001808
0.001116 -1.6e-05 0.001795
0.001136 -1.6e-05 0.001781
0.001157 -1.6e-05 0.001767
0.001177 -1.6e-05 0.001754
0.001198 -1.6e-05 0.00174
0.001218 -1.6e-05 0.001726
0.001238 -1.6e-05 0.001711
0.001258 -1.6e-05 0.001697
0.001278 -1.6e-05 0.001683
0.001298 -1.5e-05 0.001669
0.001318 -1.5e-05 0.001654
0.001338 -1.5e-05 0.00164
0.001358 -1.4e-05 0.001625
0.001378 -1.4e-05 0.00161
0.001397 -1.3e-05 0.001595
0.001417 -1.2e-05 0.00158
0.001436 -1.2e-05 0.001565
0.001553 -7e-06 0.001473
0.001572 -6e-06 0.001458
0.001591 -5e-06 0.001442
0.00161 -4e-06 0.001427
0.000804 0.000598 0.002291
0.000757 0.000597 0.002307
0.000508 0.000336 0.002976
0.001108 0.000321 0.00251
0.001145 0.000301 0.002544
0.001179 0.000285 0.002569
0.001213 0.000269 0.002594
0.001246 0.000255 0.002616
0.001279 0.00024 0.002637
0.001311 0.000227 0.002657
0.001343 0.000215 0.002674
0.001371 0.000208 0.002681
0.001395 0.000207 0.002675
0.001417 0.000209 0.002665
0.000508 0.000174 0.002974
0.000532 0.000173 0.002969
0.000556 0.000173 0.002962
0.000577 0.000175 0.002949
0.000595 0.000185 0.002922
0.000609 0.000198 0.002888
0.000623 0.000212 0.002851
0.000636 0.000228 0.002812
0.000649 0.000244 0.00277
0.00066 0.000263 0.002724
0.000669 0.000284 0.002674
0.000678 0.000307 0.002619
0.000685 0.000332 0.002561
0.00069 0.00036 0.002497
0.0007 0.000415 0.002368
0.000717 0.000425 0.002341
0.000736 0.000431 0.002321
0.000757 0.000434 0.002307
0.00078 0.000435 0.002297
0.000804 0.000435 0.00229
0.000828 0.000434 0.002286
0.000854 0.00043 0.002286
0.000882 0.000424 0.00229
0.000911 0.000414 0.002303
0.000947 0.000396 0.002333
0.000991 0.000366 0.002387
0.001033 0.000337 0.002437
0.001072 0.000314 0.002477
0.001108 0.000294 0.002511
0.001145 0.000274 0.002544
0.001179 0.000258 0.00257
0.001213 0.000242 0.002594
0.001246 0.000227 0.002616
0.001279 0.000213 0.002637
0.001311 0.0002 0.002657
0.001343 0.000188 0.002674
0.00137 0.000182 0.00268
0.001394 0.000181 0.002674
0.001417 0.000182 0.002664
0.000507 0.000148 0.002972
0.000531 0.000147 0.002967
0.000555 0.000147 0.002959
0.000577 0.000149 0.002947
0.000594 0.000158 0.002922
0.000609 0.000171 0.002888
0.000623 0.000186 0.002849
0.000636 0.000201 0.002811
0.000649 0.000217 0.00277
0.00066 0.000236 0.002724
0.000669 0.000257 0.002674
0.000677 0.00028 0.002619
0.000685 0.000305 0.002562
0.0007 0.000388 0.002369
0.000716 0.000398 0.00234
0.000736 0.000404 0.002321
0.000757 0.000407 0.002307
0.00078 0.000408 0.002297
0.000804 0.000408 0.00229
0.000828 0.000406 0.002286
0.000854 0.000403 0.002285
0.000882 0.000397 0.00229
0.000911 0.000387 0.002302
0.000947 0.000369 0.002332
0.000991 0.000338 0.002387
0.001033 0.00031 0.002437
0.001071 0.000287 0.002476
0.001109 0.000266 0.002512
0.001145 0.000247 0.002544
0.001179 0.000231 0.002569
0.001213 0.000215 0.002594
0.001246 0.0002 0.002616
0.001279 0.000186 0.002638
0.001311 0.000173 0.002657
0.001343 0.000161 0.002674
0.00137 0.000156 0.002677
0.001394 0.000155 0.002671
0.001417 0.000156 0.002662
0.000506 0.000123 0.002968
0.00053 0.000122 0.002962
0.000553 0.000122 0.002954
0.000575 0.000124 0.002943
0.000594 0.000131 0.002921
0.000609 0.000144 0.002888
0.000623 0.000158 0.002851
0.000636 0.000174 0.002811
0.000648 0.000191 0.002768
0.00066 0.000209 0.002724
0.000669 0.00023 0.002674
0.000678 0.000252 0.002621
0.000684 0.000278 0.002561
0.000688 0.000343 0.002413
0.0007 0.000361 0.002368
0.000716 0.000371 0.00234
0.000736 0.000377 0.002321
0.000757 0.00038 0.002307
0.00078 0.000381 0.002297
0.000804 0.000381 0.00229
0.000828 0.000379 0.002286
0.000854 0.000376 0.002285
0.000882 0.00037 0.00229
0.000911 0.00036 0.002303
0.000947 0.000341 0.002333
0.001033 0.000283 0.002437
0.001072 0.00026 0.002477
0.001109 0.000239 0.002513
0.001145 0.00022 0.002543
0.001179 0.000204 0.002569
0.001213 0.000188 0.002594
0.001247 0.000173 0.002617
0.001279 0.000159 0.002637
0.001311 0.000146 0.002657
0.001342 0.000135 0.002672
0.001368 0.00013 0.002673
0.001392 0.00013 0.002667
0.001415 0.00013 0.002658
0.000479 0.000101 0.002964
0.000503 9.9e-05 0.002961
0.000527 9.8e-05 0.002955
0.000551 9.9e-05 0.002947
0.000573 0.0001 0.002937
0.000594 0.000105 0.002919
0.000609 0.000117 0.002887
0.000623 0.000131 0.00285
0.000636 0.000146 0.002812
0.000648 0.000164 0.002768
0.00066 0.000182 0.002724
0.00067 0.000202 0.002674
0.000678 0.000225 0.00262
0.000685 0.00025 0.002563
0.000689 0.000279 0.002495
0.000689 0.000315 0.002415
0.000699 0.000334 0.002367
0.000717 0.000344 0.00234
0.000736 0.000349 0.002321
0.000758 0.000353 0.002307
0.00078 0.000354 0.002297
0.000804 0.000354 0.00229
0.000828 0.000352 0.002286
0.000854 0.000348 0.002286
0.000881 0.000343 0.00229
0.000911 0.000333 0.002303
0.000947 0.000314 0.002333
0.000991 0.000284 0.002387
0.001033 0.000256 0.002437
0.001072 0.000232 0.002477
0.001109 0.000211 0.002513
0.001145 0.000193 0.002543
0.001179 0.000176 0.00257
0.001213 0.00016 0.002594
0.001246 0.000146 0.002617
0.001279 0.000132 0.002637
0.001311 0.000119 0.002657
0.001341 0.000109 0.002668
0.001366 0.000106 0.002667
0.00139 0.000106 0.00266
0.001413 0.000106 0.002651
0.000476 7.9e-05 0.002954
0.0005 7.7e-05 0.00295
0.000524 7.6e-05 0.002944
0.000548 7.6e-05 0.002937
0.00057 7.7e-05 0.002928
0.000592 8e-05 0.002913
0.000609 9e-05 0.002886
0.000623 0.000104 0.00285
0.000636 0.00012 0.00281
0.000648 0.000137 0.002768
0.000659 0.000155 0.002723
0.00067 0.000175 0.002675
0.000678 0.000198 0.00262
0.000684 0.000224 0.00256
0.000689 0.000252 0.002495
0.000689 0.000287 0.002416
0.0007 0.000307 0.002368
0.000717 0.000317 0.002341
0.000736 0.000322 0.002321
0.000758 0.000325 0.002307
0.00078 0.000326 0.002298
0.000804 0.000326 0.00229
0.000828 0.000325 0.002286
0.000854 0.000321 0.002286
0.000882 0.000315 0.00229
0.000912 0.000305 0.002304
0.000947 0.000287 0.002332
0.000991 0.000256 0.002388
0.001033 0.000229 0.002437
0.001072 0.000204 0.002479
0.001109 0.000184 0.002513
0.001145 0.000166 0.002542
0.00118 0.000149 0.00257
0.001213 0.000133 0.002594
0.001246 0.000119 0.002616
0.001279 0.000104 0.002638
0.001311 9.2e-05 0.002655
0.001339 8.5e-05 0.002662
0.001364 8.3e-05 0.002658
0.001387 8.3e-05 0.002651
0.00141 8.4e-05 0.002642
0.000471 5.8e-05 0.002941
0.000496 5.7e-05 0.002937
0.00052 5.6e-05 0.002931
0.000543 5.6e-05 0.002924
0.000566 5.6e-05 0.002915
0.000588 5.8e-05 0.002903
0.000608 6.5e-05 0.002882
0.000623 7.7e-05 0.002849
0.000636 9.3e-05 0.002809
0.000648 0.00011 0.002768
0.00066 0.000128 0.002723
0.00067 0.000148 0.002674
0.000685 0.000196 0.002561
0.000689 0.000225 0.002495
0.000689 0.00026 0.002416
0.0007 0.000279 0.002369
0.000717 0.000289 0.002341
0.000736 0.000295 0.002322
0.000758 0.000298 0.002308
0.00078 0.000299 0.002298
0.000804 0.000299 0.002291
0.000828 0.000298 0.002286
0.000854 0.000294 0.002286
0.000882 0.000288 0.00229
0.000912 0.000278 0.002303
0.000947 0.00026 0.002333
0.000991 0.000229 0.002389
0.001033 0.000201 0.002438
0.001072 0.000178 0.002477
0.001109 0.000157 0.002513
0.001145 0.000139 0.002542
0.001179 0.000122 0.002569
0.001213 0.000106 0.002594
0.001246 9.2e-05 0.002616
0.001279 7.7e-05 0.002637
0.001309 6.8e-05 0.00265
0.001335 6.3e-05 0.002651
0.00136 6.2e-05 0.002646
0.001383 6.2e-05 0.002638
0.001406 6.3e-05 0.002629
0.000441 4.1e-05 0.002928
0.000466 3.9e-05 0.002925
0.00049 3.8e-05 0.00292
0.000514 3.7e-05 0.002914
0.000538 3.7e-05 0.002907
0.000561 3.7e-05 0.002898
0.000583 3.9e-05 0.002887
0.000604 4.3e-05 0.002871
0.000621 5.2e-05 0.002845
0.000636 6.6e-05 0.002809
0.000648 8.3e-05 0.002767
0.00066 0.0001 0.002724
0.000669 0.000121 0.002673
0.000677 0.000145 0.002618
0.000685 0.000169 0.002561
0.000689 0.000198 0.002495
0.000688 0.000234 0.002413
0.0007 0.000252 0.002369
0.000717 0.000262 0.002342
0.000737 0.000268 0.002322
0.000758 0.000271 0.002308
0.000781 0.000272 0.002298
0.000804 0.000272 0.002291
0.000828 0.000271 0.002286
0.000854 0.000267 0.002286
0.000882 0.000261 0.00229
0.000912 0.000251 0.002303
0.000947 0.000234 0.002331
0.000991 0.000201 0.002389
0.001033 0.000174 0.002438
0.001072 0.000151 0.002477
0.001109 0.00013 0.002513
0.001145 0.000111 0.002543
0.001179 9.5e-05 0.002569
0.001213 7.9e-05 0.002594
0.001246 6.5e-05 0.002615
0.001278 5.3e-05 0.002632
0.001305 4.6e-05 0.002638
0.001331 4.3e-05 0.002637
0.001355 4.2e-05 0.002631
0.001378 4.3e-05 0.002623
0.001401 4.4e-05 0.002613
0.000434 2.5e-05 0.002906
0.000459 2.3e-05 0.002902
0.000483 2.2e-05 0.002897
0.000507 2.2e-05 0.00289
0.00053 2.2e-05 0.002883
0.000553 2.2e-05 0.002875
0.000576 2.3e-05 0.002865
0.000598 2.5e-05 0.002851
0.000617 3.2e-05 0.002831
0.000634 4.1e-05 0.002804
0.000647 5.7e-05 0.002765
0.000659 7.4e-05 0.002722
0.000669 9.4e-05 0.002674
0.000677 0.000117 0.002618
0.000685 0.000142 0.002561
0.000688 0.000172 0.002493
0.000688 0.000207 0.002413
0.0007 0.000225 0.002369
0.000717 0.000235 0.002341
0.000737 0.00024 0.002322
0.000758 0.000244 0.002308
0.000781 0.000245 0.002298
0.000804 0.000245 0.002291
0.000828 0.000243 0.002286
0.000854 0.00024 0.002285
0.000882 0.000234 0.00229
0.000912 0.000223 0.002304
0.000991 0.000175 0.002389
0.001034 0.000146 0.002439
0.00111 0.000102 0.002514
0.001145 8.4e-05 0.002543
0.001179 6.8e-05 0.002569
0.001213 5.2e-05 0.002593
0.001244 4e-05 0.00261
0.001273 3.2e-05 0.002619
0.0013 2.8e-05 0.00262
0.001324 2.6e-05 0.002616
0.001348 2.5e-05 0.00261
0.001371 2.6e-05 0.002601
0.001394 2.7e-05 0.002593
0.001417 2.8e-05 0.002582
0.000446 1.5e-05 0.002862
0.000469 1.6e-05 0.002854
0.000493 1.5e-05 0.002848
0.000516 1.5e-05 0.00284
0.000539 1.5e-05 0.002832
0.000563 1.5e-05 0.002825
0.000586 1.6e-05 0.002816
0.000608 1.8e-05 0.002804
0.000628 2.3e-05 0.002787
0.000645 3.2e-05 0.00276
0.000659 4.8e-05 0.00272
0.000669 6.7e-05 0.002673
0.000678 9e-05 0.002619
0.000689 0.000179 0.002414
0.0007 0.000197 0.002369
0.000717 0.000207 0.002342
0.000737 0.000213 0.002322
0.000758 0.000216 0.002308
0.000781 0.000218 0.002298
0.000804 0.000218 0.002291
0.000828 0.000216 0.002286
0.000854 0.000213 0.002285
0.000882 0.000206 0.002291
0.000912 0.000196 0.002304
0.001034 0.000119 0.002439
0.001109 7.5e-05 0.002513
0.001145 5.7e-05 0.002542
0.001179 4.1e-05 0.002567
0.00121 2.9e-05 0.002585
0.001239 2e-05 0.002593
0.001265 1.7e-05 0.002594
0.001289 1.6e-05 0.002588
0.001313 1.6e-05 0.002582
0.001337 1.6e-05 0.002574
0.00136 1.5e-05 0.002567
0.001384 1.6e-05 0.00256
0.001407 1.6e-05 0.002551
0.00143 1.7e-05 0.002542
0.000334 1.5e-05 0.002838
0.000358 1.4e-05 0.002831
0.000452 1.4e-05 0.002801
0.000476 1.3e-05 0.002796
0.000499 1.3e-05 0.002788
0.000523 1.3e-05 0.00278
0.000638 1.6e-05 0.002738
