-0.001771 3.9e-05 -0.002352
-0.001789 4.1e-05 -0.002334
-0.001806 4.4e-05 -0.002316
-0.001818 5e-05 -0.002292
-0.00099 8e-05 -0.002689
-0.000998 9e-05 -0.002656
-0.001003 0.000104 -0.002619
-0.001006 0.000119 -0.002579
-0.001008 0.000134 -0.002538
-0.001009 0.00015 -0.002496
-0.001009 0.000168 -0.00245
-0.001008 0.000186 -0.002404
-0.001003 0.000208 -0.002352
-0.000997 0.000231 -0.002297
-0.001001 0.000244 -0.002259
-0.001013 0.000252 -0.002232
-0.001028 0.000256 -0.002211
-0.001047 0.000258 -0.002194
-0.001067 0.000258 -0.002181
-0.001089 0.000256 -0.00217
-0.000987 0.000701 -0.002746
-0.000141 0.000738 -0.002678
-0.000918 0.000553 -0.002856
4.2e-05 0.000527 -0.002998
-0.001402 0.000115 -0.002329
-0.001454 8.8e-05 -0.002364
-0.0015 6.6e-05 -0.00239
-0.001544 4.6e-05 -0.002411
-0.00158 3.3e-05 -0.00242
-0.001608 2.7e-05 -0.002419
-0.001632 2.4e-05 -0.00241
-0.001654 2.3e-05 -0.002399
-0.001676 2.2e-05 -0.002387
-0.001697 2.2e-05 -0.002374
-0.001717 2.2e-05 -0.00236
-0.001737 2.2e-05 -0.002346
-0.001757 2.3e-05 -0.002331
-0.001776 2.5e-05 -0.002315
-0.001793 2.7e-05 -0.002297
-0.001808 3.2e-05 -0.002275
-0.00019 0.000728 -0.002504
-0.000999 6.4e-05 -0.002656
-0.001003 7.6e-05 -0.00262
-0.001006 9.1e-05 -0.00258
-0.001008 0.000107 -0.002538
-0.001009 0.000123 -0.002495
-0.001009 0.000141 -0.00245
-0.001008 0.000159 -0.002404
-0.001003 0.00018 -0.002352
-0.000997 0.000203 -0.002298
-0.001001 0.000217 -0.00226
-0.001013 0.000224 -0.002233
-0.001028 0.000229 -0.002211
-0.001047 0.000231 -0.002194
-0.001067 0.000231 -0.002181
-0.001089 0.000229 -0.00217
-0.000975 0.000683 -0.002791
-0.000961 0.000586 -0.002829
-0.000894 0.000553 -0.002864
-0.000847 0.000526 -0.002878
-0.001316 -2.2e-05 -0.001618
-0.001454 6.1e-05 -0.002364
-0.001498 4e-05 -0.002386
-0.001537 2.5e-05 -0.0024
-0.001566 1.8e-05 -0.002399
-0.001589 1.6e-05 -0.002389
-0.00161 1.6e-05 -0.002377
-0.001631 1.6e-05 -0.002363
-0.001651 1.5e-05 -0.00235
-0.001672 1.6e-05 -0.002336
-0.001693 1.5e-05 -0.002323
-0.001713 1.6e-05 -0.002309
-0.001733 1.6e-05 -0.002295
-0.001753 1.6e-05 -0.002281
-0.001773 1.7e-05 -0.002266
-0.001792 1.9e-05 -0.00225
-0.001222 0.000736 -0.00217
-0.000996 3.8e-05 -0.002654
-0.001002 5e-05 -0.002618
-0.001005 6.4e-05 -0.002579
-0.001008 7.9e-05 -0.002538
-0.001009 9.6e-05 -0.002495
-0.001008 0.000114 -0.002449
-0.001008 0.000132 -0.002403
-0.001003 0.000153 -0.002352
-0.000997 0.000176 -0.002298
-0.001001 0.00019 -0.002259
-0.001013 0.000197 -0.002233
-0.001028 0.000202 -0.002211
-0.001047 0.000203 -0.002194
-0.001067 0.000203 -0.002181
-0.00109 0.000202 -0.00217
-0.000893 0.000664 -0.002859
-0.000997 0.000669 -0.002694
-0.000871 0.000553 -0.002871
-0.000157 0.000669 -0.002645
-0.001451 3.6e-05 -0.00236
-0.00149 2e-05 -0.002374
-0.00152 1.3e-05 -0.002374
-0.001584 1e-05 -0.002338
-0.001605 1e-05 -0.002325
-0.001626 1e-05 -0.002311
-0.001667 1e-05 -0.002284
-0.001687 1e-05 -0.00227
-0.001707 1e-05 -0.002256
-0.001728 1e-05 -0.002243
-0.001749 1.1e-05 -0.002229
-0.00177 1e-05 -0.002216
-0.001255 0.00072 -0.002195
-0.000818 0.000698 -0.002866
-0.000998 2.6e-05 -0.002612
-0.001005 3.8e-05 -0.002578
-0.001007 5.3e-05 -0.002537
-0.001009 6.9e-05 -0.002495
-0.001009 8.6e-05 -0.00245
-0.001008 0.000105 -0.002404
-0.001002 0.000127 -0.002351
-0.000997 0.000149 -0.002297
-0.001001 0.000163 -0.002259
-0.001013 0.00017 -0.002233
-0.001028 0.000175 -0.002211
-0.001047 0.000176 -0.002194
-0.001067 0.000176 -0.002181
-0.00109 0.000175 -0.00217
-0.000958 0.000672 -0.002821
-0.000662 0.000656 -0.002763
-0.000823 0.000553 -0.002885
-0.001255 0.000747 -0.002196
-0.001441 1.7e-05 -0.002344
-0.001469 1.1e-05 -0.002342
-0.001489 1.1e-05 -0.002328
-0.001509 1.2e-05 -0.002314
-0.001531 1.1e-05 -0.002302
-0.001552 1e-05 -0.002289
-0.001592 1.1e-05 -0.002261
-0.001612 1.2e-05 -0.002246
-0.001634 1.1e-05 -0.002234
-0.001694 1.2e-05 -0.002191
-0.001714 1.3e-05 -0.002177
-0.001776 1.4e-05 -0.002136
-0.000842 0.000696 -0.002863
-0.000984 1.1e-05 -0.002591
-0.000997 1.7e-05 -0.002565
-0.001005 2.8e-05 -0.002533
-0.001009 4.2e-05 -0.002495
-0.001009 5.9e-05 -0.00245
-0.001008 7.7e-05 -0.002404
-0.001003 9.9e-05 -0.002351
-0.000996 0.000123 -0.002296
-0.001001 0.000136 -0.002259
-0.001013 0.000143 -0.002232
-0.001028 0.000147 -0.002211
-0.001047 0.000149 -0.002194
-0.001067 0.000149 -0.002181
-0.001089 0.000148 -0.002169
-0.000939 0.000638 -0.002843
-0.000894 0.000608 -0.002863
0.000377 -1.3e-05 0.00209
-0.000127 0.000591 -0.002741
-0.000191 0.000754 -0.002506
-0.001434 1.4e-05 -0.002288
-0.001453 1.5e-05 -0.002273
-0.001473 1.5e-05 -0.002259
-0.001495 1.4e-05 -0.002247
-0.001516 1.4e-05 -0.002234
-0.001537 1.4e-05 -0.002221
-0.001557 1.4e-05 -0.002206
-0.001578 1.4e-05 -0.002193
-0.001598 1.4e-05 -0.002179
-0.001618 1.4e-05 -0.002165
-0.001639 1.4e-05 -0.002152
-0.001659 1.5e-05 -0.002137
-0.001679 1.5e-05 -0.002124
-0.001701 1.4e-05 -0.002111
-0.001721 1.5e-05 -0.002097
-0.001742 1.4e-05 -0.002084
-0.001762 1.5e-05 -0.00207
-0.001296 -2.2e-05 -0.001633
-0.00097 1.3e-05 -0.002525
-0.000989 1.3e-05 -0.00251
-0.001004 1.9e-05 -0.002487
-0.00101 3.1e-05 -0.002452
-0.001009 5e-05 -0.002405
-0.001003 7.2e-05 -0.002351
-0.000996 9.6e-05 -0.002296
-0.001001 0.000109 -0.002259
-0.001013 0.000116 -0.002232
-0.001029 0.00012 -0.002211
-0.001047 0.000122 -0.002194
-0.001067 0.000122 -0.00218
-0.000986 0.00073 -0.002742
-0.000768 0.000621 -0.002871
0.000353 -1.2e-05 0.002096
-0.000768 0.000567 -0.002872
-0.001222 0.000763 -0.00217
-0.001276 -2.3e-05 -0.001647
-0.000207 0.000765 -0.002476
0.001226 6e-06 0.001833
0.001203 6e-06 0.001842
-0.001408 8e-06 -0.002249
-0.001429 8e-06 -0.002236
-0.001449 8e-06 -0.002222
-0.001469 8e-06 -0.002208
-0.001489 9e-06 -0.002194
-0.00151 9e-06 -0.00218
-0.001531 8e-06 -0.002168
-0.001551 9e-06 -0.002154
-0.001571 9e-06 -0.002139
-0.001591 1e-05 -0.002125
-0.001612 1e-05 -0.002111
-0.001632 1e-05 -0.002097
-0.001653 1e-05 -0.002083
-0.001673 1e-05 -0.002069
-0.001693 1.1e-05 -0.002056
-0.001714 1.1e-05 -0.002042
-0.001734 1.1e-05 -0.002028
1.8e-05 0.000503 -0.00299
-0.000226 0.000749 -0.002448
-0.000921 1e-05 -0.002495
-0.000943 9e-06 -0.002484
-0.000966 7e-06 -0.002474
-0.000986 7e-06 -0.002459
-0.001001 1.1e-05 -0.002438
-0.00101 2.1e-05 -0.002407
-0.001003 4.5e-05 -0.002352
-0.000995 6.9e-05 -0.002295
-0.001001 8.2e-05 -0.002258
-0.001012 8.9e-05 -0.002232
-0.001028 9.3e-05 -0.002211
-0.001047 9.5e-05 -0.002194
-0.001067 9.5e-05 -0.00218
-0.000869 0.000664 -0.002867
0.00118 6e-06 0.001851
-0.000144 0.00062 -0.002675
-0.000975 0.00052 -0.002791
-0.000823 0.000472 -0.002885
-0.001256 -2.3e-05 -0.001661
0.001157 5e-06 0.001859
-0.001236 -2.3e-05 -0.001675
-0.001464 3e-06 -0.002155
-0.001484 4e-06 -0.002141
-0.001504 4e-06 -0.002126
-0.001524 4e-06 -0.002113
-0.001546 3e-06 -0.002101
-0.001565 5e-06 -0.002085
-0.001586 5e-06 -0.002071
-0.001605 6e-06 -0.002056
-0.001627 5e-06 -0.002044
-0.001647 5e-06 -0.00203
-0.001667 6e-06 -0.002015
-0.001688 5e-06 -0.002003
-0.00171 4e-06 -0.001992
-0.00173 5e-06 -0.001976
-0.001767 0.000113 -0.001676
-0.001789 0.000112 -0.001665
-0.000169 0.000659 -0.002604
-0.000876 4e-06 -0.002473
-0.000895 4e-06 -0.002457
-0.000915 5e-06 -0.002442
-0.000938 3e-06 -0.002431
-0.000957 4e-06 -0.002417
-0.000978 4e-06 -0.002403
-0.000768 0.000485 -0.002872
-0.001005 1.6e-05 -0.002355
-0.000995 4.2e-05 -0.002295
-0.001 5.5e-05 -0.002258
-0.001013 6.2e-05 -0.002232
-0.001028 6.6e-05 -0.002211
0.000211 0.000466 -0.002954
-0.000975 0.000656 -0.002791
-0.000961 0.000614 -0.002828
0.000927 -2e-06 0.001949
-0.000157 0.00075 -0.002646
-0.001359 0.000661 -0.002298
-0.001215 -2.3e-05 -0.001689
-0.001346 6e-06 -0.002155
-0.001365 7e-06 -0.00214
-0.001428 7e-06 -0.002101
-0.001447 7e-06 -0.002086
-0.001468 7e-06 -0.002073
-0.001488 8e-06 -0.002058
-0.00151 7e-06 -0.002046
-0.00153 8e-06 -0.002031
-0.00155 7e-06 -0.002018
-0.001572 7e-06 -0.002005
-0.001592 7e-06 -0.001992
-0.001613 6e-06 -0.001979
-0.001633 7e-06 -0.001965
-0.001655 6e-06 -0.001953
-0.001675 7e-06 -0.001938
-0.001696 6e-06 -0.001926
-0.001716 7e-06 -0.001911
-0.001767 8.6e-05 -0.001675
-0.001788 8.5e-05 -0.001664
-0.001813 8.2e-05 -0.001656
-0.001841 7.5e-05 -0.001656
-0.000822 4e-06 -0.002435
-0.00084 6e-06 -0.002418
-0.000861 6e-06 -0.002405
-0.000881 6e-06 -0.002391
-0.000901 7e-06 -0.002376
-0.000921 8e-06 -0.002361
-0.000942 7e-06 -0.002348
-0.001195 -2.4e-05 -0.001703
-0.001 2.8e-05 -0.002258
-0.001012 3.5e-05 -0.002231
-0.000894 0.00058 -0.002864
-0.000918 0.00058 -0.002856
-0.000696 0.000606 -0.002806
-0.000798 0.000556 -0.002886
0.000904 -3e-06 0.001958
9.1e-05 0.0005 -0.002997
-0.000997 0.000695 -0.002696
-0.001267 1.1e-05 -0.002125
-0.001287 1.1e-05 -0.002111
-0.001309 1e-05 -0.002099
-0.00133 1e-05 -0.002086
-0.001351 9e-06 -0.002074
-0.001372 9e-06 -0.00206
-0.001411 1.1e-05 -0.002031
-0.001494 1.1e-05 -0.001977
-0.001515 1e-05 -0.001964
-0.001535 1e-05 -0.00195
-0.001556 1.1e-05 -0.001936
-0.001577 1e-05 -0.001924
-0.001598 1e-05 -0.001911
-0.001619 9e-06 -0.001899
-0.00166 9e-06 -0.001871
-0.001682 8e-06 -0.00186
-0.001767 5.9e-05 -0.001675
-0.001788 5.8e-05 -0.001663
-0.001812 5.5e-05 -0.001654
-0.001841 4.8e-05 -0.001653
-0.000785 8e-06 -0.002379
-0.000805 9e-06 -0.002364
-0.000825 1e-05 -0.002349
-0.000844 1e-05 -0.002335
-0.000867 9e-06 -0.002324
-0.000887 9e-06 -0.00231
-0.000906 1e-05 -0.002294
-0.000928 9e-06 -0.002282
-0.000948 1e-05 -0.002268
-0.000968 1e-05 -0.002254
-0.000989 1e-05 -0.002241
-0.001009 1.1e-05 -0.002226
-0.000798 0.000501 -0.002887
-0.000733 0.000531 -0.002841
-0.000643 0.000614 -0.002744
-0.000157 0.000696 -0.002646
-0.000996 0.000589 -0.002691
-0.000847 0.000608 -0.002878
-0.000987 0.000675 -0.002745
-0.001197 8e-06 -0.002108
-0.001217 8e-06 -0.002095
-0.001238 8e-06 -0.002081
-0.001259 8e-06 -0.002068
-0.001279 1e-05 -0.002054
-0.0013 8e-06 -0.002041
-0.001322 7e-06 -0.00203
-0.00134 9e-06 -0.002013
-0.001484 9e-06 -0.001918
-0.001505 9e-06 -0.001905
-0.001526 9e-06 -0.001892
-0.001175 -2.4e-05 -0.001717
-0.001627 1e-05 -0.001821
-0.001648 1e-05 -0.001808
-0.001746 3.1e-05 -0.001689
-0.001767 3.2e-05 -0.001675
-0.001789 3.1e-05 -0.001664
-0.000955 0.000704 -0.002811
-0.000772 9e-06 -0.002315
-0.000794 9e-06 -0.002302
-0.000815 8e-06 -0.00229
-0.000836 8e-06 -0.002277
-0.000856 8e-06 -0.002263
-0.000878 7e-06 -0.002251
-0.000898 8e-06 -0.002237
-0.000918 8e-06 -0.002222
-0.000939 7e-06 -0.00221
-0.000959 8e-06 -0.002195
-0.00098 8e-06 -0.002182
-0.001154 -2.4e-05 -0.00173
-0.00126 0.000767 -0.002211
-0.0011 9e-06 -0.002096
-0.001122 9e-06 -0.002085
-0.001143 1e-05 -0.002071
-0.001162 1.1e-05 -0.002055
-0.001184 9e-06 -0.002044
-0.001205 9e-06 -0.002031
-0.001225 1e-05 -0.002017
-0.000975 0.000493 -0.002791
-0.001306 1e-05 -0.001961
-0.001134 -2.4e-05 -0.001744
-0.001617 9e-06 -0.001762
-0.001638 8e-06 -0.001748
-0.00166 7e-06 -0.001737
-0.001681 7e-06 -0.001724
-0.001723 6e-06 -0.001698
-0.001743 7e-06 -0.001684
-0.001764 6e-06 -0.001671
-0.001807 5e-06 -0.001647
-0.001113 -2.4e-05 -0.001757
-0.000761 9e-06 -0.002253
-0.000781 1e-05 -0.002239
-0.000802 9e-06 -0.002226
-0.000821 1e-05 -0.00221
-0.000842 1e-05 -0.002197
-0.000863 1e-05 -0.002183
-0.000883 1e-05 -0.00217
-0.000905 1e-05 -0.002157
-0.000925 9e-06 -0.002143
-0.000946 9e-06 -0.002131
-0.001092 -2.4e-05 -0.001771
-0.001071 -2.3e-05 -0.001784
-0.00105 -2.3e-05 -0.001797
-0.00103 -2.3e-05 -0.00181
-0.001328 0.000706 -0.002264
-0.00107 9e-06 -0.00205
-0.001091 9e-06 -0.002038
-0.001112 9e-06 -0.002024
-0.001131 9e-06 -0.002008
-0.001153 8e-06 -0.001998
-0.001174 8e-06 -0.001985
-0.001194 8e-06 -0.00197
-0.001215 8e-06 -0.001957
-0.001317 9e-06 -0.001887
-0.00138 8e-06 -0.001849
-0.0014 8e-06 -0.001835
-0.001009 -2.3e-05 -0.001823
-0.001441 9e-06 -0.001808
-0.001461 1e-05 -0.001793
-0.000987 -2.2e-05 -0.001836
-0.001584 1e-05 -0.00171
-0.001603 1.1e-05 -0.001695
-0.001624 1.1e-05 -0.001682
-0.001644 1.1e-05 -0.001668
-0.001686 1.1e-05 -0.001642
-0.001707 1e-05 -0.001629
-0.001728 9e-06 -0.001617
-0.001769 9e-06 -0.00159
-0.00179 9e-06 -0.001576
-0.000966 -2.2e-05 -0.001848
-0.000945 -2.1e-05 -0.001861
-0.000731 0.000723 -0.002838
-0.000695 0.000743 -0.002804
-0.000867 0.000695 -0.002858
-0.000792 8e-06 -0.002166
-0.000812 8e-06 -0.002152
-0.000832 9e-06 -0.002137
-0.00085 1.1e-05 -0.00212
-0.000871 1.1e-05 -0.002106
-0.000941 0.000499 -0.002848
-0.000923 -2e-05 -0.001873
-0.000902 -2e-05 -0.001886
-0.000913 0.000697 -0.00284
-0.001037 1e-05 -0.002
-0.001057 1e-05 -0.001986
-0.001077 1.1e-05 -0.001971
-0.001098 1e-05 -0.001959
-0.001118 1.1e-05 -0.001945
-0.001139 1e-05 -0.001932
-0.00116 1e-05 -0.001918
-0.00118 1e-05 -0.001904
-0.001201 1e-05 -0.001891
-0.001221 1e-05 -0.001877
-0.001242 9e-06 -0.001864
-0.001263 1e-05 -0.00185
-0.001282 1.2e-05 -0.001834
-0.001346 1e-05 -0.001797
-0.001365 1.1e-05 -0.001782
-0.001407 1e-05 -0.001756
-0.001428 1e-05 -0.001743
-0.001449 1e-05 -0.00173
-0.001469 1e-05 -0.001715
-0.001531 1e-05 -0.001676
-0.001552 1e-05 -0.001662
-0.001573 9e-06 -0.00165
-0.001593 1e-05 -0.001635
-0.001716 1e-05 -0.001553
-0.001738 9e-06 -0.001542
-0.001758 9e-06 -0.001528
-0.000191 0.0007 -0.002505
-0.000935 0.000699 -0.002828
-0.000778 1e-05 -0.002099
-0.000799 1e-05 -0.002087
-0.000819 1e-05 -0.002072
-0.000839 1e-05 -0.002059
-0.001192 0.000745 -0.002158
-0.000696 0.000552 -0.002805
-0.000975 0.000547 -0.002792
-0.000894 0.000635 -0.002862
-0.000797 0.00064 -0.002882
-0.000823 0.000526 -0.002885
-0.00089 0.000696 -0.00285
-0.001006 8e-06 -0.001954
-0.001027 8e-06 -0.001941
-0.001049 7e-06 -0.001929
-0.001069 7e-06 -0.001915
-0.00109 7e-06 -0.001902
-0.00111 7e-06 -0.001888
-0.001131 7e-06 -0.001875
-0.001152 7e-06 -0.001861
-0.001172 7e-06 -0.001848
-0.001193 7e-06 -0.001835
-0.001213 7e-06 -0.00182
-0.001234 7e-06 -0.001807
-0.001255 7e-06 -0.001794
-0.001275 8e-06 -0.001779
-0.001295 7e-06 -0.001766
-0.001315 8e-06 -0.001751
-0.001336 8e-06 -0.001739
-0.001357 8e-06 -0.001725
-0.001378 8e-06 -0.001712
-0.001398 8e-06 -0.001698
-0.001417 9e-06 -0.001682
-0.001438 9e-06 -0.001668
-0.001478 1e-05 -0.00164
-0.001498 1e-05 -0.001626
-0.00152 1e-05 -0.001613
-0.001539 1.1e-05 -0.001598
-0.00156 1e-05 -0.001585
-0.001622 1e-05 -0.001545
-0.001642 1.1e-05 -0.001531
-0.001663 1e-05 -0.001518
-0.001684 1e-05 -0.001505
-0.000102 0.000758 -0.002791
9.1e-05 0.000446 -0.002997
-0.000642 0.000587 -0.002745
-0.000181 0.000677 -0.002559
-0.000169 0.000713 -0.002604
-0.001328 0.000733 -0.002265
-0.00075 7e-06 -0.002057
-0.00077 7e-06 -0.002043
-0.000792 6e-06 -0.002031
-0.000813 5e-06 -0.002019
-0.000795 0.000669 -0.002877
-0.00096 0.000642 -0.002826
-0.00094 0.000609 -0.002845
-0.00087 0.000635 -0.00287
-0.000822 0.000637 -0.002881
-0.000941 2e-06 -0.001944
-0.000962 1e-06 -0.001931
-0.000983 1e-06 -0.001918
-0.001004 1e-06 -0.001905
-0.001025 0.0 -0.001892
-0.001046 -0.0 -0.00188
-0.001067 -0.0 -0.001867
-0.001088 -1e-06 -0.001854
-0.001108 -1e-06 -0.00184
-0.001129 -1e-06 -0.001826
-0.00115 -1e-06 -0.001813
-0.001171 -1e-06 -0.0018
-0.001191 -1e-06 -0.001786
-0.001212 -1e-06 -0.001773
-0.001232 -1e-06 -0.00176
-0.001253 -1e-06 -0.001746
-0.001273 -0.0 -0.001731
-0.001293 -0.0 -0.001718
-0.001313 -0.0 -0.001703
-0.001334 0.0 -0.00169
-0.001354 1e-06 -0.001675
-0.001373 1e-06 -0.00166
-0.001395 1e-06 -0.001648
-0.001415 1e-06 -0.001634
-0.001434 2e-06 -0.001619
-0.001454 3e-06 -0.001604
-0.001474 3e-06 -0.001589
-0.001494 4e-06 -0.001574
-0.001514 5e-06 -0.00156
-0.001572 7e-06 -0.001515
-0.001592 9e-06 -0.001499
-0.001612 8e-06 -0.001486
-0.001632 8e-06 -0.001471
-0.000622 0.000571 -0.002722
0.00088 -3e-06 0.001966
-0.000203 0.000761 -0.002546
0.000593 0.000733 -0.002388
-0.001359 0.000716 -0.002298
-0.000696 0.00066 -0.002805
-0.000696 0.000714 -0.002808
-0.000749 -2e-06 -0.002011
-0.00077 -3e-06 -0.001999
-0.000792 -3e-06 -0.001987
-0.000767 0.000677 -0.002869
-0.000917 0.000608 -0.002855
-0.000975 0.000628 -0.002792
-0.000823 0.000609 -0.002883
-0.000871 0.000607 -0.002871
-0.00092 -8e-06 -0.001912
-0.000941 -8e-06 -0.0019
-0.000962 -9e-06 -0.001887
-0.000984 -9e-06 -0.001875
-0.001005 -1e-05 -0.001862
-0.001025 -1e-05 -0.001849
-0.001047 -1e-05 -0.001836
-0.001068 -1.1e-05 -0.001823
-0.001089 -1.1e-05 -0.00181
-0.001109 -1.1e-05 -0.001797
-0.00113 -1.1e-05 -0.001783
-0.00115 -1.1e-05 -0.00177
-0.001171 -1.1e-05 -0.001757
-0.001192 -1.1e-05 -0.001743
-0.001212 -1.1e-05 -0.001729
-0.001233 -1.1e-05 -0.001715
-0.001253 -1.1e-05 -0.001702
-0.001274 -1.1e-05 -0.001688
-0.001293 -1e-05 -0.001673
-0.001314 -1e-05 -0.001659
-0.001334 -1e-05 -0.001645
-0.001354 -9e-06 -0.001631
-0.001374 -9e-06 -0.001616
-0.001393 -8e-06 -0.001601
-0.001413 -7e-06 -0.001587
-0.001453 -6e-06 -0.001557
-0.001551 -2e-06 -0.001483
-0.001571 -1e-06 -0.001468
-0.00159 -0.0 -0.001452
-0.000658 0.000547 -0.002767
-0.000732 0.000558 -0.002841
-0.000183 0.000757 -0.002563
-0.000181 0.000705 -0.002557
-0.001359 0.000689 -0.002298
-0.000181 0.000732 -0.002557
-0.000987 0.000539 -0.002746
-0.000941 0.000527 -0.002847
-0.000798 0.000529 -0.002887
-0.000618 0.000628 -0.002715
-0.000823 0.000499 -0.002884
-0.001293 0.000751 -0.002235
-0.000987 0.000512 -0.002745
-0.000493 0.000715 -0.002528
-0.000594 0.000751 -0.002684
-0.000619 0.000737 -0.002713
-7e-06 0.000625 -0.002963
-3.1e-05 0.000641 -0.002927
1.8e-05 0.000613 -0.002988
6.7e-05 0.000609 -0.002997
9.1e-05 0.000473 -0.002998
0.000569 0.000763 -0.002381
-0.000619 0.000683 -0.002714
0.00109 0.000587 -0.002793
-0.000659 0.00052 -0.002766
-0.000696 0.000498 -0.002805
-0.000733 0.000476 -0.002842
-0.000768 0.000457 -0.002873
-0.000798 0.000447 -0.002887
-0.000824 0.000444 -0.002885
-0.000847 0.000444 -0.002879
-0.000871 0.000444 -0.002872
-0.000895 0.000444 -0.002864
-0.000918 0.000444 -0.002857
-0.000941 0.000445 -0.002848
-0.000961 0.000451 -0.002829
-0.000975 0.000466 -0.002791
-0.000987 0.000485 -0.002745
-0.00114 0.000727 -0.002156
-0.001165 0.000724 -0.002156
-0.001192 0.000718 -0.002159
-0.001222 0.000709 -0.00217
-0.001255 0.000693 -0.002194
-0.001293 0.000671 -0.002233
-0.001328 0.000652 -0.002264
-0.001363 0.000634 -0.002294
-0.000467 0.000739 -0.002478
-0.000157 0.000615 -0.002645
-0.000169 0.000633 -0.002601
-0.000182 0.00065 -0.002559
-0.00019 0.000673 -0.002504
-0.000205 0.000687 -0.002469
-0.000224 0.000695 -0.002445
-0.000245 0.000699 -0.002429
-0.000267 0.000701 -0.002418
9.1e-05 0.000636 -0.002997
0.000141 0.000638 -0.002994
0.000116 0.000637 -0.002996
-7e-06 0.000651 -0.002964
0.00019 0.000561 -0.002986
-0.000618 0.000601 -0.002716
0.000568 0.000737 -0.002379
0.00194 0.000681 -0.002274
-7.9e-05 0.000545 -0.002841
0.00019 0.000479 -0.002986
-0.000696 0.00047 -0.002805
-0.000733 0.000448 -0.002843
-0.000768 0.000431 -0.002871
-0.000799 0.00042 -0.002887
-0.000824 0.000417 -0.002885
-0.000847 0.000417 -0.002879
-0.000871 0.000417 -0.002871
-0.000895 0.000417 -0.002864
-0.000918 0.000417 -0.002857
-0.000941 0.000418 -0.002848
-0.000961 0.000423 -0.002829
-0.000975 0.000439 -0.00279
-0.000987 0.000457 -0.002746
-0.000996 0.000479 -0.002693
-0.001115 0.000701 -0.00216
-0.00114 0.000699 -0.002155
-0.001165 0.000696 -0.002154
-0.001192 0.00069 -0.002159
-0.001222 0.000681 -0.00217
-0.001254 0.000667 -0.002193
-0.001328 0.000624 -0.002265
-0.001363 0.000608 -0.002293
-0.000644 0.000642 -0.002743
-0.000157 0.000588 -0.002646
-0.000169 0.000605 -0.002602
-0.000181 0.000624 -0.002556
-0.000191 0.000645 -0.002506
-0.000205 0.00066 -0.002469
-0.000224 0.000668 -0.002445
-0.000245 0.000672 -0.002429
-0.000267 0.000674 -0.002418
-0.00029 0.000674 -0.00241
-3.1e-05 0.000723 -0.002926
0.000421 0.000764 -0.002404
1.8e-05 0.000641 -0.002986
0.000165 0.000557 -0.002993
-7e-06 0.000543 -0.002962
0.000967 0.000596 -0.002809
0.0004 0.000677 -0.002422
-0.000103 0.000567 -0.002794
-0.000696 0.000443 -0.002806
-0.000733 0.000421 -0.002842
-0.000768 0.000403 -0.002872
-0.000799 0.000392 -0.002888
-0.000824 0.00039 -0.002885
-0.000847 0.00039 -0.002878
-0.000871 0.00039 -0.002871
-0.000894 0.00039 -0.002864
-0.000918 0.00039 -0.002857
-0.000941 0.000391 -0.002848
-0.000961 0.000396 -0.00283
-0.000975 0.000412 -0.00279
-0.000987 0.00043 -0.002745
-0.000996 0.000453 -0.002691
-0.001115 0.000674 -0.00216
-0.00114 0.000672 -0.002155
-0.001165 0.000669 -0.002154
-0.001192 0.000664 -0.002158
-0.001222 0.000654 -0.00217
-0.001255 0.000638 -0.002196
-0.001293 0.000616 -0.002233
-0.001328 0.000597 -0.002265
-0.001363 0.00058 -0.002293
0.000514 0.000712 -0.002373
-0.000156 0.000561 -0.002644
-0.000169 0.000578 -0.002602
-0.000181 0.000597 -0.002556
-0.000191 0.000618 -0.002506
-0.000205 0.000633 -0.002469
-0.000224 0.000641 -0.002445
-0.000245 0.000645 -0.002429
-0.000267 0.000647 -0.002417
-0.00029 0.000647 -0.00241
-6e-06 0.00071 -0.002954
0.000214 0.000684 -0.002952
0.000359 0.000733 -0.00255
0.000116 0.000555 -0.002996
0.000867 0.000645 -0.002727
0.000189 0.000452 -0.002986
0.00102 0.000585 -0.002819
-0.000696 0.000416 -0.002805
-0.000733 0.000394 -0.002842
-0.000768 0.000376 -0.002872
-0.000799 0.000365 -0.002887
-0.000824 0.000363 -0.002885
-0.000847 0.000363 -0.002878
-0.000871 0.000363 -0.002871
-0.000894 0.000363 -0.002864
-0.000918 0.000363 -0.002856
-0.000941 0.000363 -0.002848
-0.000961 0.000369 -0.00283
-0.000986 0.000404 -0.002743
-0.000997 0.000425 -0.002694
-0.001115 0.000647 -0.00216
-0.001139 0.000645 -0.002155
-0.001165 0.000642 -0.002154
-0.001192 0.000636 -0.002159
-0.001222 0.000627 -0.00217
-0.001255 0.000611 -0.002195
-0.001293 0.000589 -0.002233
-0.001328 0.00057 -0.002265
-0.001363 0.000553 -0.002293
-0.000142 0.000519 -0.002681
-0.000156 0.000535 -0.002643
-0.000169 0.000551 -0.002601
-0.000181 0.00057 -0.002556
-0.000191 0.000591 -0.002505
-0.000205 0.000606 -0.002468
-0.000224 0.000614 -0.002444
-0.000245 0.000618 -0.002429
-0.000267 0.00062 -0.002417
-0.00029 0.00062 -0.00241
-0.000315 0.000618 -0.002405
9.2e-05 0.000666 -0.002993
0.00019 0.000588 -0.002985
4.2e-05 0.000555 -0.002997
0.000214 0.000547 -0.002956
0.00119 0.000761 -0.002136
-0.000696 0.000389 -0.002805
-0.000733 0.000367 -0.002843
-0.000768 0.000349 -0.002872
-0.000799 0.000338 -0.002888
-0.000824 0.000336 -0.002885
-0.000847 0.000335 -0.002879
-0.000871 0.000335 -0.002872
-0.000895 0.000335 -0.002865
-0.000918 0.000335 -0.002857
-0.000941 0.000336 -0.002848
-0.000961 0.000342 -0.00283
-0.000975 0.000357 -0.002791
-0.000986 0.000377 -0.002743
-0.000997 0.000397 -0.002694
-0.001092 0.000619 -0.002168
-0.001115 0.000619 -0.00216
-0.001139 0.000618 -0.002155
-0.001165 0.000615 -0.002154
-0.001192 0.000609 -0.002158
-0.001222 0.0006 -0.00217
-0.001255 0.000584 -0.002195
-0.001293 0.000561 -0.002235
-0.001329 0.000543 -0.002265
-0.001363 0.000526 -0.002292
-0.000142 0.000493 -0.00268
-0.000156 0.000507 -0.002644
-0.000169 0.000524 -0.002601
-0.000181 0.000543 -0.002556
-0.000191 0.000564 -0.002505
-0.000205 0.000578 -0.002468
-0.000224 0.000587 -0.002444
-0.000245 0.000591 -0.002428
-0.000267 0.000593 -0.002417
-0.00029 0.000593 -0.00241
-0.000315 0.000591 -0.002405
0.000141 0.000668 -0.002989
0.000309 0.00068 -0.002742
1.8e-05 0.000558 -0.00299
0.000593 0.000758 -0.002393
0.000544 0.000765 -0.002376
-0.000696 0.000361 -0.002806
-0.000734 0.000339 -0.002844
-0.000768 0.000322 -0.002872
-0.000799 0.000311 -0.002888
-0.000824 0.000308 -0.002885
-0.000848 0.000308 -0.002879
-0.000871 0.000308 -0.002872
-0.000895 0.000308 -0.002865
-0.000918 0.000308 -0.002857
-0.000941 0.000309 -0.002848
-0.000961 0.000314 -0.00283
-0.000975 0.00033 -0.00279
-0.000986 0.00035 -0.002743
-0.000997 0.00037 -0.002693
-0.001092 0.000592 -0.002168
-0.001115 0.000592 -0.002159
-0.001139 0.000591 -0.002155
-0.001165 0.000588 -0.002154
-0.001192 0.000582 -0.002158
-0.001222 0.000572 -0.002171
-0.001256 0.000556 -0.002196
-0.001293 0.000534 -0.002234
-0.001328 0.000516 -0.002265
-0.001363 0.000499 -0.002292
-0.000142 0.000465 -0.002681
-0.000156 0.00048 -0.002643
-0.000169 0.000497 -0.002601
-0.000181 0.000516 -0.002555
-0.000191 0.000537 -0.002504
-0.000205 0.000551 -0.002469
-0.000223 0.00056 -0.002444
-0.000244 0.000564 -0.002428
-0.000267 0.000566 -0.002417
-0.00029 0.000566 -0.002409
-0.000315 0.000564 -0.002405
6.7e-05 0.000666 -0.002992
0.000116 0.000582 -0.002997
-7.9e-05 0.000626 -0.002842
4.2e-05 0.0005 -0.002998
-0.000734 0.000311 -0.002845
-0.000768 0.000295 -0.002872
-0.000799 0.000284 -0.002887
-0.000824 0.000281 -0.002885
-0.000848 0.000281 -0.002879
-0.000871 0.000281 -0.002872
-0.000895 0.000281 -0.002864
-0.000918 0.000281 -0.002857
-0.000941 0.000282 -0.002848
-0.000961 0.000288 -0.002829
-0.000975 0.000303 -0.00279
-0.000986 0.000323 -0.002742
-0.000997 0.000343 -0.002694
-0.001092 0.000565 -0.002168
-0.001115 0.000565 -0.002159
-0.001139 0.000564 -0.002154
-0.001165 0.000561 -0.002154
-0.001192 0.000555 -0.002158
-0.001222 0.000545 -0.00217
-0.001256 0.000529 -0.002198
-0.001293 0.000507 -0.002234
-0.001329 0.000489 -0.002265
-0.001363 0.000472 -0.002292
-0.000142 0.000438 -0.00268
-0.000156 0.000453 -0.002644
-0.000169 0.000469 -0.002602
-0.00018 0.000489 -0.002554
-0.000191 0.00051 -0.002504
-0.000205 0.000524 -0.002468
-0.000224 0.000532 -0.002444
-0.000244 0.000537 -0.002428
-0.000267 0.000539 -0.002417
-0.00029 0.000539 -0.002409
-0.000315 0.000537 -0.002405
0.00019 0.000644 -0.00298
-3.1e-05 0.000614 -0.002927
-0.000543 0.000729 -0.002615
-0.000569 0.000712 -0.002652
-7e-06 0.000462 -0.002962
1.7e-05 0.000448 -0.002991
-0.000697 0.000306 -0.002808
-0.000734 0.000285 -0.002844
-0.000768 0.000267 -0.002873
-0.000799 0.000257 -0.002887
-0.000824 0.000254 -0.002885
-0.000848 0.000254 -0.002879
-0.000871 0.000254 -0.002871
-0.000895 0.000254 -0.002864
-0.000918 0.000254 -0.002856
-0.000941 0.000255 -0.002847
-0.000961 0.00026 -0.002829
-0.000975 0.000275 -0.002791
-0.001092 0.000537 -0.002167
-0.001115 0.000538 -0.002159
-0.001139 0.000537 -0.002154
-0.001165 0.000534 -0.002153
-0.001192 0.000528 -0.002158
-0.001222 0.000518 -0.00217
-0.001256 0.000502 -0.002197
-0.001293 0.000481 -0.002233
-0.001329 0.000461 -0.002266
-0.001362 0.000445 -0.002292
-0.000142 0.000411 -0.00268
-0.000157 0.000425 -0.002645
-0.000169 0.000442 -0.002602
-0.00018 0.000462 -0.002555
-0.000191 0.000483 -0.002504
-0.000205 0.000497 -0.002468
-0.000224 0.000505 -0.002444
-0.000244 0.00051 -0.002428
-0.000267 0.000512 -0.002417
-0.00029 0.000511 -0.002409
-0.000315 0.00051 -0.002405
-7e-06 0.000679 -0.002962
4.2e-05 0.000582 -0.002997
0.000857 -4e-06 0.001975
-0.000146 0.000646 -0.00268
0.000141 0.000501 -0.002995
-0.000697 0.000279 -0.002808
-0.000734 0.000257 -0.002844
-0.000769 0.00024 -0.002874
-0.000799 0.00023 -0.002887
-0.000824 0.000227 -0.002884
-0.000848 0.000227 -0.002879
-0.000871 0.000226 -0.002872
-0.000895 0.000227 -0.002864
-0.000918 0.000227 -0.002857
-0.000941 0.000228 -0.002847
-0.000961 0.000233 -0.002829
-0.000975 0.000248 -0.00279
-0.000986 0.000268 -0.002743
-0.000997 0.000289 -0.002693
-0.00107 0.000508 -0.002178
-0.001092 0.00051 -0.002167
-0.001115 0.000511 -0.002159
-0.001139 0.00051 -0.002154
-0.001165 0.000506 -0.002153
-0.001192 0.0005 -0.002158
-0.001222 0.000491 -0.002171
-0.001256 0.000475 -0.002196
-0.001293 0.000453 -0.002234
-0.001329 0.000434 -0.002266
-0.001362 0.000418 -0.002291
-0.000142 0.000384 -0.00268
-0.000156 0.000398 -0.002644
-0.000169 0.000415 -0.002602
-0.00018 0.000435 -0.002554
-0.000191 0.000456 -0.002505
-0.000205 0.00047 -0.002467
-0.000224 0.000478 -0.002444
-0.000244 0.000482 -0.002428
-0.000267 0.000484 -0.002416
-0.00029 0.000484 -0.002409
-0.000315 0.000483 -0.002405
-0.000669 0.000737 -0.00277
0.000834 -4e-06 0.001983
-0.000594 0.000696 -0.002685
-0.000245 0.000761 -0.002433
-0.000467 0.000712 -0.002478
-0.000697 0.000252 -0.002808
-0.000734 0.00023 -0.002845
-0.000769 0.000212 -0.002874
-0.000798 0.000203 -0.002886
-0.000823 0.0002 -0.002884
-0.000847 0.0002 -0.002878
-0.000871 0.0002 -0.002871
-0.000895 0.0002 -0.002863
-0.000918 0.0002 -0.002856
-0.000941 0.000201 -0.002846
-0.000961 0.000207 -0.002828
-0.000975 0.000221 -0.00279
-0.000986 0.000241 -0.002743
-0.000997 0.000261 -0.002694
-0.001092 0.000483 -0.002167
-0.001115 0.000484 -0.002159
-0.001139 0.000483 -0.002154
-0.001165 0.000479 -0.002153
-0.001192 0.000473 -0.002158
-0.001222 0.000464 -0.002171
-0.001256 0.000447 -0.002198
-0.001293 0.000426 -0.002234
-0.001329 0.000407 -0.002265
-0.001362 0.000391 -0.002291
-0.000142 0.000357 -0.00268
-0.000156 0.000371 -0.002643
-0.000169 0.000388 -0.002601
-0.000181 0.000407 -0.002556
-0.000191 0.000428 -0.002504
-0.000205 0.000443 -0.002468
-0.000224 0.000451 -0.002444
-0.000244 0.000455 -0.002428
-0.000267 0.000457 -0.002416
-0.00029 0.000457 -0.002409
0.00019 0.000674 -0.002975
-5.5e-05 0.000633 -0.002886
-3.1e-05 0.000587 -0.002926
-0.000127 0.000565 -0.002739
-0.000442 0.000728 -0.002444
-0.000417 0.000737 -0.002424
-0.000734 0.000203 -0.002844
-0.000769 0.000186 -0.002873
-0.000798 0.000177 -0.002884
-0.000823 0.000174 -0.002882
-0.000847 0.000173 -0.002877
-0.000871 0.000173 -0.00287
-0.000894 0.000173 -0.002863
-0.000918 0.000173 -0.002855
-0.00094 0.000175 -0.002845
-0.000961 0.00018 -0.002827
-0.000975 0.000194 -0.00279
-0.000986 0.000214 -0.002743
-0.000997 0.000234 -0.002695
-0.001092 0.000456 -0.002167
-0.001115 0.000457 -0.002159
-0.001139 0.000455 -0.002154
-0.001165 0.000452 -0.002154
-0.001192 0.000446 -0.002158
-0.001222 0.000436 -0.002171
-0.001256 0.00042 -0.002197
-0.001293 0.000399 -0.002233
-0.001329 0.00038 -0.002265
-0.001363 0.000364 -0.002291
-0.000141 0.00033 -0.002679
-0.000156 0.000344 -0.002644
-0.000169 0.000362 -0.0026
-0.000181 0.00038 -0.002555
-0.00019 0.000402 -0.002503
-0.000205 0.000416 -0.002468
-0.000224 0.000424 -0.002444
-0.000244 0.000428 -0.002428
-0.000267 0.00043 -0.002416
-0.00029 0.00043 -0.002409
0.000166 0.00067 -0.002984
0.000165 0.000584 -0.002993
-7e-06 0.00057 -0.002962
-0.000569 0.000684 -0.002652
-0.000392 0.000743 -0.002412
-0.000734 0.000176 -0.002845
-0.000768 0.000159 -0.002872
-0.000797 0.00015 -0.002882
-0.000822 0.000148 -0.00288
-0.000847 0.000147 -0.002875
-0.00087 0.000146 -0.002869
-0.000894 0.000147 -0.002861
-0.000917 0.000147 -0.002852
-0.000939 0.000149 -0.002842
-0.00096 0.000153 -0.002825
-0.000975 0.000167 -0.00279
-0.000986 0.000187 -0.002742
-0.000997 0.000207 -0.002694
-0.001092 0.000429 -0.002167
-0.001115 0.000429 -0.002159
-0.00114 0.000428 -0.002154
-0.001165 0.000425 -0.002154
-0.001192 0.000419 -0.002158
-0.001222 0.000409 -0.002171
-0.001256 0.000392 -0.002198
-0.001293 0.000371 -0.002234
-0.001329 0.000353 -0.002265
-0.001363 0.000336 -0.002292
-0.000141 0.000303 -0.002679
-0.000157 0.000316 -0.002645
-0.000169 0.000334 -0.002602
-0.000181 0.000353 -0.002555
-0.000191 0.000374 -0.002504
-0.000205 0.000389 -0.002467
-0.000224 0.000397 -0.002444
-0.000244 0.000401 -0.002427
-0.000267 0.000403 -0.002416
-0.00029 0.000403 -0.002409
-0.000315 0.000401 -0.002405
0.000901 0.000464 -0.002756
-0.000569 0.000739 -0.002651
-0.000644 0.000669 -0.002744
0.000165 0.00053 -0.002994
6.7e-05 0.000445 -0.002998
0.00052 0.00074 -0.002372
-0.000594 0.000615 -0.002685
-0.000734 0.000149 -0.002844
-0.000768 0.000132 -0.00287
-0.000796 0.000125 -0.002878
-0.000821 0.000123 -0.002875
-0.000845 0.000122 -0.00287
-0.000869 0.000121 -0.002865
-0.000893 0.000122 -0.002857
-0.000915 0.000123 -0.002847
-0.000938 0.000124 -0.002837
-0.000959 0.000128 -0.002822
-0.000975 0.000141 -0.002789
-0.000986 0.00016 -0.002743
-0.000997 0.00018 -0.002693
-0.001092 0.000402 -0.002167
-0.001115 0.000402 -0.002159
-0.00114 0.000401 -0.002154
-0.001165 0.000398 -0.002153
-0.001192 0.000392 -0.002158
-0.001222 0.000382 -0.002171
-0.001256 0.000366 -0.002197
-0.001294 0.000344 -0.002235
-0.001329 0.000325 -0.002266
-0.001362 0.000309 -0.002291
-0.000141 0.000276 -0.002678
-0.000157 0.000289 -0.002644
-0.000169 0.000307 -0.002601
-0.000181 0.000326 -0.002555
-0.000191 0.000347 -0.002504
-0.000205 0.000361 -0.002468
-0.000224 0.000369 -0.002445
-0.000245 0.000374 -0.002428
-0.000267 0.000376 -0.002416
-0.00029 0.000376 -0.002409
-0.000315 0.000374 -0.002405
-3.1e-05 0.000668 -0.002927
-0.000126 0.000699 -0.002743
0.000811 -5e-06 0.001992
0.00019 0.000533 -0.002986
-0.000294 0.000745 -0.002409
-0.000269 0.000741 -0.002417
-0.000569 0.00063 -0.002653
-0.000734 0.000122 -0.002844
-0.000767 0.000107 -0.002867
-0.000794 0.000102 -0.002871
-0.000819 9.9e-05 -0.002868
-0.000843 9.8e-05 -0.002863
-0.000867 9.8e-05 -0.002857
-0.00089 9.8e-05 -0.00285
-0.000913 9.9e-05 -0.002841
-0.000936 0.0001 -0.00283
-0.000957 0.000104 -0.002816
-0.000975 0.000114 -0.002788
-0.000986 0.000133 -0.002742
-0.000997 0.000153 -0.002694
-0.001092 0.000375 -0.002167
-0.001115 0.000375 -0.002159
-0.00114 0.000374 -0.002154
-0.001165 0.000371 -0.002154
-0.001192 0.000365 -0.002158
-0.001222 0.000355 -0.002171
-0.001257 0.000338 -0.002199
-0.001293 0.000317 -0.002234
-0.001329 0.000298 -0.002266
-0.001362 0.000282 -0.002291
-0.000141 0.000249 -0.002679
-0.000156 0.000262 -0.002644
-0.000169 0.000279 -0.002602
-0.000181 0.000299 -0.002555
-0.000191 0.00032 -0.002504
-0.000205 0.000334 -0.002468
-0.000224 0.000342 -0.002445
-0.000245 0.000346 -0.002428
-0.000267 0.000349 -0.002416
-0.00029 0.000349 -0.002409
-0.000315 0.000347 -0.002405
1.8e-05 0.000671 -0.002981
9.1e-05 0.000582 -0.002998
-0.000126 0.000672 -0.002742
-5.5e-05 0.000497 -0.002885
-0.000319 0.000746 -0.002405
-0.000245 0.000735 -0.00243
-7.9e-05 0.000518 -0.002841
-0.000697 0.000116 -0.002808
-0.000734 9.5e-05 -0.002844
-0.000765 8.3e-05 -0.00286
-0.000791 7.9e-05 -0.002861
-0.000815 7.7e-05 -0.002858
-0.00084 7.6e-05 -0.002853
-0.000864 7.6e-05 -0.002847
-0.000887 7.6e-05 -0.002839
-0.00091 7.7e-05 -0.00283
-0.000933 7.8e-05 -0.00282
-0.000954 8.1e-05 -0.002807
-0.000973 8.8e-05 -0.002785
-0.000986 0.000105 -0.002742
-0.000997 0.000126 -0.002693
-0.001092 0.000348 -0.002167
-0.001115 0.000348 -0.002159
-0.00114 0.000347 -0.002154
-0.001165 0.000343 -0.002154
-0.001192 0.000337 -0.002158
-0.001222 0.000328 -0.002171
-0.001257 0.00031 -0.002199
-0.001293 0.00029 -0.002233
-0.001329 0.000271 -0.002266
-0.001363 0.000255 -0.002291
-0.000142 0.000221 -0.00268
-0.000156 0.000236 -0.002643
-0.000169 0.000252 -0.002601
-0.00018 0.000272 -0.002554
-0.000191 0.000293 -0.002504
-0.000206 0.000306 -0.002469
-0.000224 0.000314 -0.002445
-0.000245 0.000319 -0.002428
-0.000267 0.000321 -0.002417
-0.00029 0.000321 -0.00241
-0.000315 0.000319 -0.002405
0.000213 0.000656 -0.002954
0.000213 0.000601 -0.002956
-0.000103 0.000648 -0.002795
-0.000518 0.000694 -0.002574
-0.000269 0.000767 -0.00242
-0.000697 8.8e-05 -0.002808
-0.000732 7e-05 -0.002839
-0.000761 6.2e-05 -0.002848
-0.000787 5.8e-05 -0.002848
-0.000812 5.6e-05 -0.002845
-0.000836 5.5e-05 -0.00284
-0.00086 5.5e-05 -0.002833
-0.000883 5.5e-05 -0.002825
-0.000906 5.6e-05 -0.002817
-0.000929 5.7e-05 -0.002807
-0.000951 6e-05 -0.002795
-0.000971 6.5e-05 -0.002776
-0.000986 7.9e-05 -0.002741
-0.001092 0.00032 -0.002167
-0.001115 0.000321 -0.002159
-0.00114 0.000319 -0.002155
-0.001165 0.000316 -0.002154
-0.001193 0.00031 -0.002158
-0.001222 0.0003 -0.002171
-0.001257 0.000283 -0.0022
-0.001293 0.000263 -0.002233
-0.001329 0.000244 -0.002266
-0.001363 0.000227 -0.002293
-0.000141 0.000195 -0.002678
-0.000156 0.000209 -0.002643
-0.000169 0.000225 -0.002601
-0.000181 0.000244 -0.002555
-0.000191 0.000266 -0.002504
-0.000206 0.000279 -0.002469
-0.000224 0.000287 -0.002445
-0.000245 0.000292 -0.002429
-0.000267 0.000294 -0.002417
-0.000291 0.000294 -0.00241
-0.000315 0.000292 -0.002405
4.2e-05 0.000667 -0.002988
6.7e-05 0.000581 -0.002998
-5.5e-05 0.000606 -0.002885
-0.000619 0.000655 -0.002714
-0.00088 -2e-05 -0.001896
-0.000294 0.000769 -0.002414
-0.000697 6.2e-05 -0.002806
-0.000729 4.8e-05 -0.002828
-0.000756 4.2e-05 -0.002833
-0.000782 3.9e-05 -0.002832
-0.000806 3.8e-05 -0.002827
-0.00083 3.7e-05 -0.002822
-0.000854 3.6e-05 -0.002816
-0.000878 3.6e-05 -0.002808
-0.000901 3.7e-05 -0.0028
-0.000924 3.8e-05 -0.00279
-0.000946 4e-05 -0.002779
-0.000967 4.5e-05 -0.002762
-0.000984 5.4e-05 -0.002736
-0.000996 7.2e-05 -0.002692
-0.001092 0.000293 -0.002168
-0.001116 0.000293 -0.00216
-0.00114 0.000292 -0.002155
-0.001165 0.000289 -0.002154
-0.001193 0.000283 -0.002158
-0.001222 0.000273 -0.002171
-0.001257 0.000256 -0.0022
-0.001293 0.000235 -0.002234
-0.001329 0.000216 -0.002267
-0.001363 0.0002 -0.002293
-0.000141 0.000168 -0.002677
-0.000156 0.000182 -0.002642
-0.000169 0.000198 -0.002601
-0.000181 0.000217 -0.002556
-0.000191 0.000238 -0.002504
-0.000206 0.000252 -0.002468
-0.000224 0.00026 -0.002445
-0.000245 0.000265 -0.002429
-0.000267 0.000267 -0.002417
-0.000291 0.000267 -0.00241
-0.000315 0.000265 -0.002405
-7.9e-05 0.000734 -0.002844
-7e-06 0.000597 -0.002963
9.1e-05 0.000555 -0.002997
0.000141 0.000529 -0.002996
4.2e-05 0.000445 -0.002998
0.000141 0.000447 -0.002995
-0.000694 3.9e-05 -0.002797
-0.000723 3e-05 -0.00281
-0.00075 2.5e-05 -0.002811
-0.000775 2.3e-05 -0.002809
-0.000799 2.2e-05 -0.002804
-0.000823 2.1e-05 -0.002798
-0.000847 2.1e-05 -0.002791
-0.00087 2.1e-05 -0.002784
-0.000893 2.2e-05 -0.002775
-0.000916 2.3e-05 -0.002766
-0.000939 2.4e-05 -0.002756
-0.000961 2.7e-05 -0.002743
-0.00098 3.4e-05 -0.002722
-0.000995 4.7e-05 -0.002687
-0.001093 0.000265 -0.002168
-0.001116 0.000266 -0.00216
-0.00114 0.000265 -0.002155
-0.001166 0.000261 -0.002154
-0.001193 0.000256 -0.002159
-0.001222 0.000246 -0.002171
-0.001257 0.000229 -0.0022
-0.001293 0.000208 -0.002234
-0.001329 0.000189 -0.002267
-0.001363 0.000172 -0.002294
-0.000141 0.000141 -0.002676
-0.000156 0.000154 -0.002643
-0.000169 0.000171 -0.002601
-0.000181 0.00019 -0.002555
-0.000191 0.000211 -0.002504
-0.000205 0.000225 -0.002468
-0.000224 0.000233 -0.002445
-0.000245 0.000237 -0.002429
-0.000267 0.00024 -0.002417
-0.000291 0.00024 -0.00241
-0.000315 0.000238 -0.002405
-3.1e-05 0.000695 -0.002927
1.8e-05 0.000585 -0.002989
6.7e-05 0.000554 -0.002998
0.000996 0.000505 -0.002822
-0.000103 0.00073 -0.002794
-7.9e-05 0.000707 -0.002842
-0.000658 3.4e-05 -0.002759
-0.000688 2.1e-05 -0.002778
-0.000714 1.7e-05 -0.00278
-0.000739 1.6e-05 -0.002776
-0.000762 1.6e-05 -0.002768
-0.000786 1.5e-05 -0.002762
-0.00081 1.5e-05 -0.002755
-0.000833 1.5e-05 -0.002748
-0.00088 1.5e-05 -0.002733
-0.000904 1.5e-05 -0.002727
-0.000927 1.5e-05 -0.002718
-0.00095 1.6e-05 -0.002709
-0.000972 1.9e-05 -0.002697
-0.000991 2.7e-05 -0.002674
-0.001093 0.000238 -0.002168
-0.001116 0.000239 -0.00216
-0.00114 0.000237 -0.002155
-0.001166 0.000234 -0.002155
-0.001193 0.000229 -0.002158
-0.001222 0.000219 -0.002171
-0.001257 0.000202 -0.002199
-0.001294 0.00018 -0.002236
-0.00133 0.000161 -0.002268
-0.001364 0.000145 -0.002294
0.000442 0.000768 -0.002388
-0.000157 0.000127 -0.002644
-0.000169 0.000144 -0.0026
-0.000181 0.000163 -0.002555
-0.000191 0.000184 -0.002504
-0.000205 0.000198 -0.002467
-0.000224 0.000206 -0.002445
-0.000245 0.000211 -0.002428
-0.000267 0.000212 -0.002417
-0.000291 0.000212 -0.00241
-0.000315 0.000211 -0.002406
-5.5e-05 0.000713 -0.002888
0.000141 0.000583 -0.002996
0.000141 0.000556 -0.002995
0.000796 0.000523 -0.002655
-5.5e-05 0.000687 -0.002887
-0.000644 0.000751 -0.002742
-0.000103 0.000621 -0.002795
-0.000677 1.1e-05 -0.002744
-0.000702 9e-06 -0.00274
-0.000749 9e-06 -0.002726
-0.000773 9e-06 -0.002719
-0.000796 9e-06 -0.002711
-0.00082 9e-06 -0.002704
-0.000857 -2e-05 -0.001904
-0.000867 9e-06 -0.002691
-0.000891 9e-06 -0.002683
-0.000914 9e-06 -0.002675
-0.000938 9e-06 -0.002668
-0.000961 1e-05 -0.002659
-0.000982 1.4e-05 -0.002645
-0.000834 -2.1e-05 -0.001913
-0.001093 0.000211 -0.002168
-0.001116 0.000212 -0.00216
-0.00114 0.00021 -0.002155
-0.001166 0.000207 -0.002154
-0.001193 0.000201 -0.002159
-0.001222 0.000192 -0.002171
-0.001257 0.000175 -0.002198
-0.001294 0.000153 -0.002236
-0.001329 0.000134 -0.002267
-0.001364 0.000117 -0.002295
0.000116 0.000528 -0.002997
-0.000156 0.0001 -0.002643
-0.000169 0.000117 -0.0026
-0.000181 0.000135 -0.002555
-0.000191 0.000157 -0.002504
-0.000205 0.000171 -0.002468
-0.000224 0.000179 -0.002444
-0.000245 0.000183 -0.002428
-0.000267 0.000185 -0.002417
-0.000291 0.000185 -0.00241
-0.000315 0.000183 -0.002406
0.000401 0.000731 -0.002423
0.000867 0.000481 -0.002728
0.000934 0.000502 -0.002785
-5.5e-05 0.000524 -0.002886
-0.000343 0.000772 -0.002409
0.000279 0.000678 -0.002817
-0.000684 1e-05 -0.002682
-0.00081 -2.1e-05 -0.001921
-0.000787 -2.2e-05 -0.001929
-0.000778 1.1e-05 -0.002651
-0.000801 1.1e-05 -0.002645
-0.000848 1.1e-05 -0.00263
-0.000872 1.2e-05 -0.002622
-0.000895 1.1e-05 -0.002615
-0.000919 1.2e-05 -0.002607
-0.001093 0.000184 -0.002168
-0.001116 0.000184 -0.00216
-0.00114 0.000183 -0.002155
-0.001165 0.00018 -0.002154
-0.001193 0.000174 -0.002158
-0.001222 0.000165 -0.002171
-0.001257 0.000147 -0.0022
-0.001294 0.000127 -0.002234
-0.001329 0.000108 -0.002266
-0.001364 9e-05 -0.002295
-0.000141 5.9e-05 -0.002678
-0.000156 7.3e-05 -0.002642
-0.000169 9e-05 -0.002599
-0.000181 0.000109 -0.002555
-0.000191 0.00013 -0.002503
-0.000205 0.000144 -0.002468
-0.000224 0.000152 -0.002445
-0.000245 0.000156 -0.002428
-0.000267 0.000158 -0.002417
-0.000291 0.000158 -0.00241
-0.000315 0.000156 -0.002406
0.000165 0.000641 -0.002989
-0.000103 0.000702 -0.002795
-7.9e-05 0.000653 -0.002843
-0.000343 0.000747 -0.002404
-0.000764 -2.2e-05 -0.001937
-0.000741 -2.3e-05 -0.001945
-0.000717 -2.3e-05 -0.001953
-0.000807 1.3e-05 -0.002578
-0.00083 1.3e-05 -0.002571
-0.000854 1.3e-05 -0.002564
-0.000877 1.3e-05 -0.002557
-0.000901 1.3e-05 -0.002548
-0.001093 0.000157 -0.002168
-0.001116 0.000157 -0.00216
-0.00114 0.000156 -0.002155
-0.001165 0.000153 -0.002154
-0.001193 0.000147 -0.002159
-0.001222 0.000138 -0.00217
-0.001257 0.00012 -0.002199
-0.001294 9.9e-05 -0.002235
-0.001328 8.2e-05 -0.002264
-0.001364 6.3e-05 -0.002294
0.000215 0.000716 -0.002945
-0.000157 4.5e-05 -0.002644
-0.000169 6.3e-05 -0.0026
-0.00018 8.2e-05 -0.002554
-0.00019 0.000103 -0.002502
-0.000205 0.000117 -0.002467
-0.000224 0.000125 -0.002444
-0.000245 0.000129 -0.002429
-0.000267 0.000131 -0.002417
-0.000291 0.000131 -0.00241
-0.000315 0.000129 -0.002406
0.000934 0.000448 -0.002785
0.00019 0.000616 -0.002983
-0.000543 0.000755 -0.002618
-0.000103 0.000594 -0.002794
0.000165 0.000502 -0.002994
0.000213 0.00052 -0.002955
-0.00015 0.000673 -0.002682
-0.000603 1e-05 -0.002586
-0.000627 9e-06 -0.00258
-0.000651 9e-06 -0.002573
-0.000674 9e-06 -0.002567
-0.000698 9e-06 -0.00256
-0.000721 9e-06 -0.002552
-0.000745 9e-06 -0.002545
-0.000769 8e-06 -0.002538
-0.000792 9e-06 -0.00253
-0.000816 9e-06 -0.002523
-0.000839 9e-06 -0.002516
-0.000863 9e-06 -0.002509
-0.000886 8e-06 -0.002502
-0.001093 0.00013 -0.002168
-0.001116 0.00013 -0.002159
-0.00114 0.000129 -0.002155
-0.001165 0.000126 -0.002154
-0.001193 0.00012 -0.002159
-0.001222 0.000111 -0.00217
-0.001257 9.3e-05 -0.002199
-0.001294 7.2e-05 -0.002235
-0.001328 5.4e-05 -0.002264
-0.001364 3.5e-05 -0.002296
-7.9e-05 0.000599 -0.002842
-5.5e-05 0.000578 -0.002886
-0.000179 5.6e-05 -0.00255
-0.00019 7.7e-05 -0.002501
-0.000205 9e-05 -0.002467
-0.000224 9.7e-05 -0.002445
-0.000245 0.000102 -0.002429
-0.000267 0.000104 -0.002417
-0.000291 0.000104 -0.00241
-0.000315 0.000102 -0.002405
0.000213 0.000629 -0.002955
-0.000103 0.000675 -0.002795
-0.000543 0.000648 -0.002615
0.000544 0.00074 -0.002373
0.00019 0.000506 -0.002986
0.000215 0.000627 -0.002951
-0.000468 0.000762 -0.002487
-0.000589 5e-06 -0.00254
-0.000613 4e-06 -0.002534
-0.000636 4e-06 -0.002527
-0.00066 4e-06 -0.002521
-0.000683 4e-06 -0.002512
-0.000706 5e-06 -0.002503
-0.000731 4e-06 -0.002498
-0.000754 4e-06 -0.002492
-0.000778 4e-06 -0.002484
-0.000801 4e-06 -0.002477
-0.000826 3e-06 -0.002473
-0.00107 0.000101 -0.002178
-0.001093 0.000103 -0.002167
-0.001116 0.000103 -0.002159
-0.00114 0.000102 -0.002154
-0.001165 9.9e-05 -0.002153
-0.001193 9.3e-05 -0.002159
-0.001222 8.3e-05 -0.00217
-0.001257 6.6e-05 -0.002198
-0.001293 4.6e-05 -0.002233
-0.001329 2.6e-05 -0.002267
-0.001361 1.3e-05 -0.002286
0.001067 0.000505 -0.002802
-0.000147 6e-06 -0.002613
-0.000168 1e-05 -0.002596
-0.000181 2.6e-05 -0.002556
-0.00019 5e-05 -0.0025
-0.000205 6.3e-05 -0.002467
-0.000224 7e-05 -0.002445
-0.000245 7.5e-05 -0.002428
-0.000267 7.7e-05 -0.002417
-0.000291 7.7e-05 -0.002409
-0.000315 7.5e-05 -0.002405
6.7e-05 0.000637 -0.002996
0.001044 0.000422 -0.002811
0.000213 0.000493 -0.002955
-0.000475 8e-06 -0.002507
-0.000501 7e-06 -0.002506
-0.00057 7e-06 -0.00248
-0.000594 6e-06 -0.002474
-0.000618 6e-06 -0.002467
-0.000641 7e-06 -0.002458
-0.000664 7e-06 -0.00245
-0.000688 7e-06 -0.002445
-0.000712 6e-06 -0.002439
-0.000736 6e-06 -0.002431
-0.000759 7e-06 -0.002422
-0.000782 7e-06 -0.002414
-0.000972 6e-06 -0.00236
-0.000995 6e-06 -0.002353
-0.001028 6.4e-05 -0.002211
-0.001048 7e-05 -0.002192
-0.00107 7.4e-05 -0.002178
-0.001092 7.6e-05 -0.002167
-0.001115 7.6e-05 -0.002159
-0.00114 7.5e-05 -0.002154
-0.001165 7.2e-05 -0.002152
-0.001193 6.6e-05 -0.002157
-0.001222 5.7e-05 -0.002169
-0.001256 4e-05 -0.002196
-0.001293 1.9e-05 -0.002233
-0.001324 7e-06 -0.00225
-0.00135 4e-06 -0.002249
-0.00013 6e-06 -0.002557
-0.000154 6e-06 -0.00255
-0.000176 7e-06 -0.002539
-0.000205 3.6e-05 -0.002466
-0.000224 4.3e-05 -0.002444
-0.000245 4.8e-05 -0.002428
-0.000267 5e-05 -0.002416
-0.00029 5e-05 -0.002409
-0.000315 4.8e-05 -0.002405
-0.00034 4.5e-05 -0.002403
-5.5e-05 0.00066 -0.002887
0.000141 0.000699 -0.002979
-0.000482 8e-06 -0.002443
-0.000504 1e-05 -0.002432
-0.000528 1e-05 -0.002426
-0.000551 9e-06 -0.002419
-0.000575 1e-05 -0.002411
-0.000598 1e-05 -0.002403
-0.000622 1e-05 -0.002396
-0.000645 1e-05 -0.002389
-0.000669 1e-05 -0.002382
-0.00074 1e-05 -0.00236
-0.000763 1e-05 -0.002354
-0.000694 -2.3e-05 -0.001961
-0.000976 9e-06 -0.002292
-0.001028 3.7e-05 -0.00221
-0.001048 4.3e-05 -0.002191
-0.00107 4.7e-05 -0.002177
-0.001092 4.9e-05 -0.002166
-0.001115 4.9e-05 -0.002158
-0.00114 4.8e-05 -0.002154
-0.001165 4.5e-05 -0.002152
-0.001193 3.9e-05 -0.002157
-0.001222 3e-05 -0.002169
-0.001285 4e-06 -0.002207
-0.001309 3e-06 -0.002202
-0.001332 5e-06 -0.00219
-8.7e-05 9e-06 -0.002502
-0.000182 8e-06 -0.002474
-0.000203 1.2e-05 -0.002459
-0.000223 1.6e-05 -0.002442
6.7e-05 0.00073 -0.00297
-0.000267 2.2e-05 -0.002416
-0.00029 2.3e-05 -0.002408
-0.000315 2.1e-05 -0.002404
-0.000594 0.000669 -0.002685
-7.9e-05 0.00068 -0.002842
0.000116 0.000698 -0.002982
0.000166 0.000702 -0.002973
4.3e-05 0.000699 -0.002978
-0.000464 9e-06 -0.002387
-0.000488 9e-06 -0.002379
-0.000511 9e-06 -0.002372
-0.000535 9e-06 -0.002365
-0.000559 8e-06 -0.002359
-0.000582 9e-06 -0.002351
-0.000606 8e-06 -0.002344
-0.000671 -2.3e-05 -0.001969
-0.0007 9e-06 -0.002315
-0.000723 9e-06 -0.002306
-0.000747 9e-06 -0.0023
-0.000647 -2.4e-05 -0.001976
-0.000624 -2.4e-05 -0.001984
-0.001006 9e-06 -0.002221
-0.001028 1.2e-05 -0.002207
-0.001048 1.6e-05 -0.002191
-0.00107 1.9e-05 -0.002177
-0.001092 2.2e-05 -0.002166
-0.001115 2.2e-05 -0.002158
-0.00114 2.1e-05 -0.002154
-0.001194 1e-05 -0.00216
-0.001221 4e-06 -0.002165
-0.0006 -2.4e-05 -0.001991
-7.1e-05 8e-06 -0.002448
-9.3e-05 1e-05 -0.002437
-0.000117 9e-06 -0.002432
-0.000141 8e-06 -0.002426
-0.000166 6e-06 -0.002423
9.2e-05 0.000697 -0.002983
0.000165 0.000448 -0.002994
-0.000367 0.000746 -0.002407
0.00019 0.000706 -0.002963
-0.000306 8e-06 -0.002376
-0.00033 7e-06 -0.00237
6.7e-05 0.000698 -0.002982
1.8e-05 0.000702 -0.002971
-0.00047 9e-06 -0.002322
-0.000494 1e-05 -0.002315
-0.000517 1e-05 -0.002308
-0.000393 0.000769 -0.002415
-5.5e-05 0.000552 -0.002885
-0.000587 1e-05 -0.002284
-0.000576 -2.4e-05 -0.001998
-0.000634 1.1e-05 -0.002269
-0.000658 1e-05 -0.002262
-0.000681 1e-05 -0.002255
-0.000705 1e-05 -0.002249
-0.000989 9e-06 -0.002166
-0.001012 9e-06 -0.002158
-0.001036 9e-06 -0.002151
-0.00106 8e-06 -0.002146
-0.001085 6e-06 -0.002141
-0.001109 6e-06 -0.002136
-0.001132 6e-06 -0.002128
-7.6e-05 9e-06 -0.002383
-0.0001 9e-06 -0.002376
-0.000123 1e-05 -0.002366
-0.000553 -2.3e-05 -0.002005
-0.000217 1e-05 -0.002338
-0.000241 1e-05 -0.00233
0.000996 0.000532 -0.002822
-0.000312 9e-06 -0.00231
-0.000335 1e-05 -0.002302
