-0.001137 0.000376 0.002512
-0.001102 0.000394 0.002481
-0.001066 0.000415 0.002445
-0.001029 0.000438 0.002405
-0.00099 0.000463 0.002361
-0.000953 0.000485 0.002321
-0.000922 0.000497 0.002304
-0.000895 0.000503 0.002298
-0.000869 0.000507 0.002298
-0.000844 0.000508 0.002301
-0.000821 0.000508 0.002309
-0.000798 0.000506 0.002319
-0.000776 0.000503 0.002332
-0.000756 0.000497 0.002352
-0.000739 0.000487 0.002379
-0.000719 0.000403 0.002575
-0.000711 0.000376 0.002637
-0.000701 0.000354 0.002689
-0.000689 0.000334 0.002736
-0.000677 0.000315 0.002782
-0.000663 0.000298 0.002824
-0.00065 0.000281 0.002867
-0.000636 0.000266 0.002905
-0.00062 0.000253 0.002939
-0.000598 0.000249 0.002954
-0.000575 0.000249 0.00296
-0.00055 0.00025 0.002965
-0.000526 0.000252 0.00297
-0.001807 0.000666 0.00197
-0.001379 0.00058 0.002671
-0.001469 0.0006 0.002632
-0.001527 0.000659 0.002584
-0.00136 0.000251 0.002666
-0.00133 0.000262 0.002649
-0.001299 0.000275 0.002629
-0.001268 0.000288 0.002609
-0.001236 0.000302 0.002587
-0.001203 0.000317 0.002563
-0.00117 0.000332 0.002538
-0.001137 0.000349 0.002512
-0.001102 0.000367 0.00248
-0.001066 0.000388 0.002445
-0.001029 0.00041 0.002406
-0.00099 0.000436 0.00236
-0.000953 0.000458 0.00232
-0.000922 0.00047 0.002304
-0.000895 0.000476 0.002298
-0.000869 0.00048 0.002298
-0.000844 0.000481 0.002301
-0.000821 0.000481 0.002309
-0.000798 0.000479 0.002319
-0.000776 0.000476 0.002333
-0.000757 0.00047 0.002352
-0.000738 0.000461 0.002378
-0.000711 0.000349 0.002637
-0.000701 0.000326 0.002689
-0.000689 0.000307 0.002735
-0.000677 0.000288 0.002783
-0.000663 0.000271 0.002824
-0.00065 0.000254 0.002867
-0.000636 0.000238 0.002906
-0.000619 0.000226 0.002938
-0.000598 0.000222 0.002953
-0.000574 0.000222 0.00296
-0.00055 0.000223 0.002965
-0.000526 0.000224 0.002969
-0.000458 -2.8e-05 0.002034
-0.001964 0.000656 0.002034
-0.001403 0.000576 0.002666
-0.001378 0.000607 0.00267
-0.001534 0.000732 0.002322
-0.001361 0.000224 0.002666
-0.00133 0.000235 0.002649
-0.001299 0.000247 0.00263
-0.001268 0.00026 0.00261
-0.001235 0.000275 0.002587
-0.001203 0.00029 0.002562
-0.00117 0.000305 0.002538
-0.001137 0.000321 0.002513
-0.001102 0.00034 0.00248
-0.001066 0.000361 0.002445
-0.001029 0.000383 0.002407
-0.000989 0.000409 0.002359
-0.000952 0.000432 0.002319
-0.000922 0.000442 0.002304
-0.000895 0.000449 0.002298
-0.000869 0.000452 0.002297
-0.000844 0.000454 0.002301
-0.000821 0.000454 0.002309
-0.000798 0.000452 0.002319
-0.000776 0.000449 0.002333
-0.000756 0.000443 0.002352
-0.000738 0.000433 0.002378
-0.000482 -2.9e-05 0.002028
-0.000719 0.000348 0.002574
-0.000711 0.000321 0.002637
-0.000701 0.000299 0.00269
-0.000689 0.00028 0.002735
-0.000676 0.000261 0.002782
-0.000663 0.000244 0.002825
-0.00065 0.000226 0.002867
-0.000635 0.000211 0.002905
-0.000619 0.000199 0.002938
-0.000598 0.000195 0.002952
-0.000574 0.000195 0.002959
-0.00055 0.000197 0.002964
-0.001541 0.000528 0.002561
-0.001426 0.000574 0.002656
-0.002265 0.000544 0.001986
-0.001544 0.00067 0.002474
-0.00136 0.000197 0.002666
-0.001329 0.000208 0.002649
-0.001299 0.00022 0.002631
-0.001268 0.000233 0.00261
-0.001236 0.000247 0.002588
-0.001203 0.000263 0.002563
-0.00117 0.000278 0.002538
-0.001136 0.000295 0.002511
-0.001102 0.000313 0.002481
-0.001066 0.000333 0.002445
-0.001029 0.000356 0.002406
-0.00099 0.000382 0.002359
-0.000952 0.000404 0.00232
-0.000922 0.000415 0.002304
-0.000895 0.000422 0.002298
-0.000869 0.000425 0.002298
-0.000844 0.000427 0.002301
-0.000821 0.000426 0.002309
-0.000798 0.000425 0.002319
-0.000776 0.000421 0.002333
-0.000756 0.000416 0.002352
-0.000738 0.000406 0.002378
-0.000725 0.000388 0.002422
-0.000718 0.000321 0.002574
-0.000711 0.000294 0.002637
-0.000701 0.000272 0.00269
-0.000689 0.000253 0.002736
-0.000676 0.000235 0.002781
-0.000663 0.000217 0.002824
-0.00065 0.000199 0.002867
-0.000636 0.000184 0.002906
-0.000619 0.000172 0.002937
-0.000597 0.000169 0.002951
-0.000574 0.000169 0.002958
-0.00055 0.000169 0.002964
-0.001848 0.000675 0.001989
-0.002036 0.00063 0.002056
-0.002213 0.000678 0.001254
-0.00151 0.000627 0.002605
-0.001536 0.000696 0.002553
-0.001329 0.000181 0.002649
-0.001299 0.000193 0.002631
-0.001268 0.000206 0.002609
-0.001236 0.00022 0.002588
-0.001202 0.000236 0.002561
-0.00117 0.000251 0.002538
-0.001136 0.000267 0.002511
-0.001102 0.000286 0.00248
-0.001066 0.000307 0.002444
-0.001029 0.000329 0.002406
-0.00099 0.000354 0.00236
-0.000953 0.000377 0.00232
-0.000922 0.000388 0.002304
-0.000895 0.000394 0.002298
-0.000869 0.000398 0.002298
-0.000844 0.0004 0.002301
-0.000821 0.000399 0.002309
-0.000798 0.000398 0.002319
-0.000776 0.000394 0.002332
-0.000756 0.000389 0.002352
-0.000738 0.000379 0.002378
-0.000725 0.000362 0.00242
-0.000723 0.000326 0.002501
-0.000719 0.000294 0.002575
-0.000711 0.000266 0.002638
-0.000701 0.000245 0.002689
-0.000689 0.000226 0.002736
-0.000676 0.000207 0.002781
-0.000663 0.000189 0.002825
-0.00065 0.000172 0.002867
-0.000636 0.000156 0.002906
-0.000618 0.000146 0.002935
-0.000596 0.000143 0.002948
-0.000573 0.000143 0.002956
-0.000549 0.000143 0.002962
-0.000525 0.000144 0.002967
-0.001536 0.000757 0.001912
-0.001448 0.000574 0.002644
-0.001491 0.000599 0.00262
-0.00154 0.000737 0.002376
-0.00136 0.000143 0.002664
-0.001329 0.000154 0.002649
-0.001299 0.000166 0.00263
-0.001268 0.000179 0.00261
-0.001236 0.000193 0.002588
-0.001203 0.000209 0.002562
-0.00117 0.000224 0.002538
-0.001136 0.00024 0.002511
-0.001101 0.000259 0.00248
-0.001066 0.000279 0.002445
-0.000989 0.000328 0.002358
-0.000953 0.000349 0.002321
-0.000922 0.000361 0.002304
-0.000895 0.000367 0.002298
-0.000869 0.000371 0.002297
-0.000844 0.000372 0.002301
-0.000821 0.000372 0.002309
-0.000798 0.000371 0.002318
-0.000776 0.000367 0.002333
-0.000756 0.000361 0.002351
-0.000738 0.000352 0.002378
-0.000724 0.000297 0.002505
-0.000719 0.000267 0.002575
-0.000711 0.00024 0.002637
-0.000701 0.000218 0.002689
-0.000688 0.000199 0.002735
-0.000676 0.00018 0.002781
-0.000663 0.000162 0.002824
-0.00065 0.000145 0.002868
-0.000635 0.00013 0.002905
-0.000617 0.000121 0.00293
-0.000595 0.000118 0.002943
-0.000572 0.000118 0.002951
-0.000548 0.000118 0.002957
-0.000524 0.000119 0.002963
-0.000506 -2.9e-05 0.002021
-0.001526 0.000676 0.002263
-0.001542 0.000636 0.002425
-0.001927 0.000725 0.002021
-0.001464 0.000686 0.002624
-0.001359 0.000117 0.002661
-0.00133 0.000126 0.002649
-0.001299 0.000139 0.00263
-0.001268 0.000152 0.00261
-0.001235 0.000166 0.002587
-0.001203 0.000181 0.002562
-0.00117 0.000197 0.002538
-0.001136 0.000213 0.002512
-0.001101 0.000232 0.002478
-0.001066 0.000252 0.002445
-0.001029 0.000274 0.002406
-0.000989 0.000301 0.002358
-0.000953 0.000322 0.002321
-0.000922 0.000334 0.002304
-0.000895 0.00034 0.002298
-0.000869 0.000344 0.002297
-0.000844 0.000345 0.002301
-0.000821 0.000345 0.002308
-0.000798 0.000343 0.002319
-0.000776 0.00034 0.002332
-0.000756 0.000334 0.002351
-0.000738 0.000325 0.002378
-0.000725 0.000308 0.00242
-0.000724 0.000271 0.002504
-0.000719 0.000239 0.002576
-0.000711 0.000213 0.002637
-0.000701 0.000191 0.002689
-0.000688 0.000172 0.002735
-0.000676 0.000153 0.002781
-0.000663 0.000135 0.002825
-0.00065 0.000118 0.002867
-0.000635 0.000104 0.002903
-0.000615 9.7e-05 0.002924
-0.000593 9.5e-05 0.002935
-0.000569 9.4e-05 0.002943
-0.000546 9.4e-05 0.00295
-0.000522 9.5e-05 0.002955
-0.000497 9.7e-05 0.002959
-0.000529 -2.9e-05 0.002015
-0.002471 0.000714 0.001283
-0.001526 0.000703 0.002263
-0.001964 0.00071 0.002034
-0.001504 0.000687 0.002595
-0.001358 9.2e-05 0.002655
-0.00133 0.0001 0.002647
-0.001299 0.000111 0.00263
-0.001268 0.000125 0.00261
-0.001235 0.000139 0.002587
-0.001203 0.000154 0.002563
-0.00117 0.000169 0.002538
-0.001136 0.000186 0.002511
-0.001101 0.000205 0.002478
-0.001066 0.000225 0.002445
-0.001029 0.000247 0.002406
-0.000989 0.000274 0.002357
-0.000952 0.000295 0.00232
-0.000922 0.000307 0.002304
-0.000894 0.000313 0.002297
-0.000869 0.000317 0.002297
-0.000844 0.000318 0.002301
-0.000821 0.000318 0.002309
-0.000798 0.000316 0.002318
-0.000776 0.000313 0.002332
-0.000756 0.000307 0.002352
-0.000738 0.000297 0.002378
-0.000725 0.000281 0.00242
-0.000724 0.000243 0.002503
-0.000712 0.000185 0.002638
-0.000701 0.000163 0.00269
-0.000689 0.000144 0.002736
-0.000676 0.000125 0.002782
-0.000663 0.000108 0.002825
-0.00065 9.1e-05 0.002867
-0.000633 7.9e-05 0.002898
-0.000612 7.4e-05 0.002914
-0.00059 7.3e-05 0.002925
-0.000566 7.2e-05 0.002933
-0.000543 7.2e-05 0.00294
-0.000519 7.3e-05 0.002945
-0.000553 -2.9e-05 0.002008
-0.001926 0.000671 0.00202
-0.001927 0.000697 0.002021
-0.001465 0.000755 0.002035
-0.00138 6.9e-05 0.002641
-0.001355 7e-05 0.002646
-0.001329 7.4e-05 0.002644
-0.001299 8.5e-05 0.002629
-0.001267 9.8e-05 0.002609
-0.001235 0.000112 0.002587
-0.001202 0.000127 0.002562
-0.00117 0.000142 0.002539
-0.001136 0.000159 0.00251
-0.001101 0.000178 0.002478
-0.001065 0.000198 0.002444
-0.001029 0.00022 0.002406
-0.000989 0.000247 0.002358
-0.000952 0.000268 0.00232
-0.000922 0.000279 0.002304
-0.000894 0.000286 0.002297
-0.000869 0.00029 0.002297
-0.000844 0.000291 0.002301
-0.000821 0.000291 0.002308
-0.000798 0.000289 0.002318
-0.000776 0.000286 0.002332
-0.000756 0.00028 0.002351
-0.000738 0.00027 0.002378
-0.000701 0.000136 0.00269
-0.000689 0.000117 0.002737
-0.000676 9.8e-05 0.002781
-0.000663 8.1e-05 0.002824
-0.000649 6.5e-05 0.002864
-0.00063 5.7e-05 0.002888
-0.000609 5.3e-05 0.002902
-0.000586 5.2e-05 0.002912
-0.000562 5.2e-05 0.002919
-0.000539 5.2e-05 0.002926
-0.000515 5.3e-05 0.002931
-0.002 0.000588 0.002046
-0.002001 0.000669 0.002045
-0.001402 0.000632 0.002664
-0.001522 0.00069 0.002578
-0.001351 4.9e-05 0.002633
-0.001326 5.1e-05 0.002634
-0.001298 5.9e-05 0.002626
-0.001267 7.1e-05 0.002608
-0.001235 8.4e-05 0.002587
-0.001202 0.0001 0.002562
-0.00117 0.000114 0.002539
-0.001136 0.000132 0.00251
-0.001101 0.000151 0.002478
-0.001065 0.000172 0.002443
-0.001028 0.000193 0.002405
-0.000989 0.00022 0.002357
-0.000952 0.000241 0.00232
-0.000922 0.000252 0.002304
-0.000894 0.000259 0.002297
-0.000869 0.000262 0.002297
-0.000844 0.000264 0.002301
-0.000821 0.000264 0.002308
-0.000798 0.000262 0.002318
-0.000776 0.000259 0.002332
-0.000756 0.000253 0.002351
-0.000738 0.000243 0.002378
-0.000577 -2.9e-05 0.002001
-0.000701 0.000109 0.002689
-0.000689 8.9e-05 0.002737
-0.000676 7.1e-05 0.002782
-0.000662 5.5e-05 0.002821
-0.000646 4.3e-05 0.002854
-0.000626 3.7e-05 0.002873
-0.000604 3.4e-05 0.002886
-0.000581 3.3e-05 0.002894
-0.000557 3.3e-05 0.002902
-0.000534 3.3e-05 0.002908
-0.000509 3.4e-05 0.002914
-0.001426 0.00052 0.002656
-0.001512 0.000733 0.002195
-0.002001 0.000696 0.002046
-0.001446 0.000656 0.002642
-0.001346 3e-05 0.002615
-0.001321 3.2e-05 0.002618
-0.001295 3.7e-05 0.002616
-0.001266 4.5e-05 0.002606
-0.001235 5.8e-05 0.002586
-0.001202 7.3e-05 0.002562
-0.00117 8.7e-05 0.002539
-0.001136 0.000106 0.002509
-0.0011 0.000125 0.002475
-0.001065 0.000144 0.002443
-0.001028 0.000166 0.002405
-0.000989 0.000192 0.002358
-0.000952 0.000214 0.00232
-0.000922 0.000225 0.002304
-0.000894 0.000232 0.002297
-0.000869 0.000235 0.002297
-0.000844 0.000237 0.002301
-0.000821 0.000236 0.002308
-0.000798 0.000235 0.002318
-0.000776 0.000231 0.002332
-0.000756 0.000226 0.002351
-0.000738 0.000216 0.002379
-0.000719 0.00013 0.002576
-0.0006 -2.9e-05 0.001994
-0.000701 8.2e-05 0.002689
-0.000689 6.2e-05 0.002737
-0.000676 4.5e-05 0.00278
-0.00066 3.2e-05 0.002813
-0.000641 2.4e-05 0.002837
-0.00062 2e-05 0.002852
-0.000597 1.8e-05 0.002862
-0.000574 1.8e-05 0.00287
-0.00055 1.8e-05 0.002877
-0.000526 1.8e-05 0.002884
-0.00149 0.000518 0.002619
-0.001964 0.000683 0.002034
-0.001469 0.000627 0.002632
-0.001965 0.000737 0.002034
-0.001339 1.7e-05 0.002589
-0.001314 1.7e-05 0.002593
-0.001289 1.9e-05 0.002596
-0.001262 2.4e-05 0.002592
-0.001233 3.3e-05 0.002582
-0.001202 4.6e-05 0.002562
-0.00117 6.1e-05 0.002539
-0.001065 0.000118 0.002442
-0.001028 0.000139 0.002405
-0.000988 0.000166 0.002356
-0.000952 0.000187 0.00232
-0.000922 0.000198 0.002304
-0.000894 0.000205 0.002297
-0.000868 0.000208 0.002297
-0.000844 0.000209 0.002301
-0.000821 0.000209 0.002308
-0.000798 0.000208 0.002318
-0.000776 0.000204 0.002332
-0.000756 0.000198 0.002351
-0.000738 0.000188 0.002379
-0.000725 0.000172 0.002421
-0.000724 0.000134 0.002506
-0.000719 0.000102 0.002577
-0.000701 5.4e-05 0.002691
-0.000688 3.7e-05 0.002734
-0.000673 2.3e-05 0.002769
-0.000654 1.5e-05 0.002792
-0.000631 1.3e-05 0.002804
-0.000608 1.2e-05 0.002813
-0.000584 1.2e-05 0.002819
-0.000561 1.2e-05 0.002826
-0.001469 0.000519 0.002632
-0.002261 0.000686 0.001263
-0.001529 0.000729 0.002542
-0.001348 1.2e-05 0.002532
-0.001324 1.2e-05 0.002541
-0.001301 1.2e-05 0.002547
-0.001277 1.3e-05 0.002553
-0.001252 1.3e-05 0.002558
-0.001227 1.6e-05 0.00256
-0.001199 2.3e-05 0.002553
-0.001169 3.5e-05 0.002535
-0.001135 5.1e-05 0.002508
-0.0011 7.1e-05 0.002475
-0.001065 9e-05 0.002442
-0.001028 0.000112 0.002404
-0.000988 0.000139 0.002355
-0.000952 0.00016 0.002319
-0.000922 0.000171 0.002303
-0.000894 0.000177 0.002297
-0.000868 0.000181 0.002297
-0.000844 0.000182 0.002301
-0.000821 0.000182 0.002308
-0.000798 0.000181 0.002318
-0.000776 0.000177 0.002332
-0.000756 0.000171 0.002352
-0.000738 0.000161 0.002379
-0.000725 0.000144 0.002421
-0.000724 0.000106 0.002506
-0.000719 7.5e-05 0.002577
-0.000711 4.9e-05 0.002639
-0.0007 2.9e-05 0.002686
-0.000684 1.6e-05 0.00272
-0.000663 1.1e-05 0.002738
-0.000569 1.1e-05 0.002765
-0.000624 -2.9e-05 0.001987
-0.001356 1.2e-05 0.002472
-0.001332 1.1e-05 0.002479
-0.001309 1.1e-05 0.002486
-0.001285 1.1e-05 0.002495
-0.001262 1e-05 0.002503
-0.001239 9e-06 0.002512
-0.001216 8e-06 0.00252
-0.001191 9e-06 0.002525
-0.001164 1.6e-05 0.002519
-0.001134 2.7e-05 0.002503
-0.0011 4.3e-05 0.002476
-0.001064 6.4e-05 0.002441
-0.001028 8.6e-05 0.002402
-0.000988 0.000113 0.002354
-0.000952 0.000133 0.002318
-0.000922 0.000144 0.002303
-0.000894 0.00015 0.002297
-0.000868 0.000154 0.002297
-0.000844 0.000155 0.002301
-0.000821 0.000155 0.002309
-0.000798 0.000153 0.002319
-0.000776 0.00015 0.002333
-0.000756 0.000144 0.002351
-0.000738 0.000134 0.002379
-0.000719 4.8e-05 0.002578
-0.00071 2.4e-05 0.002633
-0.000694 1.1e-05 0.002668
-0.000673 7e-06 0.002683
-0.000649 7e-06 0.00269
-0.000647 -2.9e-05 0.00198
-0.000365 7e-06 0.002772
-0.000341 8e-06 0.002778
-0.000318 1e-05 0.002784
-0.001366 7e-06 0.002419
-0.001342 8e-06 0.002424
-0.001319 6e-06 0.002434
-0.001295 7e-06 0.002439
-0.001272 6e-06 0.002448
-0.001248 7e-06 0.002454
-0.001807 0.000693 0.001971
-0.001447 0.000547 0.002644
-0.001176 8e-06 0.002472
-0.001152 9e-06 0.002476
-0.001126 1.2e-05 0.002477
-0.001098 2e-05 0.002469
-0.001065 3.6e-05 0.002442
-0.001027 5.9e-05 0.002401
-0.000987 8.7e-05 0.002351
-0.000952 0.000106 0.002318
-0.000922 0.000117 0.002303
-0.000894 0.000123 0.002297
-0.000868 0.000127 0.002297
-0.000844 0.000128 0.002301
-0.000821 0.000127 0.002309
-0.000798 0.000126 0.002319
-0.000776 0.000123 0.002332
-0.000756 0.000117 0.002351
-0.000738 0.000107 0.002379
-0.000671 -2.9e-05 0.001973
-0.000718 2.3e-05 0.002574
-0.000702 1e-05 0.002606
-0.000537 9e-06 0.002658
-0.000514 8e-06 0.002665
-0.000694 -2.8e-05 0.001965
-0.000419 8e-06 0.002693
-0.000396 8e-06 0.002701
-0.000373 7e-06 0.002709
-0.000349 7e-06 0.002716
-0.000325 7e-06 0.002723
-0.001386 0.000727 0.002639
-0.001349 8e-06 0.00236
-0.001325 7e-06 0.002368
-0.0013 1e-05 0.00237
-0.001276 1.1e-05 0.002376
-0.001253 1e-05 0.002384
-0.00123 9e-06 0.002392
-0.002352 0.000649 0.001277
-0.000718 -2.8e-05 0.001957
-0.001111 1e-05 0.002424
-0.001087 1.1e-05 0.00243
-0.001061 1.5e-05 0.002429
-0.000952 7.9e-05 0.002318
-0.000921 9e-05 0.002303
-0.000894 9.6e-05 0.002298
-0.000868 9.9e-05 0.002297
-0.000844 0.000101 0.002301
-0.00082 0.0001 0.002309
-0.000798 9.9e-05 0.002319
-0.000776 9.5e-05 0.002332
-0.000756 9e-05 0.002351
-0.000738 8e-05 0.002379
-0.00071 9e-06 0.002547
-0.000686 9e-06 0.002552
-0.000662 9e-06 0.002558
-0.000638 1.1e-05 0.002563
-0.000543 1.1e-05 0.00259
-0.000519 1.1e-05 0.002596
-0.000496 1.1e-05 0.002604
-0.000473 1.1e-05 0.002612
-0.000426 1e-05 0.002628
-0.000402 1e-05 0.002633
-0.000378 1.1e-05 0.00264
-0.000355 1e-05 0.002647
-0.000331 1.1e-05 0.002653
-0.000308 9e-06 0.002663
-0.001355 9e-06 0.002294
-0.001331 1.1e-05 0.002298
-0.000741 -2.8e-05 0.00195
-0.002001 0.000615 0.002045
-0.001213 9e-06 0.002336
-0.00119 8e-06 0.002344
-0.001166 9e-06 0.002351
-0.001143 8e-06 0.00236
-0.00112 7e-06 0.002368
-0.001097 7e-06 0.002375
-0.001073 7e-06 0.002384
-0.001888 0.000686 0.002006
-0.001531 0.000519 0.002591
-0.000952 5.1e-05 0.002319
-0.000921 6.3e-05 0.002302
-0.000894 6.9e-05 0.002298
-0.000868 7.3e-05 0.002297
-0.000844 7.4e-05 0.002301
-0.00082 7.3e-05 0.002308
-0.000798 7.2e-05 0.002318
-0.000776 6.9e-05 0.002332
-0.000756 6.2e-05 0.002352
-0.000719 6e-06 0.002489
-0.000698 2e-06 0.002504
-0.000674 2e-06 0.00251
-0.00065 3e-06 0.002515
-0.000626 3e-06 0.002522
-0.000602 4e-06 0.002529
-0.00058 4e-06 0.002535
-0.000531 5e-06 0.002547
-0.000507 5e-06 0.002554
-0.000483 6e-06 0.00256
-0.000412 6e-06 0.002579
-0.000388 6e-06 0.002585
-0.000364 6e-06 0.002592
-0.00034 8e-06 0.002597
-0.000316 8e-06 0.002603
-0.000292 8e-06 0.002609
-0.002289 0.000495 0.001942
-0.001317 6e-06 0.002252
-0.001294 6e-06 0.00226
-0.001271 4e-06 0.002269
-0.001248 4e-06 0.002279
-0.001514 0.000724 0.002565
-0.0012 4e-06 0.002291
-0.001177 4e-06 0.002298
-0.001153 4e-06 0.002305
-0.001129 4e-06 0.002312
-0.001106 4e-06 0.00232
-0.001544 0.000725 0.002474
-0.002395 0.000742 0.001282
-0.001541 0.000555 0.002562
-0.00153 0.000546 0.002591
-0.000921 3.6e-05 0.002303
-0.000894 4.2e-05 0.002297
-0.000868 4.5e-05 0.002297
-0.000844 4.7e-05 0.0023
-0.00082 4.6e-05 0.002308
-0.000797 4.5e-05 0.002318
-0.000776 4.2e-05 0.002331
-0.000756 3.5e-05 0.002352
-0.000727 4e-06 0.002429
-0.000706 1e-06 0.002443
-0.00068 4e-06 0.002443
-0.000657 4e-06 0.002452
-0.000632 6e-06 0.002454
-0.000609 5e-06 0.002462
-0.000585 5e-06 0.00247
-0.000562 5e-06 0.002477
-0.000514 6e-06 0.002489
-0.000491 5e-06 0.002498
-0.000444 4e-06 0.002514
-0.000421 3e-06 0.002522
-0.000397 4e-06 0.002528
-0.001326 3e-06 0.002195
-0.001302 4e-06 0.002202
-0.001278 4e-06 0.002207
-0.001254 5e-06 0.002212
-0.001231 5e-06 0.002219
-0.001207 5e-06 0.002227
-0.001184 5e-06 0.002234
-0.001159 6e-06 0.002238
-0.001136 6e-06 0.002245
-0.001112 6e-06 0.002251
-0.001088 6e-06 0.002258
-0.001409 0.000725 0.002629
-0.001455 0.000721 0.00261
-0.000993 7e-06 0.002286
-0.00097 6e-06 0.002294
-0.000946 7e-06 0.002299
-0.000921 1e-05 0.0023
-0.00223 0.000599 0.00176
-0.000869 1.7e-05 0.0023
-0.000844 1.9e-05 0.002302
-0.000821 1.8e-05 0.00231
-0.000798 1.7e-05 0.002319
-0.000777 1.3e-05 0.002335
-0.000757 7e-06 0.002354
-0.000737 1e-06 0.002374
-0.000614 8e-06 0.002392
-0.000591 8e-06 0.002401
-0.000448 9e-06 0.002441
-0.000425 9e-06 0.002448
-0.000402 8e-06 0.002457
-0.000377 9e-06 0.002462
-0.000354 9e-06 0.002467
-0.000765 -2.7e-05 0.001942
-0.001308 6e-06 0.002133
-0.001284 6e-06 0.002139
-0.00126 7e-06 0.002144
-0.001236 8e-06 0.002149
-0.001212 8e-06 0.002156
-0.001188 9e-06 0.002162
-0.001141 9e-06 0.002176
-0.001117 8e-06 0.002183
-0.001094 9e-06 0.00219
-0.00107 8e-06 0.002196
-0.000788 -2.7e-05 0.001934
-0.001433 0.000722 0.002621
-0.001 8e-06 0.00222
-0.000976 8e-06 0.002227
-0.000952 8e-06 0.002233
-0.000929 8e-06 0.00224
-0.00148 0.000749 0.001965
-0.000859 6e-06 0.002265
-0.000836 5e-06 0.002273
-0.000812 6e-06 0.002278
-0.000789 5e-06 0.002288
-0.000692 8e-06 0.002309
-0.000669 8e-06 0.002317
-0.000645 8e-06 0.002325
-0.000622 7e-06 0.002332
-0.000408 9e-06 0.002392
-0.000385 9e-06 0.002399
-0.000337 9e-06 0.002412
-0.000196 8e-06 0.002456
-0.00015 7e-06 0.002472
-0.001266 8e-06 0.002078
-0.001243 8e-06 0.002087
-0.00122 8e-06 0.002095
-0.001197 7e-06 0.002104
-0.001173 7e-06 0.00211
-0.001478 0.000719 0.0026
-0.001102 8e-06 0.00213
-0.001078 7e-06 0.002138
-0.001055 8e-06 0.002144
-0.000811 -2.6e-05 0.001926
-0.000936 8e-06 0.002176
-0.000912 8e-06 0.002184
-0.000889 8e-06 0.002191
-0.001497 0.00072 0.002584
-0.000817 9e-06 0.00221
-0.000794 9e-06 0.002218
0.0008 -1.5e-05 0.001958
-0.002036 0.000602 0.002056
-0.000699 9e-06 0.002244
-0.000676 8e-06 0.002253
-0.000652 9e-06 0.002259
-0.000628 9e-06 0.002265
-0.000605 9e-06 0.002274
-0.000557 1e-05 0.002285
-0.000534 8e-06 0.002295
-0.000369 9e-06 0.002343
-0.000346 7e-06 0.002352
-0.000298 9e-06 0.002365
-0.000275 8e-06 0.002373
-0.00018 8e-06 0.0024
-0.000156 8e-06 0.002408
-0.000133 7e-06 0.002415
-0.001807 0.00072 0.001971
-0.00125 8e-06 0.002023
-0.001227 8e-06 0.002031
-0.001203 8e-06 0.002037
-0.001179 9e-06 0.002043
-0.001155 9e-06 0.002049
-0.001132 9e-06 0.002057
-0.001108 9e-06 0.002064
-0.001085 9e-06 0.002071
-0.00106 9e-06 0.002076
-0.001037 9e-06 0.002085
-0.000835 -2.6e-05 0.001918
-0.000858 -2.5e-05 0.001909
-0.000966 9e-06 0.002106
-0.000943 8e-06 0.002114
-0.00092 8e-06 0.002122
-0.000896 8e-06 0.002127
-0.000873 8e-06 0.002136
-0.00085 7e-06 0.002144
-0.000826 7e-06 0.002152
-0.001542 0.000581 0.002425
-0.000518 8e-06 0.002241
-0.000495 8e-06 0.002249
-0.000472 9e-06 0.002258
-0.000448 7e-06 0.002263
-0.000424 7e-06 0.00227
-0.0004 7e-06 0.002276
-0.000376 8e-06 0.002281
-0.000353 8e-06 0.002289
-0.000329 8e-06 0.002294
-0.000282 8e-06 0.002309
-0.000257 9e-06 0.002314
-0.001718 0.000734 0.001922
-0.00021 1e-05 0.002326
-0.000139 9e-06 0.002348
-0.000116 9e-06 0.002356
-6.8e-05 9e-06 0.00237
-4.6e-05 7e-06 0.002381
-0.001765 0.000739 0.00195
-0.001234 9e-06 0.001966
-0.001211 8e-06 0.001976
-0.001091 1e-05 0.002006
-0.001068 9e-06 0.002015
-0.001045 8e-06 0.002023
-0.001426 0.000547 0.002656
-0.00095 9e-06 0.00205
-0.000926 1e-05 0.002054
-0.000903 9e-06 0.002063
-0.000879 9e-06 0.00207
-0.000856 9e-06 0.002078
-0.000832 8e-06 0.002086
-0.000809 9e-06 0.002092
-0.000784 9e-06 0.002097
-0.000761 8e-06 0.002106
-0.001534 0.000624 0.002322
-0.001544 0.000544 0.00252
-0.00156 0.000799 0.001858
-0.001535 0.000803 0.001865
-0.000478 8e-06 0.00219
-0.000454 8e-06 0.002197
-0.00043 9e-06 0.002203
-0.000407 9e-06 0.00221
-0.000383 9e-06 0.002216
-0.000359 9e-06 0.002223
-0.001964 0.000629 0.002034
-0.000194 8e-06 0.002273
-0.00017 9e-06 0.002279
-0.001469 0.000546 0.002631
-5.3e-05 7e-06 0.002318
-2.9e-05 9e-06 0.002321
-0.001217 1e-05 0.001909
-0.001193 1e-05 0.001915
-0.00117 9e-06 0.001923
-0.001147 9e-06 0.001931
-0.001123 9e-06 0.001938
-0.0011 8e-06 0.001946
-0.001076 8e-06 0.001953
-0.001053 8e-06 0.001962
-0.001538 0.000602 0.002374
-0.002738 0.000547 0.001247
-0.001539 0.000629 0.002375
-0.001927 0.000643 0.002021
-0.001535 0.000741 0.002506
-0.000912 6e-06 0.002007
-0.000889 5e-06 0.002015
-0.000865 5e-06 0.002022
-0.000842 5e-06 0.00203
-0.000818 4e-06 0.002038
-0.000795 4e-06 0.002045
-0.000772 3e-06 0.002054
-0.000748 3e-06 0.00206
-0.000725 3e-06 0.002068
-0.001543 0.000708 0.002518
-0.001425 0.000629 0.002655
-0.002001 0.000642 0.002045
-0.000535 3e-06 0.002122
-0.000464 3e-06 0.002143
-0.00044 4e-06 0.00215
-0.000417 4e-06 0.002157
-0.000393 4e-06 0.002163
-0.000369 5e-06 0.002169
-0.000345 5e-06 0.002175
-0.000321 5e-06 0.002182
-0.000154 8e-06 0.002225
-0.001556 0.000757 0.001898
-0.001516 0.000756 0.001927
-0.001605 0.000751 0.001884
-0.001634 0.000744 0.001882
-0.001179 6e-06 0.001868
-0.001156 5e-06 0.001876
-0.001133 4e-06 0.001884
-0.00111 4e-06 0.001893
-0.001087 3e-06 0.001902
-0.001063 2e-06 0.001909
-0.00104 2e-06 0.001917
-0.001395 0.000692 0.002653
-0.002071 0.000726 0.002064
-0.001542 0.000689 0.002426
-0.001468 0.000655 0.00263
-0.001489 0.000655 0.002617
-0.000901 -2e-06 0.001968
-0.000877 -3e-06 0.001975
-0.000854 -3e-06 0.001984
-0.00083 -4e-06 0.001991
-0.000807 -4e-06 0.001998
-0.000783 -4e-06 0.002005
-0.00076 -4e-06 0.002013
-0.000736 -5e-06 0.002021
-0.000713 -5e-06 0.002029
-0.00069 -5e-06 0.002036
-0.000666 -6e-06 0.002043
-0.000642 -6e-06 0.002051
-0.000619 -6e-06 0.002057
-0.000595 -5e-06 0.002063
-0.000572 -6e-06 0.002071
-0.000548 -5e-06 0.002078
-0.000524 -5e-06 0.002085
-0.0005 -5e-06 0.002091
-0.000476 -5e-06 0.002097
-0.000453 -5e-06 0.002103
-0.000428 -4e-06 0.002109
-0.000405 -4e-06 0.002115
-0.000381 -3e-06 0.002122
-0.000357 -3e-06 0.002129
-0.000333 -2e-06 0.002134
-0.002281 0.00051 0.001903
-0.002036 0.000684 0.002055
-0.001167 -1e-06 0.001827
-0.001144 -2e-06 0.001836
-0.001121 -3e-06 0.001844
-0.001098 -4e-06 0.001852
-0.002244 0.00072 0.001968
-0.002037 0.00071 0.002056
-0.001419 0.000689 0.002646
-0.002102 0.000717 0.002066
-0.001539 0.000711 0.002375
-0.00154 0.000637 0.00256
-0.00149 0.000627 0.002619
-0.001529 0.000629 0.002588
-0.00089 -1.2e-05 0.001932
-0.000867 -1.3e-05 0.00194
-0.000844 -1.4e-05 0.001949
-0.00082 -1.4e-05 0.001957
-0.000797 -1.5e-05 0.001965
-0.000774 -1.5e-05 0.001972
-0.00075 -1.5e-05 0.00198
-0.000727 -1.6e-05 0.001988
-0.000703 -1.6e-05 0.001995
-0.00068 -1.6e-05 0.002003
-0.000656 -1.6e-05 0.00201
-0.000633 -1.6e-05 0.002017
-0.000609 -1.7e-05 0.002025
-0.000586 -1.7e-05 0.002032
-0.000562 -1.7e-05 0.002039
-0.000538 -1.7e-05 0.002045
-0.000514 -1.6e-05 0.002052
-0.000491 -1.6e-05 0.002058
-0.000467 -1.6e-05 0.002065
-0.000443 -1.6e-05 0.002071
-0.000419 -1.5e-05 0.002077
-0.000395 -1.5e-05 0.002083
-0.000371 -1.4e-05 0.002089
-0.000347 -1.4e-05 0.002094
-0.000323 -1.3e-05 0.0021
-0.001526 0.000649 0.002263
-0.001534 0.000651 0.002322
-0.001511 0.000707 0.002194
-0.001722 0.000757 0.00193
-0.001848 0.000702 0.001989
-0.001579 0.000755 0.001888
-0.001849 0.000647 0.00199
-0.001447 0.000519 0.002644
-0.001404 0.000521 0.002667
-0.001538 0.000575 0.002374
-0.001542 0.000554 0.002426
-0.001543 0.000535 0.002474
-0.001544 0.000517 0.00252
-0.001541 0.000501 0.002562
-0.001531 0.000492 0.002591
-0.001512 0.00049 0.002607
-0.001491 0.000491 0.00262
-0.001469 0.000491 0.002632
-0.001447 0.000492 0.002644
-0.001426 0.000493 0.002656
-0.001404 0.000494 0.002667
-0.001379 0.000498 0.002672
-0.002208 0.000541 0.001708
-0.002267 0.000556 0.001858
-0.002036 0.000548 0.002056
-0.002001 0.000561 0.002045
-0.001964 0.000574 0.002033
-0.001926 0.000589 0.00202
-0.001888 0.000604 0.002006
-0.001849 0.00062 0.001991
-0.001806 0.000639 0.001969
-0.001671 0.000703 0.001894
-0.001634 0.000717 0.001882
-0.001604 0.000724 0.001881
-0.001578 0.000729 0.001887
-0.001555 0.000731 0.001897
-0.002058 0.000647 0.002064
-0.001515 0.000729 0.001926
-0.001497 0.000726 0.001944
-0.001481 0.000721 0.001966
-0.002435 0.000727 0.001284
-0.002996 0.000524 0.000258
-0.00221 0.000707 0.001251
-0.001526 0.000594 0.002263
-0.001534 0.000569 0.002322
-0.001538 0.000548 0.002374
-0.001542 0.000526 0.002426
-0.001544 0.000507 0.002474
-0.001543 0.00049 0.002519
-0.001541 0.000474 0.002562
-0.001531 0.000464 0.002591
-0.001512 0.000463 0.002607
-0.00149 0.000464 0.002619
-0.001469 0.000464 0.002632
-0.001447 0.000465 0.002644
-0.001426 0.000466 0.002656
-0.001404 0.000467 0.002667
-0.001379 0.00047 0.002673
-0.000824 0.000753 0.002308
-0.000801 0.000755 0.002318
-0.000779 0.000757 0.002329
-0.001468 0.000764 0.002007
-0.002216 0.000758 0.001256
-0.002035 0.000521 0.002056
-0.002 0.000534 0.002045
-0.001964 0.000547 0.002034
-0.001926 0.000562 0.00202
-0.001888 0.000577 0.002007
-0.001848 0.000593 0.00199
-0.001806 0.000612 0.001969
-0.001764 0.000631 0.001949
-0.00167 0.000676 0.001893
-0.001633 0.00069 0.001882
-0.001604 0.000697 0.001882
-0.001578 0.000701 0.001887
-0.001555 0.000704 0.001897
-0.001534 0.000703 0.00191
-0.001515 0.000702 0.001926
-0.001497 0.000699 0.001944
-0.001481 0.000694 0.001966
-0.002289 0.00055 0.001942
-0.002197 0.00066 0.001702
-0.001526 0.000568 0.002263
-0.001534 0.000542 0.002321
-0.001539 0.00052 0.002375
-0.001542 0.000499 0.002427
-0.001544 0.00048 0.002475
-0.001543 0.000463 0.002519
-0.001541 0.000446 0.002562
-0.001531 0.000437 0.002592
-0.001512 0.000436 0.002607
-0.00149 0.000436 0.00262
-0.001469 0.000437 0.002632
-0.001447 0.000438 0.002644
-0.001426 0.000439 0.002656
-0.001404 0.00044 0.002667
-0.001379 0.000443 0.002672
-0.000824 0.000726 0.002309
-0.000801 0.000728 0.002318
-0.000779 0.000729 0.00233
-0.00218 0.000465 0.002076
-0.002394 0.000687 0.001281
-0.002035 0.000494 0.002056
-0.002 0.000506 0.002045
-0.001964 0.00052 0.002033
-0.001926 0.000535 0.00202
-0.001889 0.000549 0.002007
-0.001848 0.000567 0.001989
-0.001806 0.000585 0.001969
-0.001763 0.000604 0.001948
-0.001669 0.00065 0.001892
-0.001634 0.000662 0.001882
-0.001604 0.00067 0.001883
-0.001578 0.000674 0.001888
-0.001555 0.000677 0.001897
-0.001534 0.000676 0.00191
-0.001515 0.000675 0.001926
-0.001497 0.000672 0.001944
-0.001481 0.000667 0.001965
-0.002151 0.000555 0.002083
-0.00208 0.000765 0.001301
-0.001511 0.000571 0.002194
-0.001525 0.00054 0.002262
-0.001534 0.000515 0.002321
-0.001539 0.000493 0.002375
-0.001542 0.000472 0.002426
-0.001544 0.000453 0.002474
-0.001543 0.000435 0.00252
-0.001541 0.000419 0.002562
-0.001531 0.00041 0.002592
-0.001512 0.000408 0.002608
-0.001491 0.000409 0.00262
-0.001469 0.000409 0.002633
-0.001448 0.00041 0.002644
-0.001426 0.000411 0.002656
-0.001404 0.000412 0.002668
-0.001379 0.000416 0.002672
-0.000824 0.000699 0.002308
-0.000801 0.000701 0.002318
-0.002078 0.00072 0.001511
-0.002353 0.000703 0.001278
-0.002035 0.000467 0.002056
-0.002 0.000479 0.002045
-0.001963 0.000493 0.002033
-0.001926 0.000508 0.00202
-0.001888 0.000522 0.002007
-0.001848 0.000539 0.001989
-0.001806 0.000558 0.00197
-0.001763 0.000577 0.001948
-0.001633 0.000635 0.001882
-0.001604 0.000643 0.001883
-0.001578 0.000647 0.001888
-0.001555 0.00065 0.001896
-0.001534 0.00065 0.001909
-0.001515 0.000648 0.001925
-0.001497 0.000645 0.001943
-0.00215 0.000637 0.002082
-0.002435 0.000672 0.001285
-0.002216 0.000436 0.002042
-0.001526 0.000513 0.002263
-0.001535 0.000487 0.002323
-0.001539 0.000466 0.002375
-0.001542 0.000445 0.002426
-0.001543 0.000426 0.002473
-0.001544 0.000408 0.00252
-0.001541 0.000392 0.002561
-0.001531 0.000383 0.002592
-0.001512 0.000381 0.002608
-0.001491 0.000382 0.00262
-0.001469 0.000382 0.002632
-0.001447 0.000383 0.002644
-0.001426 0.000384 0.002656
-0.001404 0.000385 0.002667
-0.001379 0.000389 0.002673
-0.002178 0.000675 0.001667
-0.002206 0.000623 0.001706
-0.002035 0.00044 0.002056
-0.002 0.000452 0.002045
-0.001964 0.000466 0.002033
-0.001926 0.000481 0.00202
-0.001889 0.000495 0.002007
-0.001848 0.000512 0.001989
-0.001806 0.000531 0.001969
-0.001762 0.000551 0.001947
-0.001717 0.000572 0.001922
-0.001669 0.000595 0.001893
-0.001632 0.000609 0.001881
-0.001604 0.000616 0.001882
-0.001578 0.00062 0.001887
-0.001555 0.000623 0.001896
-0.001534 0.000623 0.001909
-0.001515 0.000621 0.001925
-0.001497 0.000618 0.001943
-0.002207 0.000677 0.001707
-0.002249 0.000517 0.002005
-0.00277 0.000601 0.001181
-0.001525 0.000486 0.002262
-0.001534 0.000461 0.002322
-0.00154 0.000438 0.002376
-0.001542 0.000418 0.002426
-0.001542 0.0004 0.002472
-0.001544 0.00038 0.002521
-0.001541 0.000365 0.002562
-0.001531 0.000355 0.002592
-0.001512 0.000354 0.002607
-0.00149 0.000355 0.00262
-0.001469 0.000356 0.002632
-0.001447 0.000356 0.002643
-0.001425 0.000357 0.002655
-0.001404 0.000358 0.002667
-0.001379 0.000362 0.002672
-0.002063 0.000738 0.001319
-0.002263 0.000739 0.001265
-0.002035 0.000413 0.002055
-0.002 0.000425 0.002044
-0.001964 0.000439 0.002033
-0.001926 0.000453 0.00202
-0.001888 0.000468 0.002007
-0.001847 0.000486 0.001988
-0.001806 0.000503 0.001969
-0.001762 0.000524 0.001946
-0.001717 0.000545 0.001921
-0.001669 0.000568 0.001892
-0.001633 0.000582 0.001881
-0.001604 0.000589 0.001881
-0.001577 0.000593 0.001886
-0.001555 0.000595 0.001896
-0.001534 0.000595 0.001909
-0.001514 0.000594 0.001925
-0.002106 0.000681 0.002077
-0.002268 0.00061 0.001858
-0.00218 0.00052 0.002076
-0.002395 0.000633 0.001282
-0.001513 0.000488 0.002197
-0.001526 0.000458 0.002264
-0.001534 0.000433 0.002323
-0.00154 0.000411 0.002377
-0.001542 0.000391 0.002426
-0.001542 0.000372 0.002472
-0.001544 0.000353 0.00252
-0.001541 0.000338 0.002561
-0.001531 0.000328 0.002592
-0.001512 0.000327 0.002607
-0.00149 0.000328 0.00262
-0.001469 0.000328 0.002632
-0.001447 0.000329 0.002644
-0.001426 0.00033 0.002656
-0.001404 0.000331 0.002667
-0.001379 0.000334 0.002672
-0.001467 0.000743 0.002074
0.000777 -1.6e-05 0.001967
-0.002035 0.000385 0.002055
-0.002 0.000398 0.002044
-0.001963 0.000412 0.002033
-0.001926 0.000426 0.00202
-0.001888 0.000441 0.002006
-0.001847 0.000458 0.001989
-0.001806 0.000476 0.00197
-0.001761 0.000497 0.001945
-0.001716 0.000519 0.001919
-0.001668 0.000541 0.001891
-0.001633 0.000554 0.001881
-0.001603 0.000562 0.001881
-0.001578 0.000566 0.001887
-0.001554 0.000568 0.001896
-0.001534 0.000568 0.001909
-0.001514 0.000567 0.001925
-0.00223 0.000708 0.001759
-0.002281 0.000592 0.001902
-0.002151 0.000528 0.002083
-0.002231 0.000491 0.002023
-0.001512 0.000461 0.002196
-0.001527 0.000431 0.002264
-0.001535 0.000406 0.002323
-0.00154 0.000384 0.002376
-0.001542 0.000363 0.002426
-0.001542 0.000345 0.002472
-0.001543 0.000326 0.00252
-0.001541 0.00031 0.002562
-0.001531 0.000301 0.002592
-0.001512 0.0003 0.002608
-0.00149 0.0003 0.00262
-0.001469 0.000301 0.002632
-0.001447 0.000302 0.002644
-0.001426 0.000303 0.002656
-0.001404 0.000304 0.002667
-0.001379 0.000307 0.002672
-0.002248 0.00049 0.002005
-0.002758 0.000547 0.001203
-0.002035 0.000358 0.002056
-0.002 0.000371 0.002044
-0.001963 0.000385 0.002033
-0.001926 0.000399 0.002021
-0.001888 0.000414 0.002006
-0.001849 0.00043 0.001991
-0.001806 0.000449 0.001969
-0.001762 0.000469 0.001946
-0.001668 0.000515 0.00189
-0.001633 0.000527 0.001881
-0.001603 0.000535 0.001881
-0.001578 0.000539 0.001887
-0.001555 0.000541 0.001896
-0.001534 0.000541 0.001909
-0.001514 0.000539 0.001925
-0.002232 0.000626 0.002023
-0.002107 0.000599 0.002077
-0.002513 0.000713 0.000464
-0.002248 0.000436 0.002005
-0.001535 0.000378 0.002323
-0.001539 0.000357 0.002376
-0.001543 0.000336 0.002427
-0.001543 0.000318 0.002473
-0.001543 0.000299 0.00252
-0.001541 0.000283 0.002562
-0.001531 0.000274 0.002592
-0.001512 0.000273 0.002608
-0.001491 0.000273 0.00262
-0.001469 0.000274 0.002632
-0.001447 0.000274 0.002644
-0.001426 0.000275 0.002656
-0.001404 0.000276 0.002667
-0.001379 0.00028 0.002672
-0.00215 0.000474 0.002082
-0.00225 0.000577 0.00181
-0.002035 0.000331 0.002056
-0.001999 0.000344 0.002044
-0.001963 0.000358 0.002032
-0.001926 0.000372 0.002021
-0.001888 0.000387 0.002006
-0.001848 0.000403 0.00199
-0.001806 0.000422 0.001969
-0.001761 0.000442 0.001945
-0.001715 0.000464 0.001919
-0.001668 0.000487 0.001891
-0.001633 0.0005 0.001881
-0.001603 0.000507 0.001882
-0.001578 0.000512 0.001887
-0.001555 0.000514 0.001896
-0.001534 0.000514 0.001909
-0.001515 0.000512 0.001925
-0.002248 0.000626 0.002005
-0.002471 0.000687 0.001283
-0.002289 0.000522 0.001942
-0.002591 0.000574 0.001288
-0.001527 0.000376 0.002265
-0.001535 0.000351 0.002324
-0.001539 0.000329 0.002376
-0.001543 0.000308 0.002428
-0.001543 0.00029 0.002473
-0.001544 0.000272 0.00252
-0.001541 0.000256 0.002562
-0.001531 0.000247 0.002591
-0.001512 0.000246 0.002607
-0.00149 0.000246 0.00262
-0.001469 0.000247 0.002632
-0.001447 0.000248 0.002644
-0.001425 0.000248 0.002656
-0.001404 0.000249 0.002667
-0.001379 0.000253 0.002671
-0.002539 0.000568 0.001291
-0.002058 0.00062 0.002064
-0.002035 0.000304 0.002055
-0.002 0.000317 0.002044
-0.001963 0.00033 0.002033
-0.001927 0.000344 0.002021
-0.001888 0.000359 0.002007
-0.001847 0.000377 0.001989
-0.001805 0.000395 0.001969
-0.001762 0.000415 0.001946
-0.001715 0.000437 0.001919
-0.001668 0.00046 0.001891
-0.001633 0.000473 0.001881
-0.001603 0.00048 0.001882
-0.001578 0.000485 0.001887
-0.001555 0.000487 0.001897
-0.001534 0.000486 0.00191
-0.001514 0.000485 0.001925
-0.002197 0.000628 0.002058
-0.002151 0.000582 0.002083
-0.00228 0.000518 0.001967
-0.002199 0.000436 0.00206
-0.001528 0.000348 0.002266
-0.001535 0.000324 0.002324
-0.00154 0.000302 0.002377
-0.001543 0.000281 0.002428
-0.001543 0.000263 0.002474
-0.001544 0.000245 0.00252
-0.001541 0.000229 0.002563
-0.00153 0.00022 0.002591
-0.001511 0.000219 0.002607
-0.00149 0.000219 0.00262
-0.001469 0.000219 0.002632
-0.001447 0.00022 0.002644
-0.001426 0.000221 0.002656
-0.001403 0.000222 0.002667
-0.001378 0.000226 0.002671
-0.00228 0.000436 0.001967
-0.002069 0.000265 0.002066
-0.002035 0.000276 0.002055
-0.002 0.000289 0.002045
-0.001963 0.000303 0.002033
-0.001926 0.000317 0.002021
-0.001888 0.000332 0.002006
-0.001847 0.00035 0.001988
-0.001806 0.000367 0.00197
-0.001762 0.000388 0.001946
-0.001668 0.000433 0.001891
-0.001632 0.000446 0.001881
-0.001603 0.000453 0.001881
-0.001578 0.000458 0.001887
-0.001555 0.000459 0.001896
-0.001534 0.000459 0.001909
-0.001514 0.000458 0.001925
-0.002107 0.000653 0.002078
-0.002435 0.000699 0.001284
-0.002265 0.000517 0.001987
-0.002309 0.000639 0.001272
-0.001528 0.000321 0.002266
-0.001535 0.000296 0.002324
-0.00154 0.000274 0.002377
-0.001543 0.000254 0.002427
-0.001543 0.000236 0.002474
-0.001543 0.000218 0.002519
-0.001541 0.000202 0.002562
-0.00153 0.000193 0.00259
-0.001511 0.000192 0.002607
-0.001491 0.000192 0.00262
-0.001469 0.000192 0.002633
-0.001448 0.000193 0.002645
-0.001426 0.000194 0.002656
-0.001403 0.000195 0.002666
-0.001378 0.0002 0.002671
-0.002188 0.000688 0.00205
-0.00207 0.000237 0.002064
-0.002035 0.000249 0.002054
-0.002 0.000262 0.002045
-0.001963 0.000276 0.002032
-0.001926 0.00029 0.002021
-0.001888 0.000305 0.002007
-0.001847 0.000323 0.001988
-0.001806 0.00034 0.001969
-0.001762 0.000361 0.001946
-0.001715 0.000383 0.001919
-0.001669 0.000405 0.001892
-0.001632 0.000419 0.001881
-0.001603 0.000426 0.001881
-0.001578 0.00043 0.001887
-0.001555 0.000432 0.001896
-0.001534 0.000432 0.001909
-0.001514 0.000431 0.001925
-0.002215 0.000627 0.002041
-0.002232 0.000572 0.002023
-0.002199 0.000573 0.002059
-0.002261 0.000713 0.001263
-0.002262 0.000657 0.001264
-0.001529 0.000293 0.002268
-0.001536 0.000269 0.002325
-0.00154 0.000247 0.002377
-0.001543 0.000227 0.002428
-0.001543 0.000208 0.002474
-0.001543 0.00019 0.00252
-0.00154 0.000176 0.00256
-0.001529 0.000167 0.002589
-0.00151 0.000165 0.002605
-0.00149 0.000165 0.002619
-0.001469 0.000165 0.002632
-0.001447 0.000166 0.002644
-0.001425 0.000167 0.002655
-0.001402 0.000169 0.002665
-0.001377 0.000173 0.00267
-0.001342 0.000186 0.002657
-0.002268 0.000688 0.001956
-0.00207 0.00021 0.002064
-0.002035 0.000222 0.002055
-0.002 0.000235 0.002045
-0.001963 0.000249 0.002033
-0.001926 0.000263 0.002021
-0.001887 0.000278 0.002006
-0.001847 0.000296 0.001988
-0.001805 0.000314 0.001968
-0.001763 0.000332 0.001948
-0.001715 0.000355 0.001919
-0.001668 0.000378 0.001892
-0.001632 0.000392 0.001881
-0.001603 0.000399 0.001881
-0.001577 0.000403 0.001887
-0.001554 0.000405 0.001896
-0.001534 0.000405 0.001909
-0.001514 0.000404 0.001925
-0.00228 0.000647 0.001902
-0.002107 0.000626 0.002078
-0.002216 0.000572 0.002042
-0.00231 0.000692 0.001273
-0.002435 0.000564 0.001285
-0.00153 0.000265 0.00227
-0.001536 0.000242 0.002325
-0.00154 0.00022 0.002377
-0.001543 0.000199 0.002428
-0.001543 0.000181 0.002474
-0.001543 0.000164 0.002519
-0.00154 0.000148 0.00256
-0.001527 0.000141 0.002586
-0.001508 0.00014 0.002603
-0.001488 0.000139 0.002617
-0.001468 0.000139 0.00263
-0.001446 0.00014 0.002642
-0.001424 0.000141 0.002653
-0.0014 0.000143 0.002662
-0.001375 0.000147 0.002667
-0.001341 0.00016 0.002656
-0.002265 0.000436 0.001986
-0.00207 0.000183 0.002064
-0.002035 0.000195 0.002054
-0.002 0.000208 0.002045
-0.001964 0.000221 0.002034
-0.001926 0.000235 0.002021
-0.001888 0.000251 0.002007
-0.001846 0.000269 0.001987
-0.001806 0.000286 0.001969
-0.001762 0.000306 0.001947
-0.001715 0.000328 0.00192
-0.001669 0.000351 0.001892
-0.001632 0.000364 0.001881
-0.001603 0.000372 0.001881
-0.001577 0.000376 0.001887
-0.001554 0.000378 0.001896
-0.001534 0.000378 0.001909
-0.001514 0.000376 0.001925
-0.002057 0.000675 0.002062
-0.00225 0.000604 0.001809
-0.002105 0.000546 0.002076
-0.002395 0.000578 0.001282
-0.00153 0.000238 0.00227
-0.001536 0.000214 0.002325
-0.00154 0.000193 0.002377
-0.001543 0.000172 0.002428
-0.001543 0.000154 0.002474
-0.001544 0.000136 0.002521
-0.001539 0.000122 0.002559
-0.001524 0.000116 0.002582
-0.001505 0.000115 0.002598
-0.001486 0.000114 0.002613
-0.001465 0.000114 0.002626
-0.001443 0.000115 0.002638
-0.001421 0.000117 0.002648
-0.001398 0.000119 0.002658
-0.001373 0.000123 0.002663
-0.002177 0.000722 0.002041
-0.00207 0.000156 0.002064
-0.002035 0.000168 0.002054
-0.002 0.00018 0.002045
-0.001964 0.000194 0.002034
-0.001926 0.000209 0.00202
-0.001888 0.000223 0.002007
-0.001846 0.000242 0.001987
-0.001805 0.000259 0.001969
-0.001762 0.000279 0.001947
-0.001715 0.000301 0.001919
-0.001669 0.000324 0.001892
-0.001633 0.000337 0.001881
-0.001603 0.000345 0.001881
-0.001577 0.000349 0.001887
-0.001554 0.000351 0.001896
-0.001534 0.000351 0.001909
-0.001514 0.000349 0.001925
-0.00247 0.000742 0.001282
-0.002353 0.00073 0.001278
-0.002232 0.000517 0.002024
-0.002639 0.000555 0.001283
-0.00153 0.00021 0.00227
-0.001536 0.000187 0.002325
-0.001539 0.000166 0.002376
-0.001543 0.000145 0.002428
-0.001544 0.000126 0.002475
-0.001544 0.000108 0.002521
-0.001536 9.7e-05 0.002555
-0.00152 9.3e-05 0.002575
-0.001501 9.2e-05 0.002591
-0.001481 9.1e-05 0.002606
-0.00146 9.1e-05 0.002619
-0.001439 9.1e-05 0.002631
-0.001416 9.3e-05 0.002642
-0.001393 9.5e-05 0.002651
-0.001369 9.9e-05 0.002657
-0.002115 0.000736 0.001266
-0.002069 0.000129 0.002063
-0.002035 0.000141 0.002054
-0.002 0.000153 0.002045
-0.001964 0.000167 0.002034
-0.001926 0.000181 0.002021
-0.001887 0.000197 0.002006
-0.001846 0.000214 0.001988
-0.001805 0.000232 0.001969
-0.001762 0.000251 0.001947
-0.001715 0.000274 0.001919
-0.001668 0.000297 0.001891
-0.001633 0.00031 0.001881
-0.001603 0.000317 0.001881
-0.001577 0.000322 0.001887
-0.001555 0.000323 0.001896
-0.001534 0.000323 0.00191
-0.001514 0.000322 0.001925
-0.002434 0.000755 0.001283
-0.002311 0.000746 0.001274
-0.002199 0.000518 0.00206
-0.00225 0.000522 0.00181
-0.001529 0.000184 0.002268
-0.001536 0.00016 0.002325
-0.00154 0.000139 0.002377
-0.001543 0.000118 0.002429
-0.001544 9.9e-05 0.002475
-0.001542 8.2e-05 0.002519
-0.001531 7.4e-05 0.002547
-0.001514 7.1e-05 0.002566
-0.001495 7e-05 0.002582
-0.001475 6.9e-05 0.002596
-0.001454 6.9e-05 0.002609
-0.001433 7e-05 0.002621
-0.00141 7.1e-05 0.002632
-0.001387 7.3e-05 0.002642
-0.001363 7.6e-05 0.002649
-0.00223 0.000735 0.00176
-0.00207 0.000102 0.002063
-0.002035 0.000114 0.002054
-0.001999 0.000127 0.002044
-0.001964 0.00014 0.002034
-0.001926 0.000155 0.00202
-0.001887 0.00017 0.002005
-0.001846 0.000188 0.001987
-0.001806 0.000204 0.00197
-0.001762 0.000224 0.001947
-0.001715 0.000247 0.001919
-0.001668 0.00027 0.001891
-0.001632 0.000283 0.001881
-0.001603 0.00029 0.001881
-0.001577 0.000295 0.001887
-0.001555 0.000296 0.001896
-0.001534 0.000296 0.00191
-0.001514 0.000295 0.001925
-0.002207 0.000705 0.001706
0.000754 -1.6e-05 0.001975
-0.001473 0.000767 0.002079
-0.002779 0.000601 0.001158
-0.001515 0.000187 0.0022
-0.001528 0.000158 0.002267
-0.001536 0.000133 0.002325
-0.00154 0.000111 0.002378
-0.001543 9.1e-05 0.002427
-0.001543 7.3e-05 0.002474
-0.001538 5.9e-05 0.002512
-0.001524 5.3e-05 0.002536
-0.001507 5e-05 0.002554
-0.001487 4.9e-05 0.002569
-0.001467 4.9e-05 0.002584
-0.001446 4.9e-05 0.002597
-0.001425 4.9e-05 0.002609
-0.001403 5.1e-05 0.00262
-0.00138 5.2e-05 0.00263
-0.002101 6.5e-05 0.002069
-0.00207 7.4e-05 0.002063
-0.002034 8.7e-05 0.002053
-0.001999 0.0001 0.002044
-0.001963 0.000113 0.002033
-0.001926 0.000127 0.00202
-0.001886 0.000143 0.002004
-0.001847 0.000159 0.001989
-0.001805 0.000178 0.001969
-0.001762 0.000197 0.001947
-0.001715 0.00022 0.001919
-0.001668 0.000243 0.001891
-0.001632 0.000256 0.001881
-0.001603 0.000263 0.001881
-0.001577 0.000267 0.001887
-0.001555 0.000269 0.001897
-0.001534 0.000269 0.00191
-0.001514 0.000268 0.001925
-0.002229 0.000681 0.001758
-0.00223 0.000626 0.001759
-0.002057 0.000566 0.002064
-0.002265 0.00049 0.001986
-0.001515 0.00016 0.002201
-0.001528 0.00013 0.002268
-0.001536 0.000105 0.002325
-0.00154 8.4e-05 0.002378
-0.001542 6.5e-05 0.002426
-0.00154 4.9e-05 0.002468
-0.001531 3.8e-05 0.0025
-0.001515 3.4e-05 0.002521
-0.001497 3.2e-05 0.002539
-0.001477 3.1e-05 0.002554
-0.001457 3e-05 0.002568
-0.001436 3e-05 0.002581
-0.001415 3.1e-05 0.002593
-0.001393 3.2e-05 0.002605
-0.00137 3.4e-05 0.002615
-0.001466 0.000711 0.002006
-0.002067 4.9e-05 0.002059
-0.002033 6.1e-05 0.002052
-0.001997 7.4e-05 0.002041
-0.001963 8.5e-05 0.002033
-0.001925 0.000101 0.002019
-0.001887 0.000116 0.002005
-0.001846 0.000133 0.001987
-0.001804 0.000151 0.001968
-0.001762 0.00017 0.001947
-0.001716 0.000192 0.00192
-0.001668 0.000215 0.001891
-0.001632 0.000229 0.00188
-0.001603 0.000236 0.001881
-0.001577 0.00024 0.001886
-0.001554 0.000242 0.001896
-0.001533 0.000242 0.001909
-0.002147 0.000666 0.00208
-0.002151 0.000609 0.002083
-0.002268 0.000583 0.001858
-0.002435 0.000645 0.001285
-0.002435 0.000618 0.001286
-0.001514 0.000134 0.002199
-0.001529 0.000103 0.002268
-0.001536 7.9e-05 0.002325
-0.00154 5.7e-05 0.002377
-0.001538 4e-05 0.002421
-0.001532 2.8e-05 0.002457
-0.001519 2.1e-05 0.002482
-0.001502 1.8e-05 0.002501
-0.001482 1.7e-05 0.002516
-0.001462 1.6e-05 0.002531
-0.001442 1.6e-05 0.002544
-0.001421 1.6e-05 0.002558
-0.0014 1.6e-05 0.00257
-0.001378 1.7e-05 0.002582
-0.001356 1.9e-05 0.002593
-0.002267 0.000502 0.001858
-0.002059 2.8e-05 0.002047
-0.00203 3.6e-05 0.002046
-0.001997 4.7e-05 0.00204
-0.001963 5.9e-05 0.002033
-0.001925 7.4e-05 0.002019
-0.001888 8.8e-05 0.002006
-0.001846 0.000106 0.001987
-0.001804 0.000124 0.001967
-0.001762 0.000143 0.001947
-0.001715 0.000166 0.001919
-0.001668 0.000189 0.001891
-0.001632 0.000202 0.00188
-0.001603 0.000209 0.001881
-0.001577 0.000213 0.001886
-0.001554 0.000215 0.001896
-0.001533 0.000215 0.001909
-0.002286 0.000633 0.00194
-0.00225 0.000631 0.00181
-0.002216 0.000518 0.002042
-0.002141 0.000757 0.001256
-0.001461 0.000703 0.002036
-0.001515 0.000106 0.0022
-0.001529 7.5e-05 0.002268
-0.001535 5.2e-05 0.002324
-0.001536 3.3e-05 0.002372
-0.00153 2e-05 0.002408
-0.001516 1.5e-05 0.002431
-0.001497 1.3e-05 0.002448
-0.001476 1.3e-05 0.002461
-0.001456 1.2e-05 0.002476
-0.001436 1.2e-05 0.00249
-0.001415 1.2e-05 0.002503
-0.001394 1.2e-05 0.002516
-0.001374 1.2e-05 0.00253
-0.001353 1.3e-05 0.002542
-0.001333 1.2e-05 0.002556
-0.002106 0.000491 0.002077
-0.002207 0.000569 0.001707
-0.00202 1.8e-05 0.00203
-0.001991 2.5e-05 0.002032
-0.00196 3.4e-05 0.002028
-0.001924 4.7e-05 0.002018
-0.001887 6.1e-05 0.002006
-0.001846 7.9e-05 0.001987
-0.001804 9.7e-05 0.001967
-0.001762 0.000116 0.001947
-0.001715 0.000139 0.001919
-0.001667 0.000162 0.00189
-0.001632 0.000175 0.00188
-0.001603 0.000182 0.00188
-0.001577 0.000186 0.001886
-0.001554 0.000188 0.001896
-0.001534 0.000188 0.001909
-0.002281 0.000619 0.001902
-0.002281 0.000565 0.001902
-0.002209 0.000735 0.00125
-0.002206 0.000597 0.001706
-0.001473 0.000689 0.002073
-0.001514 7.9e-05 0.002199
-0.001529 4.8e-05 0.002269
-0.001531 2.8e-05 0.002318
-0.001526 1.5e-05 0.002355
-0.00151 1e-05 0.002376
-0.00149 1e-05 0.00239
-0.001469 1e-05 0.002403
-0.001447 1.1e-05 0.002416
-0.001427 1.1e-05 0.002429
-0.001405 1.2e-05 0.002441
-0.001384 1.1e-05 0.002454
-0.001364 1.2e-05 0.002468
-0.002278 0.000693 0.001932
-0.001996 1.2e-05 0.001993
-0.001975 1.2e-05 0.002006
-0.00195 1.5e-05 0.002013
-0.00192 2.3e-05 0.002012
-0.001885 3.5e-05 0.002003
-0.001846 5.1e-05 0.001987
-0.001803 7e-05 0.001966
-0.001761 8.9e-05 0.001945
-0.001715 0.000111 0.001919
-0.001667 0.000135 0.00189
-0.001632 0.000147 0.00188
-0.001602 0.000155 0.00188
-0.001577 0.000159 0.001886
-0.001554 0.000161 0.001896
-0.001533 0.00016 0.001909
-0.002287 0.000605 0.001941
-0.00228 0.000545 0.001967
-0.001483 0.000751 0.002121
