0.002826 0.000379 4.1e-05
0.002792 0.000394 2.2e-05
0.002753 0.00041 4e-06
0.002709 0.000429 -1.4e-05
0.002665 0.000448 -3.2e-05
0.002618 0.000468 -4.9e-05
0.002501 0.00052 -7.9e-05
0.002467 0.000534 -9.9e-05
0.002446 0.000542 -0.00012
0.002431 0.000547 -0.000143
0.002422 0.00055 -0.000166
0.002417 0.00055 -0.00019
0.002415 0.000549 -0.000215
0.002655 0.000747 0.000952
0.002999 0.000577 0.000174
0.002719 0.000692 0.000439
0.002763 0.000462 0.001195
0.00265 0.000425 -0.000429
0.0027 0.000399 -0.000462
0.002746 0.000376 -0.000495
0.002784 0.000356 -0.000526
0.002819 0.000338 -0.000557
0.002853 0.00032 -0.000587
0.002883 0.000304 -0.000617
0.002909 0.000289 -0.000647
0.002923 0.000281 -0.000674
0.002921 0.00028 -0.000698
0.002915 0.000281 -0.000722
0.002909 0.000282 -0.000746
0.002903 0.000283 -0.00077
0.002025 -2.7e-05 -0.0005
0.002982 0.000441 0.000321
0.002992 0.000528 0.000149
0.002954 0.0003 0.000118
0.002925 0.000312 9.9e-05
0.002894 0.000324 8e-05
0.002862 0.000337 6e-05
0.002827 0.000352 4.1e-05
0.002791 0.000367 2.2e-05
0.002752 0.000383 4e-06
0.002709 0.000402 -1.4e-05
0.002664 0.000421 -3.2e-05
0.002617 0.000442 -4.9e-05
0.002564 0.000465 -6.5e-05
0.002503 0.000492 -8e-05
0.002466 0.000507 -9.9e-05
0.002445 0.000516 -0.00012
0.002431 0.00052 -0.000143
0.002422 0.000522 -0.000166
0.002417 0.000523 -0.00019
0.002415 0.000522 -0.000215
0.002912 0.000688 0.000363
0.00298 0.000578 0.000321
0.00299 0.000574 0.000297
0.002503 0.000635 0.000809
0.002718 0.000557 0.000438
0.002651 0.000397 -0.000429
0.002701 0.000372 -0.000462
0.002745 0.000349 -0.000494
0.002783 0.00033 -0.000526
0.002819 0.00031 -0.000557
0.002853 0.000292 -0.000587
0.002883 0.000277 -0.000617
0.00291 0.000262 -0.000647
0.002922 0.000254 -0.000674
0.002921 0.000253 -0.000698
0.002916 0.000254 -0.000723
0.00291 0.000255 -0.000747
0.002904 0.000256 -0.000771
0.002029 -2.7e-05 -0.000476
0.002994 0.000438 0.000273
0.0025 0.00069 0.000809
0.002955 0.000272 0.000118
0.002925 0.000284 9.9e-05
0.002894 0.000297 8e-05
0.002862 0.00031 6e-05
0.002827 0.000325 4.1e-05
0.002792 0.000339 2.2e-05
0.002753 0.000356 4e-06
0.002709 0.000375 -1.4e-05
0.002665 0.000394 -3.2e-05
0.002617 0.000414 -4.9e-05
0.002563 0.000438 -6.5e-05
0.002502 0.000465 -8e-05
0.002466 0.00048 -9.9e-05
0.002445 0.000488 -0.00012
0.002431 0.000493 -0.000143
0.002422 0.000495 -0.000166
0.002416 0.000496 -0.00019
0.002415 0.000495 -0.000215
0.002972 0.000663 0.00032
0.002952 0.00059 0.000342
0.002994 0.000574 0.000273
0.002602 0.000584 0.000896
0.002034 -2.7e-05 -0.000452
0.002702 0.000344 -0.000462
0.002746 0.000322 -0.000495
0.002784 0.000302 -0.000526
0.00282 0.000283 -0.000557
0.002853 0.000265 -0.000587
0.002883 0.000249 -0.000617
0.002909 0.000235 -0.000647
0.002922 0.000227 -0.000674
0.002921 0.000226 -0.000698
0.002916 0.000227 -0.000723
0.00291 0.000228 -0.000747
0.002903 0.000229 -0.000771
0.002039 -2.8e-05 -0.000428
0.002569 0.000601 0.000867
0.002387 0.000748 0.000721
0.002955 0.000246 0.000118
0.002925 0.000257 9.9e-05
0.002894 0.00027 7.9e-05
0.002862 0.000283 6e-05
0.002827 0.000298 4.1e-05
0.002791 0.000312 2.2e-05
0.002753 0.000329 4e-06
0.002709 0.000347 -1.4e-05
0.002665 0.000367 -3.2e-05
0.002617 0.000387 -4.9e-05
0.002563 0.000411 -6.5e-05
0.002501 0.000438 -7.9e-05
0.002466 0.000453 -9.9e-05
0.002445 0.000461 -0.00012
0.00243 0.000466 -0.000143
0.002422 0.000468 -0.000166
0.002416 0.000469 -0.00019
0.002415 0.000468 -0.000215
0.00299 0.000663 0.000173
0.002996 0.000574 0.000249
0.002998 0.000575 0.000224
0.002869 0.000517 0.000382
0.002508 0.000414 -0.000355
0.002043 -2.8e-05 -0.000404
0.002702 0.000317 -0.000462
0.002746 0.000294 -0.000495
0.002784 0.000274 -0.000526
0.00282 0.000256 -0.000557
0.002853 0.000238 -0.000587
0.002883 0.000222 -0.000617
0.002909 0.000208 -0.000647
0.002921 0.000201 -0.000674
0.00292 0.000199 -0.000698
0.002915 0.0002 -0.000723
0.002909 0.000201 -0.000747
0.002903 0.000201 -0.000771
0.002048 -2.8e-05 -0.000379
0.002911 0.000498 0.000362
0.002379 0.000753 0.000695
0.002954 0.000219 0.000118
0.002925 0.00023 9.9e-05
0.002893 0.000243 8e-05
0.002862 0.000256 6e-05
0.002827 0.00027 4.1e-05
0.00279 0.000286 2.2e-05
0.002753 0.000301 4e-06
0.00271 0.00032 -1.4e-05
0.002664 0.00034 -3.2e-05
0.002616 0.00036 -4.9e-05
0.002563 0.000384 -6.5e-05
0.002503 0.00041 -8e-05
0.002466 0.000426 -9.9e-05
0.002445 0.000434 -0.00012
0.00243 0.000439 -0.000143
0.002421 0.000441 -0.000166
0.002416 0.000442 -0.00019
0.002414 0.000441 -0.000215
0.002993 0.00066 0.000199
0.002659 0.000718 0.000952
0.002659 0.000691 0.000951
0.002963 0.000694 0.000319
0.00251 0.000386 -0.000356
0.002592 0.000346 -0.000394
0.002703 0.000289 -0.000463
0.002746 0.000267 -0.000495
0.002785 0.000247 -0.000526
0.00282 0.000229 -0.000557
0.002853 0.000211 -0.000587
0.002883 0.000195 -0.000617
0.002909 0.000181 -0.000647
0.002919 0.000174 -0.000673
0.002918 0.000173 -0.000698
0.002914 0.000173 -0.000722
0.002909 0.000174 -0.000746
0.002902 0.000175 -0.00077
0.002052 -2.8e-05 -0.000355
0.002406 0.00071 0.000748
0.002361 0.000767 0.000594
0.002954 0.000191 0.000118
0.002925 0.000203 9.9e-05
0.002893 0.000216 8e-05
0.002861 0.000229 6e-05
0.002827 0.000243 4.1e-05
0.002792 0.000258 2.2e-05
0.002752 0.000275 4e-06
0.00271 0.000293 -1.4e-05
0.002664 0.000312 -3.2e-05
0.002617 0.000333 -4.9e-05
0.002563 0.000356 -6.5e-05
0.002504 0.000383 -8e-05
0.002466 0.000399 -9.9e-05
0.002445 0.000407 -0.00012
0.00243 0.000412 -0.000143
0.002421 0.000414 -0.000166
0.002416 0.000414 -0.00019
0.002414 0.000413 -0.000215
0.002994 0.000659 0.000224
0.0026 0.000694 0.000896
0.002751 0.00052 0.001056
0.002944 0.000702 0.000342
0.00251 0.000359 -0.000356
0.002595 0.000317 -0.000395
0.002056 -2.8e-05 -0.000331
0.002704 0.000262 -0.000463
0.002746 0.00024 -0.000495
0.002785 0.00022 -0.000526
0.00282 0.000201 -0.000557
0.002854 0.000184 -0.000587
0.002883 0.000168 -0.000617
0.002909 0.000154 -0.000647
0.002917 0.000148 -0.000673
0.002916 0.000147 -0.000698
0.002912 0.000147 -0.000722
0.002907 0.000147 -0.000746
0.002901 0.000148 -0.00077
0.002994 0.000466 0.000273
0.002393 0.000756 0.000523
0.002954 0.000164 0.000118
0.002925 0.000176 9.9e-05
0.002894 0.000188 8e-05
0.002861 0.000202 6.1e-05
0.002827 0.000216 4.1e-05
0.002792 0.000231 2.2e-05
0.002752 0.000248 4e-06
0.002709 0.000266 -1.4e-05
0.002665 0.000285 -3.2e-05
0.002615 0.000307 -4.9e-05
0.002564 0.000329 -6.5e-05
0.002503 0.000356 -8e-05
0.002466 0.000371 -9.9e-05
0.002445 0.000379 -0.00012
0.002431 0.000384 -0.000143
0.002422 0.000387 -0.000166
0.002416 0.000387 -0.00019
0.002414 0.000386 -0.000215
0.002868 0.000708 0.000382
0.003 0.000576 0.000199
0.002911 0.000635 0.000362
0.002991 0.000501 0.000149
0.00206 -2.8e-05 -0.000306
0.002704 0.000234 -0.000463
0.002746 0.000213 -0.000495
0.002784 0.000193 -0.000526
0.00282 0.000174 -0.000557
0.002853 0.000157 -0.000587
0.002883 0.000141 -0.000617
0.002907 0.000128 -0.000646
0.002913 0.000123 -0.000672
0.002912 0.000121 -0.000697
0.002909 0.000121 -0.000722
0.002903 0.000122 -0.000746
0.002897 0.000123 -0.000769
0.002952 0.000481 0.000342
0.002371 0.000762 0.000544
0.002955 0.000137 0.000118
0.002925 0.000149 9.9e-05
0.002893 0.000161 8e-05
0.002861 0.000175 6e-05
0.002827 0.000189 4.1e-05
0.002791 0.000204 2.2e-05
0.002751 0.000221 4e-06
0.00271 0.000238 -1.4e-05
0.002664 0.000258 -3.2e-05
0.002615 0.000279 -4.9e-05
0.002563 0.000302 -6.5e-05
0.002505 0.000328 -8e-05
0.002466 0.000344 -9.9e-05
0.002445 0.000352 -0.00012
0.002431 0.000357 -0.000143
0.002422 0.000359 -0.000166
0.002417 0.00036 -0.00019
0.002415 0.000359 -0.000215
0.002972 0.0007 0.000147
0.002952 0.000617 0.000343
0.002868 0.000653 0.000382
0.002503 0.000662 0.000809
0.002063 -2.8e-05 -0.000282
0.002067 -2.8e-05 -0.000258
0.002071 -2.8e-05 -0.000233
0.002706 0.000207 -0.000463
0.002746 0.000186 -0.000495
0.002785 0.000166 -0.000526
0.002819 0.000147 -0.000557
0.002852 0.00013 -0.000587
0.002883 0.000114 -0.000617
0.002903 0.000102 -0.000646
0.002906 9.9e-05 -0.000671
0.002905 9.7e-05 -0.000696
0.002902 9.7e-05 -0.00072
0.002897 9.8e-05 -0.000745
0.00289 9.9e-05 -0.000768
0.002074 -2.7e-05 -0.000209
0.002363 0.00074 0.000569
0.002365 0.000766 0.00057
0.002954 0.00011 0.000118
0.002925 0.000122 9.8e-05
0.002894 0.000134 7.9e-05
0.002861 0.000148 6e-05
0.002827 0.000162 4.1e-05
0.002792 0.000176 2.2e-05
0.002752 0.000193 4e-06
0.00271 0.000211 -1.4e-05
0.002662 0.000232 -3.1e-05
0.002616 0.000252 -4.9e-05
0.002563 0.000275 -6.5e-05
0.002504 0.000301 -8e-05
0.002466 0.000317 -9.9e-05
0.002445 0.000325 -0.00012
0.002431 0.00033 -0.000143
0.002422 0.000332 -0.000166
0.002417 0.000333 -0.00019
0.002415 0.000331 -0.000215
0.002988 0.000658 0.000272
0.002538 0.000726 0.000839
0.002979 0.000606 0.000321
0.002458 0.000684 0.000779
0.002077 -2.7e-05 -0.000184
0.002746 0.000159 -0.000495
0.002783 0.000139 -0.000526
0.002819 0.00012 -0.000557
0.002852 0.000103 -0.000587
0.002881 8.7e-05 -0.000617
0.002895 7.9e-05 -0.000644
0.002896 7.6e-05 -0.00067
0.002895 7.5e-05 -0.000694
0.002892 7.4e-05 -0.000719
0.002081 -2.7e-05 -0.00016
0.002774 0.000586 0.00042
0.002028 0.000758 0.001444
0.002998 0.000548 0.000224
0.002924 9.5e-05 9.9e-05
0.002893 0.000107 8e-05
0.00286 0.000121 6e-05
0.002827 0.000134 4.1e-05
0.002792 0.000149 2.2e-05
0.002752 0.000166 4e-06
0.00271 0.000184 -1.4e-05
0.002663 0.000204 -3.2e-05
0.002616 0.000225 -4.9e-05
0.002502 0.000275 -8e-05
0.002466 0.00029 -9.9e-05
0.002445 0.000298 -0.00012
0.002432 0.000303 -0.000143
0.002422 0.000305 -0.000166
0.002417 0.000306 -0.00019
0.002415 0.000304 -0.000215
0.002982 0.00066 0.000297
0.002571 0.000709 0.000867
0.002999 0.000603 0.000199
0.002995 0.000411 0.000273
0.002591 0.00021 -0.000394
0.002652 0.00018 -0.000429
0.002705 0.000153 -0.000463
0.002746 0.000131 -0.000495
0.002783 0.000112 -0.000526
0.002818 9.4e-05 -0.000557
0.002851 7.6e-05 -0.000587
0.002876 6.3e-05 -0.000616
0.002883 5.7e-05 -0.000642
0.002884 5.5e-05 -0.000668
0.002883 5.3e-05 -0.000692
0.00288 5.3e-05 -0.000717
0.002952 0.000427 0.000342
0.002718 0.000611 0.000438
0.002601 0.000666 0.000896
0.002923 6.8e-05 9.9e-05
0.002893 8e-05 8e-05
0.00286 9.4e-05 6.1e-05
0.002827 0.000107 4.1e-05
0.002792 0.000122 2.2e-05
0.002752 0.000139 4e-06
0.002709 0.000157 -1.4e-05
0.002665 0.000176 -3.2e-05
0.002616 0.000197 -4.9e-05
0.002084 -2.7e-05 -0.000136
0.002503 0.000247 -8e-05
0.002467 0.000262 -9.9e-05
0.002445 0.000271 -0.00012
0.002431 0.000275 -0.000143
0.002422 0.000278 -0.000166
0.002417 0.000278 -0.00019
0.002415 0.000277 -0.000215
0.002825 0.000726 0.000402
0.002998 0.000605 0.000174
0.002998 0.000602 0.000224
0.002417 0.000708 -0.000243
0.002654 0.000151 -0.00043
0.002705 0.000126 -0.000463
0.002746 0.000104 -0.000495
0.002818 6.7e-05 -0.000557
0.002847 5.1e-05 -0.000587
0.002863 4.1e-05 -0.000614
0.002868 3.7e-05 -0.00064
0.002868 3.5e-05 -0.000665
0.002443 0.000727 -0.000314
0.00246 0.000711 0.00078
0.002992 0.000555 0.000149
0.002916 4.3e-05 0.000101
0.002893 5.3e-05 8e-05
0.00286 6.7e-05 6.1e-05
0.002827 8e-05 4.1e-05
0.002791 9.5e-05 2.2e-05
0.002751 0.000112 4e-06
0.002709 0.00013 -1.4e-05
0.002664 0.000149 -3.2e-05
0.002616 0.00017 -4.9e-05
0.002503 0.00022 -8e-05
0.002466 0.000235 -9.9e-05
0.002445 0.000244 -0.00012
0.002431 0.000248 -0.000143
0.002422 0.000251 -0.000166
0.002417 0.000251 -0.00019
0.002415 0.00025 -0.000215
0.002992 0.000658 0.000248
0.00299 0.000582 0.000149
0.002753 0.000544 0.001218
0.00266 0.000555 0.000951
0.002087 -2.6e-05 -0.000111
0.00209 -2.6e-05 -8.7e-05
0.002703 9.9e-05 -0.000463
0.002746 7.7e-05 -0.000495
0.002781 5.9e-05 -0.000526
0.002813 4.2e-05 -0.000556
0.002835 2.9e-05 -0.000585
0.002844 2.3e-05 -0.000611
0.002846 2e-05 -0.000636
0.002845 1.9e-05 -0.000661
0.002821 2.1e-05 -0.000782
0.002812 2.4e-05 -0.000805
0.002996 0.000466 0.000248
0.002538 0.000671 0.000838
0.002773 0.000641 0.00042
0.0029 2.4e-05 0.000104
0.002883 3e-05 8.2e-05
0.002857 4.1e-05 6.1e-05
0.002826 5.3e-05 4.1e-05
0.00279 6.9e-05 2.2e-05
0.002752 8.5e-05 4e-06
0.00271 0.000103 -1.4e-05
0.002664 0.000122 -3.2e-05
0.002616 0.000143 -4.9e-05
0.002561 0.000167 -6.5e-05
0.002503 0.000193 -8e-05
0.002467 0.000208 -9.9e-05
0.002445 0.000216 -0.00012
0.002431 0.000221 -0.000143
0.002422 0.000224 -0.000166
0.002416 0.000224 -0.00019
0.002415 0.000223 -0.000215
0.002869 0.00068 0.000382
0.002506 0.000742 0.00081
0.002602 0.00072 0.000896
0.002361 0.000734 0.000693
0.002704 7.1e-05 -0.000463
0.002743 5.1e-05 -0.000494
0.002777 3.4e-05 -0.000525
0.002799 2.1e-05 -0.000554
0.002809 1.4e-05 -0.00058
0.00281 1.2e-05 -0.000605
0.002808 1.2e-05 -0.00063
0.002092 -2.5e-05 -6.2e-05
0.002791 1e-05 -0.000752
0.002784 1.1e-05 -0.000776
0.00278 1.2e-05 -0.0008
0.002771 1.5e-05 -0.000824
0.002757 1.9e-05 -0.000846
0.002429 0.000759 -0.000291
0.002352 0.00074 0.000667
0.002874 1.1e-05 0.000133
0.002868 1.2e-05 0.000109
0.00286 1.4e-05 8.6e-05
0.002844 1.9e-05 6.3e-05
0.002821 2.9e-05 4.2e-05
0.002789 4.2e-05 2.2e-05
0.002749 5.9e-05 4e-06
0.002709 7.6e-05 -1.4e-05
0.002663 9.6e-05 -3.2e-05
0.002617 0.000115 -4.9e-05
0.002562 0.00014 -6.5e-05
0.002503 0.000166 -8e-05
0.002467 0.000181 -9.9e-05
0.002445 0.000189 -0.00012
0.002431 0.000194 -0.000143
0.002422 0.000196 -0.000166
0.002417 0.000197 -0.000191
0.002415 0.000196 -0.000215
0.002679 0.000734 0.00098
0.00257 0.000736 0.000867
0.002632 0.000705 0.000923
0.002821 0.000565 0.000401
0.002703 4.5e-05 -0.000463
0.002738 2.6e-05 -0.000494
0.00276 1.4e-05 -0.000522
0.002768 9e-06 -0.000548
0.002764 9e-06 -0.000573
0.002759 9e-06 -0.000597
0.002755 9e-06 -0.000621
0.002734 9e-06 -0.000743
0.00273 9e-06 -0.000767
0.002725 1e-05 -0.000791
0.00272 1e-05 -0.000815
0.002714 1.1e-05 -0.000839
0.002349 0.000743 0.000642
0.00282 9e-06 0.000142
0.002818 9e-06 0.000117
0.002815 8e-06 9.3e-05
0.002811 8e-06 6.9e-05
0.0028 1.1e-05 4.5e-05
0.002779 1.9e-05 2.4e-05
0.002746 3.3e-05 4e-06
0.002663 6.8e-05 -3.2e-05
0.002615 8.9e-05 -4.9e-05
0.002559 0.000114 -6.4e-05
0.002503 0.000139 -8e-05
0.002466 0.000154 -9.9e-05
0.002445 0.000162 -0.00012
0.002431 0.000167 -0.000143
0.002422 0.000169 -0.000166
0.002417 0.00017 -0.000191
0.002415 0.000168 -0.000215
0.002982 0.000668 0.000148
0.002823 0.000646 0.000401
0.002994 0.000601 0.000273
0.002362 0.000686 0.000569
0.002656 4.2e-05 -0.00043
0.002695 2.2e-05 -0.000461
0.002716 1e-05 -0.00049
0.002721 5e-06 -0.000516
0.00272 4e-06 -0.000541
0.002715 4e-06 -0.000565
0.00271 5e-06 -0.000589
0.002692 6e-06 -0.000686
0.002689 6e-06 -0.00071
0.002679 5e-06 -0.000783
0.002824 0.000483 0.000401
0.002355 0.000688 0.000593
0.002773 4e-06 0.00015
0.002767 5e-06 0.000126
0.002766 4e-06 0.000101
0.002761 4e-06 7.7e-05
0.002753 6e-06 5.3e-05
0.002746 7e-06 2.9e-05
0.002352 0.000686 0.000667
0.002983 0.000692 0.000198
0.002666 4e-05 -3.2e-05
0.002613 6.3e-05 -4.8e-05
0.00256 8.6e-05 -6.5e-05
0.002502 0.000111 -8e-05
0.002466 0.000127 -9.9e-05
0.002445 0.000135 -0.00012
0.002431 0.00014 -0.000143
0.002422 0.000142 -0.000167
0.002417 0.000142 -0.000191
0.002415 0.000141 -0.000215
0.002949 0.000672 0.000342
0.002996 0.000602 0.000249
0.002989 0.000602 0.000297
0.002998 0.000439 0.000224
0.002729 0.000687 0.001235
0.002958 0.000436 0.000122
0.002958 0.000463 0.000122
0.002636 5e-06 -0.000676
0.002635 4e-06 -0.000701
0.003 0.00044 0.000199
0.002619 8e-06 -0.000749
0.002616 7e-06 -0.000773
0.002616 5e-06 -0.000798
0.002611 6e-06 -0.000822
0.002718 7e-06 0.000209
0.002714 7e-06 0.000185
0.002711 6e-06 0.00016
0.002706 7e-06 0.000136
0.0027 8e-06 0.000112
0.002695 8e-06 8.8e-05
0.002692 8e-06 6.3e-05
0.002689 7e-06 3.9e-05
0.002684 8e-06 1.5e-05
0.002984 0.00069 0.000222
0.002659 1.6e-05 -3.1e-05
0.002619 3.3e-05 -4.9e-05
0.00256 5.9e-05 -6.5e-05
0.002502 8.5e-05 -8e-05
0.002466 0.0001 -9.9e-05
0.002445 0.000108 -0.00012
0.002431 0.000113 -0.000143
0.002422 0.000115 -0.000167
0.002417 0.000115 -0.000191
0.002977 0.000634 0.000321
0.002992 0.000629 0.000273
0.002995 0.000629 0.000248
0.002823 0.000673 0.000401
0.002537 0.000618 0.000838
0.002594 1.8e-05 -0.000395
0.002617 6e-06 -0.000424
0.002612 6e-06 -0.000448
0.002606 7e-06 -0.000472
0.002603 7e-06 -0.000496
0.002599 7e-06 -0.000521
0.002578 7e-06 -0.000642
0.002575 7e-06 -0.000666
0.002561 8e-06 -0.000739
0.002558 7e-06 -0.000763
0.002553 8e-06 -0.000788
0.002549 8e-06 -0.000812
0.002545 8e-06 -0.000836
0.00266 7e-06 0.000218
0.002656 7e-06 0.000194
0.002653 7e-06 0.00017
0.002649 7e-06 0.000145
0.002407 0.000683 0.000748
0.002911 0.000716 0.000362
0.00264 5e-06 7.2e-05
0.002636 5e-06 4.8e-05
0.002635 4e-06 2.3e-05
0.002633 3e-06 -2e-06
0.002629 3e-06 -2.6e-05
0.002613 9e-06 -4.8e-05
0.002565 3e-05 -6.5e-05
0.002501 5.8e-05 -8e-05
0.002466 7.3e-05 -9.9e-05
0.002445 8.1e-05 -0.00012
0.002431 8.6e-05 -0.000143
0.002421 8.8e-05 -0.000167
0.002417 8.8e-05 -0.000191
0.002751 0.000547 0.001057
0.002718 0.000665 0.000438
0.002997 0.00063 0.000224
0.002996 0.000633 0.000174
0.002753 0.000462 0.001218
0.00257 3e-06 -0.000391
0.002573 -1e-06 -0.000416
0.00257 -1e-06 -0.000441
0.002566 -1e-06 -0.000465
0.002562 -1e-06 -0.00049
0.002558 -1e-06 -0.000514
0.002544 -0.0 -0.000586
0.00254 0.0 -0.000611
0.002536 0.0 -0.000635
0.00253 1e-06 -0.000659
0.00251 3e-06 -0.000756
0.002506 3e-06 -0.00078
0.002501 3e-06 -0.000804
0.002496 4e-06 -0.000828
0.002491 4e-06 -0.000852
0.002487 4e-06 -0.000877
0.002614 2e-06 0.000226
0.002611 1e-06 0.000202
0.002609 0.0 0.000177
0.002607 -1e-06 0.000152
0.002605 -1e-06 0.000128
0.002597 -1e-06 7.9e-05
0.002591 -1e-06 5.5e-05
0.002587 -0.0 3.1e-05
0.002585 -1e-06 6e-06
0.002581 -1e-06 -1.8e-05
0.002573 -0.0 -4.2e-05
0.002501 3.1e-05 -8e-05
0.002466 4.5e-05 -9.9e-05
0.002444 5.4e-05 -0.00012
0.00243 5.9e-05 -0.000143
0.002421 6.1e-05 -0.000167
0.002987 0.00063 0.000297
0.003 0.000548 0.000199
0.002538 0.000698 0.000839
0.00242 5.4e-05 -0.000266
0.002431 4.6e-05 -0.000294
0.002991 0.000465 0.000297
0.002511 -1e-06 -0.000431
0.002506 0.0 -0.000455
0.002502 0.0 -0.000479
0.002487 -0.0 -0.000577
0.002481 1e-06 -0.000601
0.002478 0.0 -0.000625
0.002464 -1e-06 -0.000723
0.002459 -0.0 -0.000747
0.002456 -1e-06 -0.000772
0.002453 -1e-06 -0.000796
0.002449 -1e-06 -0.00082
0.002445 -1e-06 -0.000845
0.002441 -1e-06 -0.000869
0.00243 2e-06 -0.000892
0.002564 -2e-06 0.000234
0.002558 -1e-06 0.00021
0.002552 0.0 0.000186
0.002548 0.0 0.000162
0.002543 1e-06 0.000138
0.002973 0.000691 0.000295
0.00252 2e-06 1.7e-05
0.002515 2e-06 -7e-06
0.002512 2e-06 -3.2e-05
0.00251 1e-06 -5.6e-05
0.002496 6e-06 -7.9e-05
0.002466 1.8e-05 -9.9e-05
0.002444 2.7e-05 -0.00012
0.002969 0.000724 0.000221
0.002421 3.4e-05 -0.000167
0.002416 3.4e-05 -0.000191
0.00263 0.000651 0.000924
0.002774 0.000559 0.00042
0.002418 2.7e-05 -0.000267
0.002435 1.8e-05 -0.000294
0.002458 5e-06 -0.000322
0.002454 3e-06 -0.000372
0.002446 3e-06 -0.00042
0.00244 4e-06 -0.000444
0.002424 4e-06 -0.000542
0.002419 5e-06 -0.000566
0.002416 4e-06 -0.00059
0.002403 3e-06 -0.000688
0.0024 2e-06 -0.000712
0.002393 2e-06 -0.000761
0.00239 1e-06 -0.000786
0.002386 1e-06 -0.00081
0.002382 1e-06 -0.000834
0.00238 1e-06 -0.000859
0.002377 0.0 -0.000883
0.002496 3e-06 0.000246
0.002493 3e-06 0.000221
0.002488 3e-06 0.000197
0.002482 4e-06 0.000173
0.002477 4e-06 0.000149
0.002473 4e-06 0.000125
0.00235 0.000744 0.000617
0.002456 5e-06 2.8e-05
0.002451 6e-06 3e-06
0.002447 5e-06 -2.1e-05
0.002442 6e-06 -4.5e-05
0.00244 5e-06 -7e-05
0.002435 6e-06 -9.4e-05
0.002355 0.000742 0.000593
0.002416 1e-05 -0.000165
0.002413 8e-06 -0.00019
0.003 0.00055 0.000175
0.002376 0.000726 0.00072
0.002393 5e-06 -0.000362
0.002388 5e-06 -0.000386
0.002385 5e-06 -0.00041
0.002602 0.000612 0.000896
0.002364 5e-06 -0.000532
0.002361 5e-06 -0.000556
0.002344 5e-06 -0.000653
0.00234 6e-06 -0.000677
0.002336 5e-06 -0.000702
0.002959 0.000517 0.000122
0.002329 5e-06 -0.000751
0.00257 0.000628 0.000867
0.002239 3.2e-05 -0.000935
0.002223 3.8e-05 -0.000958
0.002979 0.00069 0.000271
0.002429 6e-06 0.000232
0.002426 5e-06 0.000207
0.002421 5e-06 0.000183
0.002419 5e-06 0.000158
0.002412 4e-06 0.00011
0.002991 0.000492 0.000298
0.002996 0.000493 0.000248
0.002998 0.000494 0.000224
0.002389 4e-06 -3.6e-05
0.002384 4e-06 -6e-05
0.002992 0.000411 0.000298
0.002981 0.000496 0.000321
0.002369 4e-06 -0.000158
0.002366 4e-06 -0.000182
0.002572 0.000681 0.000867
0.00287 0.000544 0.000382
0.002344 4e-06 -0.000304
0.002983 0.000689 0.000247
0.002332 4e-06 -0.000376
0.002328 5e-06 -0.000401
0.002313 5e-06 -0.000498
0.002308 4e-06 -0.000522
0.002304 5e-06 -0.000547
0.002288 5e-06 -0.000644
0.002287 3e-06 -0.000669
0.002912 0.000525 0.000362
0.002267 3e-06 -0.00079
0.002263 3e-06 -0.000814
0.002257 5e-06 -0.000839
0.002246 4e-06 -0.000912
0.002235 7e-06 -0.000935
0.002223 1.1e-05 -0.000958
0.002212 1.4e-05 -0.000981
0.002371 6e-06 0.000241
0.002367 6e-06 0.000217
0.002364 5e-06 0.000193
0.002364 4e-06 0.000168
0.002357 5e-06 0.000144
0.002354 5e-06 0.000119
0.002348 5e-06 9.5e-05
0.002994 0.000493 0.000273
0.002442 0.000754 -0.000314
0.002997 0.000411 0.000248
0.002999 0.000412 0.000224
0.002327 6e-06 -2.6e-05
0.002323 6e-06 -5e-05
0.00232 6e-06 -7.5e-05
0.002982 0.000414 0.000321
0.002912 0.000444 0.000362
0.00231 5e-06 -0.000148
0.002304 5e-06 -0.000172
0.003 0.000414 0.000174
0.002775 0.000504 0.00042
0.002787 0.000465 0.001125
0.002287 6e-06 -0.000269
0.002284 6e-06 -0.000294
0.002281 5e-06 -0.000318
0.002277 5e-06 -0.000342
0.002273 5e-06 -0.000367
0.002269 5e-06 -0.000391
0.002249 5e-06 -0.000512
0.002869 0.000463 0.000382
0.002212 6e-06 -0.000731
0.002206 7e-06 -0.000755
0.002205 5e-06 -0.00078
0.0022 6e-06 -0.000804
0.002197 5e-06 -0.000828
0.002195 4e-06 -0.000853
0.00219 5e-06 -0.000877
0.002188 4e-06 -0.000902
0.002186 3e-06 -0.000927
0.002184 2e-06 -0.000951
0.002182 1e-06 -0.000976
0.002174 3e-06 -0.000999
0.002268 0.000645 0.001916
0.002314 6e-06 0.000251
0.00231 6e-06 0.000227
0.002306 6e-06 0.000202
0.002992 0.000419 0.000149
0.002297 4e-06 0.000129
0.002293 5e-06 0.000104
0.002459 0.00063 0.000779
0.002377 0.000671 0.00072
0.002407 0.000656 0.000748
0.002981 0.00055 0.000321
0.002271 5e-06 -1.7e-05
0.002266 6e-06 -4.1e-05
0.002263 5e-06 -6.5e-05
0.002258 5e-06 -9e-05
0.002869 0.000735 0.000382
0.002536 0.000591 0.000838
0.002229 6e-06 -0.000259
0.002225 6e-06 -0.000284
0.002221 6e-06 -0.000308
0.002219 6e-06 -0.000333
0.002214 6e-06 -0.000357
0.002603 0.000557 0.000896
0.002159 6e-06 -0.000697
0.002154 6e-06 -0.000722
0.002152 5e-06 -0.000746
0.00215 4e-06 -0.000771
0.002146 5e-06 -0.000795
0.002141 5e-06 -0.000819
0.002136 5e-06 -0.000843
0.002131 6e-06 -0.000868
0.002127 6e-06 -0.000892
0.002123 6e-06 -0.000916
0.002118 6e-06 -0.00094
0.00257 0.000573 0.000867
0.002462 0.000719 -0.000337
0.002743 0.000463 0.00124
0.002658 0.000637 0.000952
0.00235 0.000689 0.000617
0.002349 0.000689 0.000642
0.002631 0.000624 0.000924
0.002659 0.000609 0.000952
0.003 0.000441 0.000174
0.002992 0.000446 0.000149
0.002912 0.000552 0.000362
0.002215 4e-06 -7e-06
0.002213 4e-06 -3.2e-05
0.002209 3e-06 -5.7e-05
0.002205 4e-06 -8.1e-05
0.002965 0.000728 0.000195
0.002868 0.00049 0.000382
0.002823 0.00051 0.000401
0.002912 0.000471 0.000362
0.002952 0.000454 0.000342
0.002773 0.000532 0.00042
0.00218 2e-06 -0.000251
0.002175 3e-06 -0.000276
0.00217 3e-06 -0.0003
0.002167 3e-06 -0.000324
0.002164 2e-06 -0.000349
0.002142 2e-06 -0.00047
0.002139 3e-06 -0.000494
0.002134 3e-06 -0.000519
0.002102 5e-06 -0.000688
0.002098 5e-06 -0.000712
0.002093 5e-06 -0.000736
0.002088 6e-06 -0.00076
0.002084 6e-06 -0.000785
0.002082 5e-06 -0.00081
0.002078 5e-06 -0.000834
0.002073 6e-06 -0.000858
0.002991 0.000438 0.000298
0.002355 0.000715 0.000593
0.00235 0.000716 0.000617
0.002363 0.000713 0.000569
0.002374 0.000709 0.000545
0.002376 0.000698 0.00072
0.002601 0.000639 0.000896
0.002462 0.000737 0.00078
0.002959 0.000544 0.000121
0.00277 0.000691 0.001118
0.002352 0.000713 0.000667
0.00236 0.000708 0.000693
0.002774 0.000613 0.00042
0.002997 0.000631 0.000199
0.002168 -3e-06 -2.5e-05
0.002165 -3e-06 -4.9e-05
0.002162 -4e-06 -7.4e-05
0.002159 -4e-06 -9.8e-05
0.002773 0.000722 0.00042
0.002911 0.000662 0.000362
0.002149 -5e-06 -0.000171
0.002146 -5e-06 -0.000196
0.002142 -5e-06 -0.00022
0.002138 -5e-06 -0.000244
0.002135 -5e-06 -0.000269
0.002131 -6e-06 -0.000293
0.002127 -6e-06 -0.000318
0.002124 -6e-06 -0.000342
0.00212 -6e-06 -0.000366
0.002116 -6e-06 -0.000391
0.002112 -6e-06 -0.000415
0.002107 -6e-06 -0.000439
0.002102 -6e-06 -0.000463
0.002098 -5e-06 -0.000488
0.002093 -5e-06 -0.000512
0.002069 -3e-06 -0.000633
0.002063 -2e-06 -0.000657
0.002058 -1e-06 -0.000681
0.002054 -1e-06 -0.000705
0.002049 -1e-06 -0.000729
0.002044 -0.0 -0.000753
0.002038 1e-06 -0.000777
0.002032 2e-06 -0.000801
0.002028 2e-06 -0.000825
0.002006 4e-06 -0.000922
0.002 5e-06 -0.000946
0.002997 0.000438 0.000249
0.003 0.000468 0.000174
0.002999 0.000467 0.000199
0.00242 0.000761 -0.000267
0.002572 0.000654 0.000867
0.002423 0.000757 0.00075
0.0025 0.000718 0.000809
0.002706 0.000499 0.001278
0.002952 0.000508 0.000342
0.002743 0.00049 0.00124
0.002822 0.000592 0.000401
0.002996 0.000547 0.000249
0.002995 0.000547 0.000273
0.002991 0.000547 0.000298
0.002823 0.000619 0.000401
0.002125 -1.3e-05 -6.8e-05
0.002123 -1.4e-05 -9.2e-05
0.00212 -1.4e-05 -0.000117
0.002116 -1.4e-05 -0.000141
0.002113 -1.5e-05 -0.000165
0.002109 -1.5e-05 -0.00019
0.002106 -1.6e-05 -0.000214
0.002103 -1.6e-05 -0.000239
0.0021 -1.6e-05 -0.000263
0.002096 -1.6e-05 -0.000287
0.002092 -1.6e-05 -0.000312
0.002088 -1.6e-05 -0.000336
0.002083 -1.6e-05 -0.00036
0.002079 -1.6e-05 -0.000385
0.002076 -1.6e-05 -0.000409
0.002071 -1.6e-05 -0.000433
0.002067 -1.5e-05 -0.000457
0.002062 -1.5e-05 -0.000482
0.002056 -1.5e-05 -0.000506
0.002052 -1.4e-05 -0.00053
0.002047 -1.4e-05 -0.000554
0.002042 -1.3e-05 -0.000578
0.002037 -1.3e-05 -0.000602
0.002032 -1.2e-05 -0.000626
0.002027 -1.2e-05 -0.000651
0.001992 -7e-06 -0.000795
0.001986 -6e-06 -0.000819
0.001962 -2e-06 -0.000915
0.002443 0.0007 -0.000314
0.00243 0.000705 -0.000291
0.002998 0.000466 0.000224
0.002959 0.00049 0.000122
0.002462 0.000692 -0.000337
0.002763 0.000544 0.001195
0.002658 0.000501 0.000952
0.002631 0.000515 0.000924
0.002603 0.000529 0.000896
0.002569 0.000547 0.000867
0.002536 0.000564 0.000838
0.002503 0.00058 0.000809
0.002458 0.000603 0.000779
0.002407 0.000628 0.000748
0.002377 0.000644 0.00072
0.00236 0.000653 0.000693
0.002352 0.000659 0.000667
0.002348 0.000662 0.000642
0.00235 0.000662 0.000617
0.002355 0.000661 0.000593
0.002362 0.000659 0.000569
0.002768 0.000655 0.001171
0.002613 0.000617 0.001292
0.00272 0.000541 0.001016
0.002774 0.000477 0.00042
0.002824 0.000455 0.000401
0.002869 0.000435 0.000382
0.002912 0.000417 0.000362
0.002953 0.000399 0.000342
0.002982 0.000387 0.000321
0.002992 0.000383 0.000297
0.002995 0.000383 0.000273
0.002997 0.000384 0.000248
0.002999 0.000385 0.000224
0.003 0.000385 0.000199
0.003 0.000386 0.000174
0.002991 0.000392 0.000149
0.002958 0.000408 0.000122
0.002417 0.000681 -0.000243
0.002421 0.00068 -0.000267
0.00243 0.000677 -0.000291
0.002443 0.000672 -0.000314
0.002465 0.000664 -0.000333
0.002204 0.0007 0.001257
0.002657 0.000474 0.000952
0.002631 0.000488 0.000924
0.002603 0.000502 0.000896
0.002569 0.00052 0.000867
0.002536 0.000536 0.000838
0.002502 0.000554 0.000809
0.002459 0.000575 0.000779
0.00241 0.0006 0.000749
0.002377 0.000617 0.00072
0.00236 0.000626 0.000693
0.002351 0.000632 0.000667
0.002348 0.000635 0.000642
0.002349 0.000635 0.000617
0.002354 0.000634 0.000593
0.002362 0.000632 0.000569
0.002778 0.000628 0.001148
0.002729 0.000573 0.001261
0.002782 0.00049 0.00115
0.002772 0.000451 0.00042
0.002824 0.000428 0.000401
0.002869 0.000408 0.000382
0.002912 0.00039 0.000362
0.002952 0.000372 0.000342
0.002982 0.00036 0.000321
0.002991 0.000356 0.000297
0.002995 0.000356 0.000273
0.002996 0.000357 0.000248
0.002998 0.000357 0.000224
0.003 0.000358 0.000199
0.003 0.000359 0.000174
0.002992 0.000365 0.000149
0.002957 0.000382 0.000122
0.002415 0.000652 -0.000219
0.002416 0.000653 -0.000243
0.002421 0.000653 -0.000267
0.00243 0.00065 -0.000291
0.002444 0.000645 -0.000314
0.002462 0.000637 -0.000337
0.002678 0.000435 0.000979
0.002658 0.000447 0.000952
0.00263 0.000461 0.000924
0.002602 0.000475 0.000896
0.002568 0.000493 0.000867
0.002536 0.000509 0.000838
0.0025 0.000527 0.000809
0.002459 0.000548 0.000779
0.002409 0.000573 0.000748
0.002377 0.00059 0.00072
0.00236 0.000599 0.000693
0.002351 0.000604 0.000667
0.002348 0.000607 0.000642
0.002349 0.000608 0.000617
0.002354 0.000607 0.000593
0.002361 0.000605 0.000569
0.002783 0.00063 0.001124
0.002721 0.000622 0.001017
0.002679 0.000618 0.000979
0.002719 0.000447 0.000438
0.002773 0.000423 0.00042
0.002824 0.000401 0.000401
0.002869 0.000381 0.000382
0.002913 0.000362 0.000362
0.002952 0.000345 0.000342
0.002982 0.000332 0.000321
0.002991 0.000329 0.000297
0.002994 0.00033 0.000273
0.002996 0.00033 0.000248
0.002998 0.000331 0.000224
0.003 0.000331 0.000199
0.003 0.000332 0.000174
0.002992 0.000337 0.000149
0.002957 0.000354 0.000122
0.002415 0.000626 -0.000219
0.002416 0.000626 -0.000243
0.002421 0.000625 -0.000267
0.00243 0.000623 -0.000291
0.002443 0.000618 -0.000314
0.002463 0.00061 -0.000337
0.00268 0.000407 0.000979
0.002657 0.00042 0.000952
0.002632 0.000433 0.000924
0.002603 0.000448 0.000896
0.002568 0.000466 0.000867
0.002536 0.000482 0.000838
0.0025 0.0005 0.000809
0.002459 0.000521 0.000779
0.002409 0.000546 0.000748
0.002376 0.000563 0.00072
0.00236 0.000572 0.000693
0.002351 0.000577 0.000667
0.002348 0.00058 0.000642
0.002349 0.000581 0.000617
0.002354 0.00058 0.000593
0.002749 0.000711 0.001056
0.002772 0.000599 0.001172
0.002776 0.000584 0.001094
0.002606 0.000692 0.000459
0.002653 0.00045 0.000455
0.00272 0.00042 0.000438
0.002773 0.000396 0.00042
0.002824 0.000374 0.000401
0.002869 0.000354 0.000382
0.002913 0.000335 0.000362
0.002952 0.000318 0.000342
0.002981 0.000305 0.000321
0.002991 0.000302 0.000297
0.002994 0.000302 0.000273
0.002996 0.000303 0.000248
0.002998 0.000303 0.000224
0.002999 0.000304 0.000199
0.003 0.000305 0.000174
0.002992 0.00031 0.000149
0.002958 0.000327 0.000122
0.002415 0.000598 -0.000219
0.002416 0.000599 -0.000243
0.002421 0.000599 -0.000267
0.00243 0.000596 -0.000291
0.002444 0.000591 -0.000314
0.002462 0.000583 -0.000337
0.00268 0.00038 0.000979
0.002657 0.000393 0.000952
0.002632 0.000406 0.000924
0.002602 0.000421 0.000896
0.00257 0.000437 0.000867
0.002536 0.000455 0.000838
0.002499 0.000474 0.000809
0.002457 0.000495 0.000779
0.002411 0.000518 0.000749
0.002376 0.000536 0.000719
0.00236 0.000545 0.000692
0.002352 0.00055 0.000667
0.002348 0.000553 0.000642
0.002349 0.000554 0.000617
0.002353 0.000553 0.000593
0.00256 0.000721 0.001296
0.00278 0.000599 0.001149
0.002772 0.000571 0.001173
0.001481 0.000758 0.001938
0.002649 0.000675 0.00045
0.002655 0.000422 0.000455
0.002719 0.000393 0.000438
0.002825 0.000346 0.000401
0.002869 0.000327 0.000382
0.002913 0.000307 0.000362
0.002952 0.000291 0.000342
0.002982 0.000278 0.000321
0.002992 0.000275 0.000297
0.002994 0.000275 0.000273
0.002997 0.000275 0.000248
0.002998 0.000276 0.000224
0.003 0.000277 0.000199
0.003 0.000278 0.000174
0.002992 0.000283 0.000149
0.002958 0.0003 0.000121
0.002093 -2.4e-05 -3.5e-05
0.002415 0.000571 -0.000219
0.002416 0.000572 -0.000243
0.002421 0.000571 -0.000267
0.00243 0.000569 -0.000291
0.002443 0.000564 -0.000314
0.002462 0.000556 -0.000337
0.002678 0.000354 0.000979
0.002657 0.000365 0.000952
0.002631 0.000379 0.000924
0.002603 0.000394 0.000896
0.00257 0.00041 0.000867
0.002534 0.000429 0.000838
0.002499 0.000446 0.000809
0.002459 0.000467 0.000779
0.002376 0.000509 0.000719
0.00236 0.000518 0.000692
0.002352 0.000523 0.000667
0.002348 0.000526 0.000642
0.002349 0.000527 0.000617
0.002354 0.000526 0.000593
0.002663 0.000678 0.001287
0.002785 0.000602 0.001124
0.002677 0.000647 0.000977
0.00251 0.000731 0.000471
0.002658 0.000393 0.000456
0.00272 0.000365 0.000438
0.002775 0.000341 0.00042
0.002825 0.000319 0.000401
0.002869 0.000299 0.000382
0.002912 0.000281 0.000362
0.002953 0.000263 0.000342
0.002982 0.000251 0.000321
0.002991 0.000248 0.000297
0.002995 0.000248 0.000273
0.002997 0.000248 0.000248
0.002999 0.000249 0.000224
0.003 0.000249 0.000199
0.003 0.000251 0.000174
0.002991 0.000256 0.000149
0.00296 0.000272 0.000121
0.002415 0.000544 -0.000219
0.002416 0.000545 -0.000243
0.002421 0.000544 -0.000267
0.00243 0.000542 -0.000291
0.002443 0.000537 -0.000314
0.002462 0.000529 -0.000337
0.002504 0.000581 0.001298
0.002656 0.000338 0.000952
0.002631 0.000352 0.000924
0.002603 0.000366 0.000896
0.002571 0.000383 0.000867
0.002535 0.000401 0.000838
0.002499 0.000419 0.000809
0.002459 0.000439 0.000779
0.002091 -2.5e-05 -1e-05
0.002376 0.000481 0.000719
0.00236 0.000491 0.000692
0.002352 0.000496 0.000667
0.002348 0.000499 0.000642
0.002349 0.000499 0.000617
0.002354 0.000498 0.000593
0.0027 0.000665 0.001276
0.002742 0.000599 0.00124
0.002786 0.000574 0.001125
0.002562 0.00053 0.001297
0.002089 -2.6e-05 1.4e-05
0.002656 0.000367 0.000455
0.002721 0.000338 0.000438
0.002775 0.000314 0.00042
0.002824 0.000292 0.000401
0.00287 0.000272 0.000382
0.002912 0.000254 0.000362
0.002952 0.000236 0.000342
0.002981 0.000224 0.000321
0.002991 0.000221 0.000297
0.002994 0.000221 0.000273
0.002996 0.000221 0.000248
0.002998 0.000222 0.000224
0.003 0.000222 0.000199
0.003 0.000224 0.000174
0.002991 0.000229 0.000148
0.002959 0.000246 0.000121
0.002414 0.000517 -0.000219
0.002416 0.000518 -0.000243
0.002421 0.000517 -0.000267
0.00243 0.000515 -0.000291
0.002443 0.000509 -0.000314
0.002465 0.000501 -0.000333
0.002679 0.000299 0.000979
0.002657 0.000311 0.000952
0.002631 0.000324 0.000924
0.002603 0.000339 0.000896
0.002571 0.000356 0.000867
0.002537 0.000373 0.000838
0.002497 0.000393 0.000808
0.002375 0.000455 0.000719
0.00236 0.000463 0.000692
0.002352 0.000469 0.000667
0.002348 0.000472 0.000642
0.002349 0.000472 0.000617
0.002354 0.000471 0.000593
0.002722 0.000658 0.001259
0.002776 0.000611 0.001094
0.00275 0.000602 0.001056
0.002614 0.000508 0.001292
0.002657 0.000339 0.000455
0.002721 0.00031 0.000438
0.002775 0.000286 0.00042
0.002824 0.000265 0.000401
0.002868 0.000246 0.000382
0.002912 0.000226 0.000362
0.002953 0.000209 0.000342
0.002981 0.000197 0.000321
0.00299 0.000194 0.000297
0.002994 0.000193 0.000273
0.002997 0.000194 0.000248
0.002998 0.000194 0.000224
0.003 0.000195 0.000199
0.002999 0.000197 0.000174
0.002991 0.000202 0.000148
0.002959 0.000218 0.000121
0.002415 0.00049 -0.000219
0.002416 0.000491 -0.000243
0.002421 0.00049 -0.000267
0.00243 0.000487 -0.000291
0.002443 0.000482 -0.000314
0.002462 0.000474 -0.000337
0.00268 0.000272 0.000979
0.002658 0.000283 0.000952
0.002631 0.000297 0.000924
0.002603 0.000312 0.000896
0.00257 0.000329 0.000867
0.002536 0.000346 0.000838
0.002499 0.000365 0.000809
0.002457 0.000386 0.000779
0.002411 0.000409 0.000748
0.002375 0.000428 0.000719
0.00236 0.000436 0.000692
0.002352 0.000442 0.000667
0.002348 0.000444 0.000642
0.00235 0.000445 0.000617
0.002354 0.000444 0.000593
0.002362 0.000442 0.000569
0.002561 0.000666 0.001297
0.002115 0.000749 0.001588
0.002607 0.000719 0.000459
0.002656 0.000313 0.000455
0.002722 0.000283 0.000439
0.002776 0.000259 0.00042
0.002825 0.000237 0.000401
0.002869 0.000218 0.000382
0.002912 0.000199 0.000362
0.002953 0.000182 0.000342
0.002979 0.000171 0.000321
0.002989 0.000167 0.000297
0.002994 0.000167 0.000273
0.002996 0.000167 0.000248
0.002998 0.000167 0.000224
0.002999 0.000168 0.000199
0.002997 0.00017 0.000174
0.002989 0.000176 0.000148
0.002959 0.000191 0.000121
0.002414 0.000463 -0.000219
0.002416 0.000464 -0.000243
0.002421 0.000463 -0.000267
0.00243 0.00046 -0.000291
0.002443 0.000455 -0.000314
0.002462 0.000447 -0.000337
0.002682 0.000245 0.000977
0.002657 0.000256 0.000952
0.00263 0.00027 0.000924
0.002602 0.000285 0.000896
0.00257 0.000302 0.000867
0.002538 0.000318 0.000838
0.002497 0.000338 0.000808
0.002458 0.000358 0.000779
0.002407 0.000384 0.000748
0.002375 0.0004 0.000719
0.002359 0.000409 0.000693
0.002351 0.000414 0.000667
0.002348 0.000417 0.000642
0.002349 0.000418 0.000617
0.002354 0.000417 0.000593
0.002362 0.000414 0.000569
0.002704 0.000608 0.001278
0.002043 0.000589 0.002063
0.002406 0.000743 0.000508
0.002013 0.000712 0.001437
0.002776 0.000232 0.00042
0.002824 0.00021 0.000401
0.002868 0.000191 0.000382
0.002913 0.000172 0.000362
0.002953 0.000154 0.000342
0.002977 0.000145 0.00032
0.002986 0.000142 0.000297
0.002991 0.000141 0.000272
0.002994 0.000141 0.000248
0.002996 0.000141 0.000223
0.002996 0.000142 0.000199
0.002995 0.000145 0.000174
0.002987 0.000149 0.000148
0.002958 0.000164 0.000121
0.002414 0.000436 -0.000219
0.002416 0.000436 -0.000243
0.002421 0.000436 -0.000267
0.00243 0.000433 -0.000291
0.002444 0.000428 -0.000313
0.002467 0.00042 -0.000329
0.002679 0.000217 0.000979
0.002658 0.000229 0.000952
0.002631 0.000243 0.000924
0.002602 0.000258 0.000895
0.002571 0.000274 0.000867
0.002537 0.000291 0.000838
0.002497 0.000311 0.000808
0.002457 0.000332 0.000779
0.00241 0.000355 0.000748
0.002375 0.000373 0.000719
0.002359 0.000382 0.000693
0.002351 0.000387 0.000667
0.002348 0.00039 0.000642
0.00235 0.000391 0.000617
0.002354 0.00039 0.000593
0.002362 0.000387 0.000569
0.002762 0.000599 0.001195
0.002561 0.000612 0.001297
0.002762 0.000517 0.001195
0.002024 0.000701 0.001469
0.00272 0.000514 0.001016
0.002776 0.000204 0.00042
0.002825 0.000183 0.000401
0.002869 0.000164 0.000382
0.002912 0.000145 0.000362
0.002952 0.000128 0.000342
0.002972 0.00012 0.00032
0.00298 0.000117 0.000296
0.002986 0.000116 0.000272
0.002989 0.000116 0.000247
0.002991 0.000116 0.000223
0.002991 0.000118 0.000198
0.00299 0.00012 0.000173
0.002983 0.000124 0.000147
0.002959 0.000137 0.000121
0.002414 0.000408 -0.000219
0.002416 0.000409 -0.000243
0.002421 0.000408 -0.000267
0.00243 0.000406 -0.000291
0.002444 0.000401 -0.000313
0.002679 0.000191 0.000979
0.002659 0.000201 0.000952
0.002631 0.000216 0.000924
0.002601 0.000231 0.000895
0.002572 0.000246 0.000867
0.002537 0.000264 0.000838
0.002499 0.000283 0.000809
0.002457 0.000304 0.000779
0.002376 0.000345 0.000719
0.00236 0.000354 0.000692
0.002352 0.00036 0.000667
0.002349 0.000363 0.000642
0.00235 0.000363 0.000617
0.002354 0.000362 0.000593
0.002742 0.000686 0.001213
0.002753 0.000598 0.001218
0.002614 0.00059 0.001293
0.002753 0.00049 0.001218
0.002686 0.000536 0.000975
0.002654 0.000232 0.000455
0.002825 0.000156 0.000401
0.002868 0.000137 0.000382
0.002912 0.000118 0.000362
0.002948 0.000102 0.000342
0.002965 9.6e-05 0.000319
0.002972 9.4e-05 0.000295
0.002977 9.3e-05 0.000271
0.002981 9.2e-05 0.000246
0.002984 9.3e-05 0.000222
0.002984 9.4e-05 0.000197
0.002982 9.6e-05 0.000172
0.002977 0.0001 0.000147
0.002957 0.000111 0.00012
0.002414 0.000381 -0.000219
0.002416 0.000382 -0.000243
0.002421 0.000381 -0.000267
0.002429 0.000379 -0.000291
0.002443 0.000373 -0.000314
0.002463 0.000365 -0.000337
0.002679 0.000163 0.000979
0.002659 0.000174 0.000952
0.002632 0.000188 0.000924
0.002601 0.000204 0.000895
0.00257 0.00022 0.000867
0.002538 0.000237 0.000838
0.002499 0.000256 0.000809
0.002458 0.000277 0.000779
0.002411 0.0003 0.000748
0.002376 0.000318 0.000719
0.00236 0.000327 0.000692
0.002352 0.000333 0.000666
0.002349 0.000335 0.000642
0.00235 0.000336 0.000617
0.002354 0.000335 0.000593
0.002737 0.000656 0.001238
0.00275 0.00063 0.001056
0.002663 0.00057 0.001287
0.00202 0.000741 0.00141
0.002275 0.000495 0.001953
0.002657 0.000203 0.000455
0.002722 0.000174 0.000438
0.002776 0.00015 0.00042
0.002824 0.000129 0.000401
0.002869 0.00011 0.000382
0.002911 9.1e-05 0.000362
0.002943 7.8e-05 0.000341
0.002955 7.3e-05 0.000318
0.002962 7.1e-05 0.000294
0.002967 7e-05 0.000269
0.002971 7e-05 0.000245
0.002973 7.1e-05 0.00022
0.002973 7.2e-05 0.000196
0.002972 7.4e-05 0.000171
0.002968 7.7e-05 0.000145
0.002953 8.5e-05 0.00012
0.002415 0.000354 -0.000219
0.002416 0.000355 -0.000243
0.002421 0.000354 -0.000267
0.00243 0.000351 -0.000291
0.002444 0.000346 -0.000314
0.002464 0.000337 -0.000337
0.002678 0.000137 0.000979
0.002659 0.000147 0.000952
0.002631 0.000161 0.000924
0.002602 0.000176 0.000895
0.00257 0.000193 0.000867
0.002536 0.00021 0.000838
0.0025 0.000228 0.000809
0.002459 0.000249 0.000779
0.00241 0.000274 0.000748
0.002376 0.000291 0.000719
0.002361 0.0003 0.000692
0.002352 0.000306 0.000666
0.002349 0.000308 0.000642
0.00235 0.000309 0.000617
0.002354 0.000308 0.000593
0.002749 0.000655 0.001216
0.002663 0.000597 0.001287
0.00273 0.000546 0.001262
0.00265 0.000702 0.00045
0.002658 0.000176 0.000455
0.002722 0.000147 0.000438
0.002777 0.000122 0.00042
0.002823 0.000102 0.000401
0.002868 8.3e-05 0.000382
0.002909 6.5e-05 0.000362
0.002932 5.6e-05 0.00034
0.002942 5.2e-05 0.000316
0.002948 5.1e-05 0.000292
0.002953 5e-05 0.000268
0.002956 5e-05 0.000243
0.002958 5e-05 0.000219
0.002959 5.1e-05 0.000194
0.002958 5.3e-05 0.000169
0.002955 5.6e-05 0.000144
0.002945 6.2e-05 0.000119
0.002415 0.000327 -0.000219
0.002416 0.000328 -0.000243
0.002421 0.000327 -0.000267
0.00243 0.000324 -0.000291
0.002444 0.000319 -0.000314
0.002464 0.00031 -0.000337
0.002681 0.000109 0.000976
0.002659 0.00012 0.000952
0.002631 0.000134 0.000924
0.002601 0.00015 0.000895
0.002569 0.000166 0.000867
0.002537 0.000183 0.000838
0.0025 0.000201 0.000809
0.002459 0.000222 0.000779
0.00241 0.000247 0.000748
0.002376 0.000264 0.000719
0.00236 0.000273 0.000692
0.002352 0.000279 0.000666
0.002348 0.000281 0.000641
0.00235 0.000282 0.000617
0.002354 0.000281 0.000593
0.002759 0.000655 0.001194
0.002561 0.000639 0.001297
0.002743 0.000544 0.00124
0.00256 0.000711 0.000466
0.002087 -2.6e-05 3.9e-05
0.002655 0.00015 0.000455
0.002723 0.00012 0.000438
0.002777 9.5e-05 0.00042
0.002823 7.5e-05 0.000401
0.002866 5.6e-05 0.000381
0.002899 4.2e-05 0.00036
0.002916 3.6e-05 0.000338
0.002925 3.3e-05 0.000314
0.00293 3.2e-05 0.00029
0.002935 3.1e-05 0.000265
0.002938 3.1e-05 0.000241
0.00294 3.2e-05 0.000216
0.002941 3.2e-05 0.000192
0.002941 3.4e-05 0.000167
0.002938 3.7e-05 0.000142
0.00293 4.2e-05 0.000117
0.002086 -2.7e-05 6.4e-05
0.002415 0.000299 -0.000219
0.002416 0.000301 -0.000243
0.002421 0.0003 -0.000267
0.00243 0.000297 -0.000291
0.002443 0.000292 -0.000314
0.002464 0.000283 -0.000337
0.002684 8.2e-05 0.000974
0.002658 9.3e-05 0.000952
0.002631 0.000107 0.000924
0.002602 0.000122 0.000895
0.002569 0.000139 0.000867
0.002536 0.000156 0.000838
0.0025 0.000174 0.000809
0.002459 0.000195 0.000779
0.002409 0.00022 0.000748
0.002376 0.000237 0.000719
0.00236 0.000246 0.000692
0.002352 0.000251 0.000666
0.002348 0.000254 0.000641
0.002349 0.000255 0.000617
0.002354 0.000254 0.000593
0.002779 0.000659 0.001122
0.002504 0.000663 0.001296
0.002706 0.000553 0.001278
0.002221 0.000598 0.002037
0.002656 0.000122 0.000455
0.002722 9.3e-05 0.000438
0.002776 6.9e-05 0.00042
0.002823 4.8e-05 0.000401
0.002858 3.3e-05 0.00038
0.002881 2.4e-05 0.000358
0.002894 1.9e-05 0.000335
0.002901 1.7e-05 0.000311
0.002907 1.6e-05 0.000287
0.002909 1.6e-05 0.000262
0.002913 1.6e-05 0.000238
0.002915 1.6e-05 0.000213
0.002916 1.7e-05 0.000189
0.002916 1.8e-05 0.000164
0.002915 2e-05 0.000139
0.002909 2.5e-05 0.000114
0.002085 -2.8e-05 8.8e-05
0.002415 0.000272 -0.000219
0.002416 0.000273 -0.000244
0.002421 0.000273 -0.000267
0.00243 0.00027 -0.000291
0.002444 0.000265 -0.000314
0.002464 0.000256 -0.000337
0.002613 0.000563 0.001292
0.002658 6.6e-05 0.000951
0.00263 8e-05 0.000924
0.002602 9.5e-05 0.000895
0.002568 0.000112 0.000866
0.002537 0.000128 0.000838
0.002499 0.000148 0.000808
0.002458 0.000168 0.000779
0.00241 0.000192 0.000748
0.002377 0.000209 0.000719
0.00236 0.000219 0.000692
0.002352 0.000224 0.000666
0.002348 0.000227 0.000641
0.002349 0.000228 0.000617
0.002354 0.000227 0.000593
0.002774 0.000667 0.001093
0.002705 0.00058 0.001278
0.002504 0.000636 0.001297
0.00272 0.000568 0.001016
0.002731 0.000464 0.001262
0.002658 9.4e-05 0.000455
0.002722 6.5e-05 0.000438
0.002772 4.3e-05 0.00042
0.002813 2.6e-05 0.0004
0.002836 1.6e-05 0.000378
0.002082 -2.8e-05 0.000113
0.002863 1e-05 0.000257
0.002867 1e-05 0.000232
0.002869 1.1e-05 0.000208
0.002871 1.1e-05 0.000183
0.002875 1.1e-05 0.000159
0.002876 1.1e-05 0.000134
0.002875 1.4e-05 0.00011
0.002415 0.000245 -0.000219
0.002416 0.000246 -0.000244
0.002421 0.000245 -0.000267
0.00243 0.000242 -0.000291
0.002444 0.000237 -0.000314
0.002464 0.000229 -0.000337
0.002752 0.000574 0.001057
0.002656 4e-05 0.00095
0.00263 5.3e-05 0.000923
0.0026 6.9e-05 0.000895
0.002569 8.5e-05 0.000866
0.002536 0.000102 0.000838
0.0025 0.00012 0.000809
0.002457 0.000141 0.000779
0.00241 0.000165 0.000748
0.002376 0.000182 0.000719
0.00236 0.000191 0.000692
0.002352 0.000197 0.000666
0.002348 0.0002 0.000641
0.002349 0.0002 0.000617
0.002354 0.000199 0.000592
0.002613 0.000699 0.001292
0.002686 0.000672 0.000975
0.002239 0.000545 0.001828
0.002772 0.000463 0.001173
0.002706 0.000472 0.001278
0.002657 6.7e-05 0.000455
0.00272 3.9e-05 0.000438
0.002762 2.1e-05 0.000418
0.002787 1e-05 0.000397
0.002796 8e-06 0.000373
0.002797 8e-06 0.000348
0.002081 -2.9e-05 0.000137
0.002804 8e-06 0.000299
0.002807 8e-06 0.000275
0.002809 9e-06 0.00025
0.002812 9e-06 0.000226
0.002814 9e-06 0.000201
0.002816 1e-05 0.000177
0.002415 0.000218 -0.000219
0.002416 0.000219 -0.000244
0.002421 0.000218 -0.000267
0.00243 0.000215 -0.000291
0.002444 0.00021 -0.000314
0.002464 0.000202 -0.000337
0.001852 0.000608 0.002001
0.002644 1.8e-05 0.00095
0.002625 2.8e-05 0.000923
0.0026 4.2e-05 0.000895
0.002568 5.8e-05 0.000866
0.002536 7.5e-05 0.000838
0.0025 9.3e-05 0.000809
0.002409 0.000138 0.000748
0.002376 0.000155 0.000719
0.00236 0.000164 0.000692
0.002352 0.00017 0.000666
0.002348 0.000173 0.000641
0.002349 0.000173 0.000617
0.002354 0.000172 0.000592
0.002775 0.000657 0.001147
0.002728 0.000601 0.001261
0.002763 0.000571 0.001195
0.00246 0.000725 0.000476
0.002707 1.8e-05 0.000437
0.002733 7e-06 0.000415
0.002739 6e-06 0.000391
0.002749 4e-06 0.000342
0.002754 5e-06 0.000293
0.002758 4e-06 0.000269
0.002761 4e-06 0.000244
0.002763 4e-06 0.00022
0.002767 5e-06 0.000196
0.002769 5e-06 0.000171
0.002415 0.000191 -0.000219
0.002416 0.000192 -0.000244
0.002421 0.000191 -0.000267
0.00243 0.000188 -0.000291
0.002444 0.000183 -0.000314
0.002463 0.000175 -0.000337
0.001518 0.000619 0.002342
0.00213 0.000682 0.001621
0.002606 1e-05 0.00092
0.002591 1.9e-05 0.000894
0.002568 3.1e-05 0.000866
0.002535 4.8e-05 0.000838
0.0025 6.5e-05 0.000809
0.002458 8.7e-05 0.000779
0.00241 0.000111 0.000748
0.002377 0.000127 0.000719
0.00236 0.000137 0.000692
0.002352 0.000143 0.000666
0.002348 0.000145 0.000641
0.00235 0.000146 0.000617
0.002354 0.000145 0.000592
0.002752 0.000685 0.001191
0.00275 0.000656 0.001056
0.002781 0.000572 0.00115
0.002197 0.000698 0.001729
0.002648 1.7e-05 0.000454
0.002673 7e-06 0.000432
0.002678 6e-06 0.000408
0.002677 8e-06 0.000383
0.002685 8e-06 0.00031
0.002689 8e-06 0.000285
0.002695 8e-06 0.000236
0.002699 7e-06 0.000212
0.002723 8e-06 1.7e-05
0.00271 1.8e-05 -6e-06
0.002415 0.000163 -0.000219
0.002416 0.000165 -0.000244
0.002421 0.000164 -0.000268
0.00243 0.000161 -0.000291
0.002444 0.000156 -0.000314
0.002463 0.000147 -0.000337
0.002787 0.000492 0.001125
0.00255 9e-06 0.000914
0.002553 9e-06 0.000889
0.002551 1.2e-05 0.000864
0.002533 2.2e-05 0.000837
0.0025 3.8e-05 0.000808
0.002457 6e-05 0.000779
0.002409 8.4e-05 0.000748
0.002376 0.000101 0.000719
0.00236 0.00011 0.000692
0.002351 0.000116 0.000666
0.002348 0.000118 0.000641
0.002349 0.000119 0.000617
0.002354 0.000118 0.000592
0.002361 0.000116 0.000568
0.002751 0.000683 0.001057
0.00272 0.000649 0.001016
0.002776 0.00053 0.001094
0.002504 0.000608 0.001298
0.002613 7e-06 0.00045
0.002617 6e-06 0.000426
0.002618 7e-06 0.000401
0.002621 7e-06 0.000376
0.002626 6e-06 0.000352
0.002629 6e-06 0.000328
0.002632 6e-06 0.000303
0.002633 7e-06 0.000279
0.002636 7e-06 0.000254
0.00265 7e-06 0.000132
0.002652 8e-06 0.000107
0.002667 8e-06 -1.5e-05
0.002415 0.000136 -0.000219
0.002416 0.000137 -0.000244
0.002421 0.000137 -0.000268
