-0.002904 0.000209 0.000319
-0.002864 0.000226 0.000338
-0.002822 0.000244 0.000357
-0.002773 0.000265 0.000374
-0.002721 0.000288 0.000391
-0.002663 0.000314 0.000407
-0.002597 0.000343 0.000422
-0.002355 0.000447 0.000535
-0.00235 0.000448 0.000559
-0.002346 0.000448 0.000583
-0.002347 0.000446 0.000608
-0.002352 0.000441 0.000634
-0.002363 0.000434 0.000661
-0.002384 0.000423 0.000689
-0.002424 0.000402 0.00072
-0.00248 0.000374 0.000753
-0.002524 0.000352 0.000785
-0.002564 0.000331 0.000816
-0.002597 0.000314 0.000846
-0.002629 0.000297 0.000876
-0.002659 0.000281 0.000905
-0.002685 0.000268 0.000934
-0.002709 0.000255 0.000961
-0.002735 0.000242 0.000989
-0.002642 0.000616 -7.8e-05
-0.002687 0.000623 -0.000507
-0.002816 0.000677 -2e-06
-0.002778 0.000694 -2.2e-05
-0.002727 0.00063 -0.000537
-0.002425 0.0007 -0.000347
-0.002409 0.000682 -0.00032
-0.002852 0.00058 1.8e-05
-0.002407 0.000696 -0.000929
-0.002996 0.000151 0.000134
-0.002999 0.000149 0.000159
-0.002999 0.000147 0.000184
-0.002997 0.000146 0.000209
-0.002994 0.000146 0.000233
-0.002987 0.000147 0.000257
-0.002972 0.000153 0.00028
-0.002942 0.000165 0.0003
-0.002903 0.000182 0.000319
-0.002864 0.000199 0.000338
-0.002821 0.000217 0.000356
-0.002773 0.000238 0.000374
-0.002722 0.000261 0.000391
-0.002663 0.000287 0.000407
-0.002597 0.000316 0.000422
-0.002355 0.00042 0.000535
-0.00235 0.000421 0.000559
-0.002346 0.000421 0.000583
-0.002347 0.000419 0.000608
-0.002351 0.000415 0.000634
-0.002363 0.000407 0.000661
-0.002385 0.000395 0.000689
-0.002426 0.000374 0.00072
-0.002479 0.000347 0.000753
-0.002524 0.000325 0.000785
-0.002562 0.000305 0.000816
-0.002598 0.000286 0.000846
-0.00263 0.00027 0.000876
-0.002658 0.000255 0.000905
-0.002684 0.000241 0.000934
-0.002709 0.000228 0.000961
-0.002735 0.000215 0.000989
-0.002799 0.000484 -0.000597
-0.002859 0.000535 -0.000654
-0.002898 0.000562 -0.000784
-0.002735 0.000712 -4.1e-05
-0.002918 0.00058 5.8e-05
-0.002465 0.000668 -0.000129
-0.002425 0.000673 -0.000347
-0.002948 0.000622 7.8e-05
-0.002993 0.000126 0.000134
-0.002996 0.000123 0.000159
-0.002996 0.000121 0.000184
-0.002994 0.00012 0.000208
-0.00299 0.000121 0.000233
-0.002984 0.000122 0.000257
-0.002971 0.000126 0.000279
-0.002941 0.000138 0.0003
-0.002904 0.000155 0.000319
-0.002864 0.000171 0.000338
-0.002822 0.00019 0.000357
-0.002772 0.000211 0.000374
-0.002722 0.000233 0.000391
-0.002664 0.000259 0.000407
-0.002596 0.000289 0.000422
-0.002356 0.000393 0.000535
-0.00235 0.000393 0.000559
-0.002347 0.000393 0.000584
-0.002347 0.000391 0.000608
-0.002352 0.000387 0.000634
-0.002363 0.00038 0.000661
-0.002384 0.000368 0.000689
-0.00248 0.00032 0.000753
-0.002524 0.000298 0.000785
-0.002563 0.000277 0.000816
-0.002597 0.000259 0.000846
-0.00263 0.000242 0.000876
-0.002658 0.000228 0.000905
-0.002684 0.000213 0.000934
-0.00271 0.0002 0.000962
-0.002734 0.000188 0.000989
-0.002764 0.000502 -0.000567
-0.002904 0.000507 -0.00076
-0.002777 0.000666 -2.2e-05
-0.002816 0.00065 -2e-06
-0.002978 0.000555 9.9e-05
-0.002897 0.000481 -0.000784
-0.002887 0.000511 3.7e-05
-0.002978 0.000528 9.9e-05
-0.002949 0.00054 7.8e-05
-0.002852 0.000634 1.8e-05
-0.002858 0.000657 -0.000853
-0.00299 9.8e-05 0.000158
-0.00299 9.7e-05 0.000183
-0.002989 9.6e-05 0.000207
-0.002985 9.6e-05 0.000232
-0.002979 9.7e-05 0.000256
-0.002968 0.000101 0.000279
-0.002941 0.000111 0.0003
-0.002904 0.000127 0.000319
-0.002864 0.000144 0.000338
-0.002821 0.000163 0.000356
-0.002773 0.000184 0.000374
-0.002723 0.000206 0.000391
-0.002663 0.000232 0.000407
-0.002356 0.000365 0.000535
-0.00235 0.000366 0.000559
-0.002347 0.000366 0.000584
-0.002348 0.000364 0.000609
-0.002352 0.00036 0.000634
-0.002363 0.000353 0.000661
-0.002384 0.000341 0.000689
-0.00248 0.000293 0.000753
-0.002524 0.00027 0.000785
-0.002563 0.00025 0.000816
-0.002599 0.000232 0.000846
-0.00263 0.000215 0.000876
-0.002659 0.0002 0.000905
-0.002684 0.000186 0.000934
-0.002709 0.000173 0.000962
-0.002734 0.00016 0.000989
-0.002757 0.000148 0.001017
-0.002518 0.000645 -0.000111
-0.002886 0.00052 -0.000683
-0.002898 0.000535 -0.000784
-0.001736 0.000713 -0.001881
-0.002898 0.000508 -0.000784
-0.002439 0.000651 -0.00015
-0.002853 0.000526 1.8e-05
-0.002815 0.000596 -2e-06
-0.002866 0.000626 -0.000854
-0.002878 0.000687 -0.000682
-0.002982 7.5e-05 0.000157
-0.002983 7.3e-05 0.000182
-0.002981 7.2e-05 0.000206
-0.002977 7.3e-05 0.000231
-0.002971 7.4e-05 0.000255
-0.002962 7.6e-05 0.000278
-0.002939 8.5e-05 0.0003
-0.002904 0.0001 0.000319
-0.002863 0.000118 0.000338
-0.00282 0.000136 0.000356
-0.002773 0.000157 0.000374
-0.002356 0.000338 0.000535
-0.00235 0.000339 0.000559
-0.002347 0.000339 0.000584
-0.002348 0.000337 0.000609
-0.002352 0.000333 0.000634
-0.002363 0.000326 0.000661
-0.002384 0.000314 0.000689
-0.002481 0.000265 0.000754
-0.002524 0.000243 0.000785
-0.002564 0.000223 0.000816
-0.0026 0.000204 0.000846
-0.00263 0.000188 0.000876
-0.002659 0.000173 0.000905
-0.002684 0.000159 0.000934
-0.002709 0.000146 0.000962
-0.002733 0.000133 0.00099
-0.002756 0.000121 0.001018
-0.002816 0.000514 -2e-06
-0.002909 0.000506 -0.000736
-0.002873 0.000688 -0.000786
-0.002918 0.000607 5.8e-05
-0.00244 0.000527 -0.001456
-0.00283 0.000495 -0.000626
-0.002466 0.000722 -0.000129
-0.00269 0.000704 -6e-05
-0.002897 0.000626 -0.00077
-0.00297 5.5e-05 0.00013
-0.002972 5.3e-05 0.000155
-0.002972 5.1e-05 0.00018
-0.00297 5e-05 0.000205
-0.002966 5e-05 0.000229
-0.00296 5.1e-05 0.000253
-0.002952 5.4e-05 0.000277
-0.002935 6e-05 0.000299
-0.002903 7.3e-05 0.000319
-0.002863 9e-05 0.000338
-0.002819 0.000109 0.000356
-0.002774 0.000129 0.000374
-0.002356 0.000311 0.000535
-0.00235 0.000312 0.000559
-0.002347 0.000312 0.000584
-0.002348 0.000309 0.000609
-0.002352 0.000306 0.000634
-0.002363 0.000298 0.000661
-0.002384 0.000287 0.000689
-0.002429 0.000264 0.000721
-0.002481 0.000238 0.000754
-0.002525 0.000216 0.000785
-0.002564 0.000196 0.000816
-0.0026 0.000177 0.000846
-0.00263 0.000161 0.000876
-0.002658 0.000146 0.000905
-0.002684 0.000132 0.000934
-0.002708 0.000119 0.000962
-0.002732 0.000106 0.000991
-0.002754 9.4e-05 0.001019
-0.002455 0.000657 -0.000376
-0.00264 0.000672 -7.8e-05
-0.002948 0.000595 7.8e-05
-0.002886 0.00062 3.8e-05
-0.002852 0.000607 1.8e-05
-0.002918 0.000498 5.7e-05
-0.002949 0.000485 7.7e-05
-0.002903 0.000592 -0.00071
-0.002885 0.000657 -0.000683
-0.002957 3.5e-05 0.000128
-0.002958 3.2e-05 0.000153
-0.002957 3.1e-05 0.000178
-0.002955 3e-05 0.000202
-0.002951 3e-05 0.000227
-0.002946 3.1e-05 0.000251
-0.002939 3.3e-05 0.000275
-0.002926 3.7e-05 0.000298
-0.0029 4.7e-05 0.000319
-0.002862 6.4e-05 0.000338
-0.002818 8.3e-05 0.000356
-0.002773 0.000102 0.000374
-0.002595 0.000181 0.000422
-0.002356 0.000284 0.000535
-0.00235 0.000285 0.000559
-0.002347 0.000285 0.000584
-0.002347 0.000283 0.000609
-0.002352 0.000278 0.000634
-0.002364 0.000271 0.000661
-0.002384 0.00026 0.000689
-0.00243 0.000237 0.000721
-0.002481 0.000211 0.000754
-0.002525 0.000188 0.000785
-0.002564 0.000168 0.000816
-0.002601 0.000149 0.000846
-0.00263 0.000134 0.000876
-0.002659 0.000119 0.000905
-0.002684 0.000105 0.000934
-0.002709 9.1e-05 0.000962
-0.002733 7.9e-05 0.000991
-0.002754 6.7e-05 0.001019
-0.002909 0.000452 -0.000736
-0.002462 0.000735 -0.000377
-0.002594 0.000724 -0.000445
-0.002642 0.0007 -0.000476
-0.002735 0.000657 -4.1e-05
-0.002424 0.000738 -0.000173
-0.00269 0.000623 -6e-05
-0.002687 0.000705 -0.000507
-0.002948 0.000676 7.8e-05
-0.002939 1.6e-05 0.000126
-0.002939 1.4e-05 0.00015
-0.002939 1.3e-05 0.000175
-0.002936 1.2e-05 0.0002
-0.002933 1.2e-05 0.000224
-0.002928 1.2e-05 0.000248
-0.002921 1.4e-05 0.000272
-0.00291 1.7e-05 0.000295
-0.002892 2.4e-05 0.000318
-0.00286 3.7e-05 0.000338
-0.002818 5.6e-05 0.000356
-0.002773 7.5e-05 0.000374
-0.002722 9.7e-05 0.000391
-0.002661 0.000125 0.000407
-0.002595 0.000154 0.000422
-0.002356 0.000257 0.000535
-0.00235 0.000257 0.000559
-0.002346 0.000257 0.000584
-0.002346 0.000256 0.000608
-0.002352 0.000251 0.000634
-0.002364 0.000244 0.000661
-0.002386 0.000232 0.000689
-0.002429 0.00021 0.000721
-0.002481 0.000184 0.000754
-0.002524 0.000161 0.000785
-0.002567 0.00014 0.000816
-0.002598 0.000123 0.000846
-0.00263 0.000107 0.000876
-0.002658 9.1e-05 0.000905
-0.002683 7.8e-05 0.000934
-0.002709 6.4e-05 0.000962
-0.002731 5.2e-05 0.000991
-0.00275 4.2e-05 0.001018
-0.002454 0.000712 -0.000376
-0.002798 0.000566 -0.000597
-0.002645 0.000724 -7.9e-05
-0.002687 0.000678 -0.000507
-0.002778 0.000639 -2.2e-05
-0.002905 0.000482 -0.00071
-0.002737 0.000602 -4.1e-05
-0.002847 0.000607 -0.000874
-0.002892 0.000624 -0.000794
-0.002915 1e-06 0.000122
-0.002913 -0.0 0.000146
-0.002912 -2e-06 0.000171
-0.002909 -2e-06 0.000196
-0.002905 -2e-06 0.00022
-0.002901 -2e-06 0.000244
-0.002896 -1e-06 0.000268
-0.002887 1e-06 0.000292
-0.002874 5e-06 0.000315
-0.002852 1.4e-05 0.000336
-0.002816 2.9e-05 0.000356
-0.002773 4.8e-05 0.000374
-0.002719 7.2e-05 0.000391
-0.002664 9.6e-05 0.000408
-0.002356 0.000229 0.000535
-0.00235 0.00023 0.000559
-0.002346 0.00023 0.000584
-0.002346 0.000229 0.000608
-0.002352 0.000224 0.000634
-0.002364 0.000217 0.000661
-0.002386 0.000204 0.00069
-0.002431 0.000182 0.000721
-0.002481 0.000156 0.000754
-0.002525 0.000134 0.000785
-0.002565 0.000113 0.000816
-0.002599 9.6e-05 0.000846
-0.002629 8e-05 0.000876
-0.002659 6.4e-05 0.000905
-0.002683 5.1e-05 0.000934
-0.002708 3.7e-05 0.000962
-0.002728 2.6e-05 0.00099
-0.00274 1.9e-05 0.001016
-0.002452 0.000665 -0.001704
-0.002765 0.000583 -0.000567
-0.002832 0.000603 -0.000626
-0.002765 0.000638 -0.000567
-0.002816 0.000623 -2e-06
-0.002404 0.000691 -0.00022
-0.002737 0.000575 -4.1e-05
-0.002685 0.000515 -0.000507
-0.002639 0.000539 -0.000476
-0.002877 -5e-06 6.6e-05
-0.002877 -7e-06 9.1e-05
-0.002873 -8e-06 0.000115
-0.002886 0.000702 3.8e-05
-0.002832 0.000684 -0.000626
-0.002862 -8e-06 0.000188
-0.00286 -9e-06 0.000213
-0.002855 -8e-06 0.000237
-0.002852 -8e-06 0.000262
-0.002848 -8e-06 0.000286
-0.002842 -7e-06 0.00031
-0.00283 -3e-06 0.000333
-0.002806 7e-06 0.000354
-0.002769 2.2e-05 0.000374
-0.00272 4.4e-05 0.000391
-0.002355 0.000202 0.000535
-0.00235 0.000203 0.000559
-0.002346 0.000203 0.000584
-0.002346 0.000202 0.000609
-0.002352 0.000197 0.000635
-0.002364 0.000189 0.000661
-0.002386 0.000177 0.00069
-0.002431 0.000155 0.000721
-0.00248 0.00013 0.000754
-0.002525 0.000107 0.000785
-0.002564 8.7e-05 0.000816
-0.0026 6.8e-05 0.000846
-0.002629 5.3e-05 0.000876
-0.002658 3.7e-05 0.000905
-0.002682 2.4e-05 0.000933
-0.002703 1.2e-05 0.00096
-0.002978 0.000419 9.9e-05
-0.002727 0.000603 -0.000537
-0.002799 0.00062 -0.000597
-0.002859 0.000589 -0.000655
-0.002996 0.000548 0.000122
-0.001852 0.000453 -0.002334
-0.00269 0.000596 -6e-05
-0.002824 -4e-06 9e-06
-0.002834 -1.1e-05 3.5e-05
-0.002835 -1.4e-05 6e-05
-0.002832 -1.4e-05 8.4e-05
-0.002829 -1.3e-05 0.000109
-0.002887 0.000538 3.7e-05
-0.002816 0.000568 -2e-06
-0.002778 0.000585 -2.2e-05
-0.002516 0.0007 -0.000111
-0.002816 -1.6e-05 0.000231
-0.002814 -1.7e-05 0.000256
-0.002805 -1.5e-05 0.000279
-0.002801 -1.5e-05 0.000304
-0.002792 -1.2e-05 0.000327
-0.00278 -8e-06 0.00035
-0.002757 1e-06 0.000372
-0.002718 1.8e-05 0.000391
-0.002664 4.1e-05 0.000408
-0.002356 0.000175 0.000535
-0.00235 0.000176 0.000559
-0.002346 0.000176 0.000584
-0.002346 0.000174 0.000609
-0.002352 0.00017 0.000635
-0.002364 0.000162 0.000661
-0.002386 0.00015 0.00069
-0.002429 0.000128 0.000721
-0.00248 0.000103 0.000754
-0.002525 7.9e-05 0.000785
-0.002565 5.9e-05 0.000816
-0.002599 4.1e-05 0.000846
-0.00263 2.5e-05 0.000875
-0.002655 1.1e-05 0.000904
-0.002673 1e-06 0.000931
-0.002682 -5e-06 0.000958
-0.002885 0.000493 -0.000683
-0.002736 0.00063 -4.1e-05
-0.002909 0.000533 -0.000736
-0.002848 0.000579 -0.000874
-0.002948 0.000567 7.8e-05
-0.002494 0.000674 -0.001561
-0.002891 0.000483 -0.000808
-0.002157 0.000693 -0.001721
-0.002779 -1.3e-05 2.7e-05
-0.002776 -1.3e-05 5.1e-05
-0.002772 -1.3e-05 7.5e-05
-0.002769 -1.3e-05 0.0001
-0.002477 0.000611 -0.000933
-0.002727 -1e-05 0.000343
-0.002722 -9e-06 0.000367
-0.002703 -2e-06 0.000389
-0.002662 1.5e-05 0.000407
-0.002355 0.000148 0.000535
-0.00235 0.000149 0.00056
-0.002346 0.000149 0.000584
-0.002346 0.000147 0.000609
-0.002352 0.000143 0.000635
-0.002364 0.000135 0.000661
-0.002387 0.000123 0.00069
-0.002428 0.000101 0.000721
-0.00248 7.5e-05 0.000754
-0.002526 5.2e-05 0.000785
-0.002564 3.2e-05 0.000816
-0.002601 1.3e-05 0.000843
-0.002643 -1.2e-05 0.000928
-0.00264 -1.2e-05 0.000952
-0.002637 -1.2e-05 0.000977
-0.002034 -3.4e-05 0.000587
-0.002409 0.000655 -0.00032
-0.00269 0.00065 -6e-05
-0.002872 0.000569 -0.000854
-0.002461 0.000674 -0.001493
-0.002641 0.000673 -0.000476
-0.002438 0.000718 -0.001456
-0.002038 -3.4e-05 0.000562
-0.002043 -3.5e-05 0.000538
-0.002709 -1e-05 6.6e-05
-0.002708 -1.1e-05 9e-05
-0.002704 -1.3e-05 0.000115
-0.002778 0.000503 -2.2e-05
-0.002465 0.000641 -0.000129
-0.002526 0.000595 -0.000411
-0.002885 0.000412 -0.000683
-0.002588 0.000564 -0.000444
-0.002899 0.000399 -0.000784
-0.00268 -1.2e-05 0.000286
-0.002675 -1.1e-05 0.00031
-0.002673 -1.2e-05 0.000334
-0.002669 -1.2e-05 0.000359
-0.002666 -1.2e-05 0.000383
-0.002648 -6e-06 0.000405
-0.002048 -3.5e-05 0.000514
-0.002355 0.000121 0.000535
-0.00235 0.000122 0.00056
-0.002346 0.000122 0.000584
-0.002346 0.00012 0.000609
-0.002352 0.000115 0.000635
-0.002364 0.000108 0.000661
-0.002386 9.6e-05 0.00069
-0.002429 7.4e-05 0.000721
-0.002481 4.8e-05 0.000754
-0.002527 2.4e-05 0.000786
-0.002562 6e-06 0.000816
-0.002584 -6e-06 0.000844
-0.002053 -3.6e-05 0.00049
-0.002579 -1e-05 0.000943
-0.002576 -1.1e-05 0.000967
-0.002057 -3.6e-05 0.000466
-0.002892 0.000428 -0.000808
-0.002478 0.000602 -0.001689
-0.002832 0.00063 -0.000626
-0.002799 0.000647 -0.000597
-0.002641 0.000699 -7.8e-05
-0.002858 0.000481 -0.000654
-0.002674 -1.2e-05 -6.4e-05
-0.00244 0.000732 -0.00015
-0.002904 0.00048 -0.00076
-0.002671 -1.6e-05 1e-05
-0.002668 -1.6e-05 3.5e-05
-0.002667 -1.7e-05 5.9e-05
-0.002665 -1.8e-05 8.4e-05
-0.002661 -1.8e-05 0.000108
-0.002659 -1.8e-05 0.000133
-0.002656 -1.9e-05 0.000157
-0.002651 -1.9e-05 0.000182
-0.002648 -1.9e-05 0.000206
-0.002902 0.00062 -0.00071
-0.002909 0.000425 -0.000736
-0.002637 -1.9e-05 0.000279
-0.002633 -1.9e-05 0.000303
-0.002629 -1.9e-05 0.000328
-0.002626 -1.9e-05 0.000352
-0.002622 -1.8e-05 0.000376
-0.002613 -1.6e-05 0.0004
-0.00259 -7e-06 0.000422
-0.002355 9.4e-05 0.000535
-0.00235 9.5e-05 0.00056
-0.002346 9.5e-05 0.000584
-0.002345 9.3e-05 0.000608
-0.002352 8.8e-05 0.000635
-0.002364 8.1e-05 0.000661
-0.002386 6.9e-05 0.00069
-0.002428 4.7e-05 0.000721
-0.002525 -2e-06 0.000785
-0.002543 -1.2e-05 0.000813
-0.002546 -1.5e-05 0.000838
-0.002539 -1.4e-05 0.000862
-0.002465 0.000695 -0.000129
-0.002891 0.00051 -0.000808
-0.00286 0.000616 -0.000655
-0.002976 0.000638 9.9e-05
-0.002736 0.000684 -4.1e-05
-0.002586 0.000619 -0.000444
-0.002604 -5e-06 -0.0001
-0.002627 -1.8e-05 -7.1e-05
-0.002626 -1.8e-05 -4.7e-05
-0.002891 0.000455 -0.000808
-0.002419 0.000624 -0.00142
-0.002615 -1.9e-05 2.7e-05
-0.002612 -1.9e-05 5.1e-05
-0.002606 -1.8e-05 7.5e-05
-0.002601 -1.7e-05 9.9e-05
-0.002598 -1.7e-05 0.000124
-0.002593 -1.7e-05 0.000148
-0.002589 -1.7e-05 0.000172
-0.002587 -1.7e-05 0.000197
-0.002583 -1.7e-05 0.000221
-0.002401 0.000744 -0.000245
-0.002569 -1.5e-05 0.000294
-0.002567 -1.6e-05 0.000318
-0.002564 -1.7e-05 0.000343
-0.002558 -1.6e-05 0.000367
-0.002556 -1.6e-05 0.000391
-0.00255 -1.5e-05 0.000415
-0.002355 6.7e-05 0.000535
-0.00235 6.7e-05 0.00056
-0.002347 6.7e-05 0.000584
-0.002346 6.6e-05 0.000608
-0.002351 6.1e-05 0.000635
-0.002363 5.4e-05 0.000661
-0.002386 4.2e-05 0.00069
-0.002429 2e-05 0.000721
-0.002497 -1.7e-05 0.000806
-0.002494 -1.8e-05 0.000831
-0.002492 -1.9e-05 0.000855
-0.002488 -1.8e-05 0.000879
-0.002402 0.000742 -0.00027
-0.00269 0.000677 -6e-05
-0.002887 0.000674 3.8e-05
-0.002765 0.000692 -0.000567
-0.0028 0.000674 -0.000597
-0.002858 0.000508 -0.000654
-0.002565 -1.4e-05 -0.000105
-0.002564 -1.5e-05 -8.1e-05
-0.00256 -1.5e-05 -5.6e-05
-0.002687 0.000596 -0.000507
-0.002548 -1.4e-05 1.7e-05
-0.002544 -1.4e-05 4.1e-05
-0.002533 0.00056 -0.000931
-0.002532 -1.3e-05 0.000114
-0.002528 -1.3e-05 0.000138
-0.002522 -1.2e-05 0.000162
-0.002519 -1.2e-05 0.000187
-0.002515 -1.3e-05 0.000211
-0.002909 0.000479 -0.000736
-0.002504 -1.2e-05 0.000284
-0.0025 -1.2e-05 0.000308
-0.002498 -1.3e-05 0.000333
-0.002493 -1.2e-05 0.000357
-0.002491 -1.3e-05 0.000382
-0.002062 -3.7e-05 0.000441
-0.002375 3.3e-05 0.000489
-0.002354 4e-05 0.000535
-0.002349 4e-05 0.00056
-0.002347 4e-05 0.000584
-0.002347 3.8e-05 0.000608
-0.002351 3.4e-05 0.000634
-0.002363 2.7e-05 0.000661
-0.002385 1.5e-05 0.000689
-0.00243 -1.5e-05 0.000821
-0.002427 -1.5e-05 0.000845
-0.002423 -1.5e-05 0.00087
-0.002414 -1.6e-05 0.000943
-0.002894 0.000596 -0.000796
-0.002989 0.000632 0.000123
-0.002852 0.000689 1.7e-05
-0.00287 0.000597 -0.000854
-0.002409 3.7e-05 -0.000203
-0.002852 0.000471 1.8e-05
-0.002513 -1.7e-05 -0.000113
-0.002505 -1.4e-05 -9e-05
-0.002494 -1.1e-05 -6.6e-05
-0.002492 -1.2e-05 -4.2e-05
-0.002489 -1.2e-05 -1.7e-05
-0.002484 -1.1e-05 7e-06
-0.0024 0.000664 -0.000244
-0.002422 0.000658 -0.000173
-0.002411 0.000662 -0.000196
-0.002404 0.000664 -0.00022
-0.002465 -1.1e-05 0.000129
-0.002463 -1.2e-05 0.000153
-0.002459 -1.2e-05 0.000177
-0.002456 -1.2e-05 0.000202
-0.00245 -1.1e-05 0.000226
-0.002448 -1.1e-05 0.000251
-0.002445 -1.2e-05 0.000275
-0.002441 -1.2e-05 0.000299
-0.002437 -1.1e-05 0.000324
-0.002434 -1.1e-05 0.000348
-0.002431 -1.2e-05 0.000373
-0.002066 -3.7e-05 0.000417
-0.002071 -3.8e-05 0.000393
-0.002074 -3.8e-05 0.000369
-0.002398 -3e-06 0.000467
-0.002377 5e-06 0.000489
-0.002354 1.3e-05 0.000535
-0.002349 1.3e-05 0.000559
-0.002346 1.3e-05 0.000584
-0.002347 1.1e-05 0.000609
-0.002352 7e-06 0.000635
-0.002367 -3e-06 0.000661
-0.002078 -3.8e-05 0.000344
-0.002082 -3.8e-05 0.00032
-0.002364 -1.1e-05 0.000811
-0.002362 -1.2e-05 0.000836
-0.002351 -1.2e-05 0.000909
-0.00235 -1.3e-05 0.000933
-0.002345 -1.3e-05 0.000958
-0.002402 2.2e-05 -0.000304
-0.002397 2.1e-05 -0.00028
-0.002831 0.000658 -0.000626
-0.002401 0.000691 -0.000245
-0.002407 1.1e-05 -0.000203
-0.002427 0.0 -0.000176
-0.002454 -1.6e-05 -0.000122
-0.002447 -1.4e-05 -9.8e-05
-0.002443 -1.4e-05 -7.4e-05
-0.002437 -1.3e-05 -5e-05
-0.002434 -1.3e-05 -2.6e-05
-0.002432 -1.4e-05 -1e-06
-0.002429 -1.4e-05 2.4e-05
-0.002429 -1.6e-05 4.8e-05
-0.002085 -3.7e-05 0.000295
-0.00288 0.000457 -0.000843
-0.002816 0.000541 -2e-06
-0.0024 -1.4e-05 0.000218
-0.002396 -1.4e-05 0.000243
-0.002391 -1.4e-05 0.000267
-0.002389 -1.4e-05 0.000292
-0.002386 -1.4e-05 0.000316
-0.00238 -1.3e-05 0.00034
-0.002377 -1.4e-05 0.000364
-0.002088 -3.7e-05 0.000271
-0.00235 -1.3e-05 0.000535
-0.002345 -1.2e-05 0.000559
-0.002344 -1.3e-05 0.000584
-0.002345 -1.6e-05 0.000609
-0.002345 -1.8e-05 0.000634
-0.002346 -1.7e-05 0.000659
-0.002305 -1.2e-05 0.000827
-0.0023 -1.2e-05 0.000851
-0.002296 -1.1e-05 0.000875
-0.002292 -1.1e-05 0.0009
-0.002287 -1.1e-05 0.000924
-0.002283 -1e-05 0.000948
-0.002279 -1e-05 0.000972
-0.0024 -5e-06 -0.000305
-0.002398 -6e-06 -0.00028
-0.002454 0.00063 -0.000376
-0.002425 0.000645 -0.000347
-0.002399 -1.5e-05 -0.000155
-0.002395 -1.5e-05 -0.000131
-0.002388 -1.5e-05 -8.2e-05
-0.002382 -1.4e-05 -5.8e-05
-0.002375 -1.3e-05 -3.4e-05
-0.002367 -1.2e-05 1.4e-05
-0.002364 -1.2e-05 3.9e-05
-0.00236 -1.2e-05 6.3e-05
-0.002354 -1.1e-05 8.7e-05
-0.002728 0.000575 -0.000537
-0.002799 0.000539 -0.000597
-0.002906 0.000401 -0.00071
-0.002508 0.000608 -0.001594
-0.002253 0.000626 -0.001211
-0.00232 -1.2e-05 0.000331
-0.002316 -1.2e-05 0.000355
-0.002092 -3.7e-05 0.000247
-0.002095 -3.7e-05 0.000222
-0.002098 -3.7e-05 0.000198
-0.002101 -3.7e-05 0.000173
-0.002253 -1.5e-05 0.000819
-0.002246 -1.3e-05 0.000843
-0.002241 -1.3e-05 0.000867
-0.002241 -1.4e-05 0.000892
-0.002239 -1.5e-05 0.000917
-0.002235 -1.5e-05 0.000941
-0.002363 -1.5e-05 -0.00031
-0.002359 -1.5e-05 -0.000286
-0.002885 0.000439 -0.000683
-0.002344 -1.3e-05 -0.000214
-0.002338 -1.2e-05 -0.000189
-0.002336 -1.3e-05 -0.000165
-0.00264 0.000593 -0.000476
-0.002454 0.000685 -0.000376
-0.002325 -1.3e-05 -9.2e-05
-0.002319 -1.2e-05 -6.8e-05
-0.002317 -1.2e-05 -4.3e-05
-0.002903 0.000589 -0.00076
-0.00231 -1.3e-05 6e-06
-0.002307 -1.3e-05 3e-05
-0.002303 -1.3e-05 5.4e-05
-0.0023 -1.2e-05 7.9e-05
-0.002401 0.000742 -0.000294
-0.002765 0.000556 -0.000567
-0.00283 0.000522 -0.000626
-0.002398 0.000663 -0.000269
-0.002104 -3.6e-05 0.000149
-0.002401 0.00066 -0.000294
-0.002823 0.0007 -0.000874
-0.002263 -1.2e-05 0.000322
-0.00223 -1.3e-05 0.000542
-0.002228 -1.3e-05 0.000566
-0.002204 -1.2e-05 0.000712
-0.0022 -1.2e-05 0.000736
-0.002192 -1.2e-05 0.000785
-0.002189 -1.2e-05 0.000809
-0.002186 -1.2e-05 0.000834
-0.002179 -1.1e-05 0.000858
-0.002178 -1.2e-05 0.000883
-0.002176 -1.2e-05 0.000907
-0.002108 -3.6e-05 0.000125
-0.002301 -1.3e-05 -0.00032
-0.002296 -1.2e-05 -0.000296
-0.002292 -1.2e-05 -0.000271
-0.00229 -1.3e-05 -0.000247
-0.002288 -1.4e-05 -0.000222
-0.00228 -1.2e-05 -0.000198
-0.002276 -1.2e-05 -0.000174
-0.002727 0.000521 -0.000537
-0.002882 0.000594 -0.000831
-0.002501 0.00066 -0.001618
-0.002978 0.000501 9.9e-05
-0.002898 0.00059 -0.000784
-0.0028 0.000701 -0.000597
-0.00249 0.000693 -0.001614
-0.002942 0.000706 8e-05
-0.002968 0.000697 0.000126
-0.002872 0.000653 -0.00083
-0.002726 0.000657 -0.000537
-0.00269 0.000569 -6e-05
-0.002642 0.000589 -7.8e-05
-0.002581 0.000617 -9.5e-05
-0.002439 0.000679 -0.00015
-0.002423 0.000685 -0.000174
-0.002208 -1.3e-05 0.000289
-0.002204 -1.3e-05 0.000313
-0.002174 -1.2e-05 0.000508
-0.002172 -1.2e-05 0.000533
-0.002167 -1.1e-05 0.000557
-0.002163 -1.1e-05 0.000581
-0.00216 -1.2e-05 0.000606
-0.002156 -1.2e-05 0.00063
-0.002153 -1.2e-05 0.000655
-0.002148 -1.1e-05 0.000679
-0.002145 -1.1e-05 0.000703
-0.002141 -1.2e-05 0.000728
-0.002138 -1.3e-05 0.000752
-0.002134 -1.1e-05 0.000776
-0.002128 -1e-05 0.0008
-0.002127 -1.2e-05 0.000825
-0.002119 -1.3e-05 0.000899
-0.002116 -1.3e-05 0.000923
-0.002114 -1.4e-05 0.000948
-0.002234 -1.2e-05 -0.00028
-0.00223 -1.2e-05 -0.000256
-0.002227 -1.2e-05 -0.000231
-0.002224 -1.3e-05 -0.000207
-0.002219 -1.3e-05 -0.000183
-0.002527 0.000622 -0.000411
-0.002906 0.000428 -0.00071
-0.002881 0.000694 -0.000736
-0.002887 0.000594 -0.000819
-0.002905 0.000425 -0.00076
-0.002511 0.000601 -0.001623
-0.002766 0.000719 -0.000567
-0.002196 -1.5e-05 1.3e-05
-0.002193 -1.5e-05 3.8e-05
-0.002191 -1.6e-05 6.2e-05
-0.002189 -1.6e-05 8.7e-05
-0.002186 -1.7e-05 0.000111
-0.002476 0.000638 -0.000933
-0.002179 -1.7e-05 0.00016
-0.002176 -1.7e-05 0.000185
-0.002173 -1.8e-05 0.000209
-0.002169 -1.8e-05 0.000233
-0.002166 -1.8e-05 0.000258
-0.002162 -1.8e-05 0.000282
-0.002158 -1.8e-05 0.000306
-0.002136 -1.8e-05 0.000453
-0.002132 -1.7e-05 0.000477
-0.002128 -1.7e-05 0.000501
-0.002124 -1.7e-05 0.000526
-0.00212 -1.7e-05 0.00055
-0.002116 -1.6e-05 0.000574
-0.00211 -1.5e-05 0.000598
-0.002105 -1.5e-05 0.000622
-0.002102 -1.5e-05 0.000647
-0.002096 -1.4e-05 0.000671
-0.002093 -1.4e-05 0.000695
-0.002088 -1.4e-05 0.000719
-0.002084 -1.4e-05 0.000744
-0.002079 -1.3e-05 0.000768
-0.002075 -1.3e-05 0.000792
-0.002066 -1.2e-05 0.000841
-0.002064 -1.2e-05 0.000865
-0.002059 -1.2e-05 0.000889
-0.002053 -1.1e-05 0.000914
-0.002517 0.000672 -0.000111
-0.002439 0.000706 -0.00015
-0.002401 0.000718 -0.000245
-0.002179 -1.6e-05 -0.000263
-0.002179 -1.7e-05 -0.000238
-0.002176 -1.7e-05 -0.000214
-0.002986 0.000663 0.000148
-0.002982 0.000663 0.000124
-0.002856 0.000686 -0.000832
-0.002873 0.000542 -0.000854
-0.002904 0.000452 -0.00076
-0.002468 0.000661 -0.001684
-0.002686 0.000732 -0.000507
-0.002728 0.000711 -0.000537
-0.002155 -2.3e-05 7e-06
-0.002153 -2.4e-05 3.2e-05
-0.002151 -2.4e-05 5.6e-05
-0.002147 -2.4e-05 8.1e-05
-0.002144 -2.5e-05 0.000105
-0.002142 -2.5e-05 0.00013
-0.002139 -2.5e-05 0.000154
-0.002135 -2.5e-05 0.000179
-0.002133 -2.6e-05 0.000203
-0.00213 -2.6e-05 0.000227
-0.002126 -2.6e-05 0.000252
-0.002123 -2.6e-05 0.000276
-0.00212 -2.7e-05 0.000301
-0.002115 -2.6e-05 0.000325
-0.002111 -2.6e-05 0.000349
-0.002108 -2.6e-05 0.000374
-0.002104 -2.6e-05 0.000398
-0.0021 -2.6e-05 0.000422
-0.002096 -2.6e-05 0.000447
-0.002092 -2.6e-05 0.000471
-0.002087 -2.5e-05 0.000495
-0.002083 -2.5e-05 0.000519
-0.002079 -2.5e-05 0.000544
-0.002074 -2.4e-05 0.000568
-0.00207 -2.4e-05 0.000592
-0.002065 -2.3e-05 0.000616
-0.00206 -2.3e-05 0.000641
-0.002054 -2.2e-05 0.000665
-0.002049 -2.1e-05 0.000689
-0.002045 -2.1e-05 0.000713
-0.00202 -1.7e-05 0.000834
-0.002014 -1.6e-05 0.000858
-0.002009 -1.5e-05 0.000882
-0.002003 -1.5e-05 0.000906
-0.002583 0.000643 -9.5e-05
-0.002424 0.000712 -0.000174
-0.002412 0.000716 -0.000197
-0.002728 0.000548 -0.000537
-0.002764 0.000529 -0.000567
-0.002687 0.000569 -0.000507
-0.002798 0.000512 -0.000597
-0.002905 0.000455 -0.00071
-0.002727 0.000494 -0.000537
-0.002493 0.000593 -0.001561
-0.002898 0.000454 -0.000784
-0.002401 0.000714 -0.000294
-0.002582 0.00073 -0.000926
-0.002918 0.000525 5.8e-05
-0.002847 0.00069 -0.000852
-0.002116 -3.3e-05 2.6e-05
-0.002114 -3.4e-05 5.1e-05
-0.002112 -3.5e-05 7.5e-05
-0.002109 -3.5e-05 0.0001
-0.001795 0.000674 -0.002028
-0.002441 0.00056 -0.001736
-0.002366 0.000716 -0.001343
-0.002893 0.00066 -0.000741
-0.002899 0.000372 -0.000784
-0.002905 0.00037 -0.00076
-0.00291 0.00037 -0.000736
-0.002905 0.000374 -0.00071
-0.002885 0.000385 -0.000683
-0.002858 0.000399 -0.000654
-0.002828 0.000415 -0.000625
-0.002798 0.00043 -0.000596
-0.002764 0.000448 -0.000567
-0.002727 0.000467 -0.000537
-0.002684 0.000488 -0.000507
-0.002638 0.000512 -0.000475
-0.002588 0.000537 -0.000444
-0.002451 0.000604 -0.000376
-0.002424 0.000619 -0.000347
-0.002408 0.000628 -0.00032
-0.0024 0.000633 -0.000294
-0.002398 0.000636 -0.000269
-0.0024 0.000637 -0.000244
-0.002404 0.000637 -0.00022
-0.002411 0.000635 -0.000196
-0.002422 0.000631 -0.000173
-0.002439 0.000624 -0.00015
-0.002465 0.000614 -0.000129
-0.002515 0.000592 -0.000111
-0.002583 0.000561 -9.5e-05
-0.002642 0.000535 -7.8e-05
-0.00269 0.000514 -6e-05
-0.002737 0.000494 -4.1e-05
-0.002777 0.000476 -2.2e-05
-0.002818 0.000459 -2e-06
-0.002852 0.000444 1.8e-05
-0.002885 0.00043 3.8e-05
-0.002918 0.000416 5.8e-05
-0.00295 0.000403 7.8e-05
-0.002978 0.000392 9.9e-05
-0.002195 0.000719 -0.000997
-0.002208 0.000717 -0.000976
-0.002761 0.000524 -0.000898
-0.002633 0.000655 -0.000922
-0.0029 0.000597 -0.000771
-0.002495 0.000646 -0.001562
-0.002898 0.000345 -0.000784
-0.002905 0.000343 -0.00076
-0.00291 0.000343 -0.000736
-0.002906 0.000346 -0.00071
-0.002886 0.000357 -0.000683
-0.002858 0.000372 -0.000654
-0.002829 0.000387 -0.000625
-0.002797 0.000403 -0.000596
-0.002765 0.00042 -0.000567
-0.002728 0.000439 -0.000537
-0.002684 0.000461 -0.000506
-0.002639 0.000484 -0.000476
-0.002587 0.00051 -0.000444
-0.002453 0.000576 -0.000376
-0.002424 0.000592 -0.000347
-0.002408 0.000601 -0.00032
-0.0024 0.000606 -0.000294
-0.002398 0.000609 -0.000269
-0.0024 0.000609 -0.000244
-0.002403 0.000609 -0.00022
-0.00241 0.000608 -0.000196
-0.002422 0.000603 -0.000173
-0.002439 0.000597 -0.00015
-0.002467 0.000586 -0.000129
-0.002516 0.000564 -0.000111
-0.002583 0.000534 -9.5e-05
-0.00264 0.000509 -7.8e-05
-0.00269 0.000487 -6e-05
-0.002736 0.000467 -4.1e-05
-0.002778 0.000449 -2.2e-05
-0.002816 0.000433 -2e-06
-0.002852 0.000417 1.8e-05
-0.002885 0.000403 3.8e-05
-0.002919 0.000389 5.8e-05
-0.002949 0.000376 7.8e-05
-0.002978 0.000365 9.9e-05
-0.002194 0.000746 -0.000996
-0.002186 0.000745 -0.00102
-0.002333 0.000656 -0.001301
-0.002478 0.000692 -0.000934
-0.00241 0.000721 -0.000931
-0.002677 0.000638 -0.000914
-0.00272 0.000648 -0.000907
-0.002479 0.00066 -0.001528
-0.002899 0.000317 -0.000784
-0.002905 0.000316 -0.00076
-0.002909 0.000316 -0.000736
-0.002905 0.000319 -0.00071
-0.002885 0.00033 -0.000683
-0.002858 0.000345 -0.000654
-0.00283 0.000359 -0.000626
-0.002797 0.000377 -0.000596
-0.002764 0.000393 -0.000567
-0.002728 0.000412 -0.000537
-0.002639 0.000457 -0.000475
-0.002588 0.000483 -0.000444
-0.002452 0.00055 -0.000376
-0.002423 0.000565 -0.000347
-0.002408 0.000574 -0.00032
-0.0024 0.000579 -0.000294
-0.002398 0.000582 -0.000269
-0.002399 0.000582 -0.000244
-0.002403 0.000582 -0.00022
-0.002411 0.00058 -0.000196
-0.002423 0.000576 -0.000173
-0.00244 0.00057 -0.00015
-0.002467 0.000558 -0.000129
-0.002517 0.000536 -0.000111
-0.002583 0.000507 -9.5e-05
-0.00264 0.000482 -7.8e-05
-0.002689 0.00046 -6e-05
-0.002736 0.00044 -4.1e-05
-0.002778 0.000422 -2.2e-05
-0.002816 0.000405 -2e-06
-0.002852 0.00039 1.8e-05
-0.002886 0.000376 3.8e-05
-0.002918 0.000362 5.8e-05
-0.002949 0.000349 7.8e-05
-0.002978 0.000338 9.9e-05
-0.002458 0.000506 -0.001718
-0.00218 0.000743 -0.001044
-0.002365 0.000635 -0.001342
-0.002438 0.000617 -0.001734
-0.002508 0.00058 -0.001594
-0.00244 0.000663 -0.001456
-0.002507 0.000635 -0.001594
-0.002899 0.00029 -0.000784
-0.002905 0.000289 -0.00076
-0.00291 0.000288 -0.000736
-0.002905 0.000292 -0.00071
-0.002885 0.000303 -0.000683
-0.002858 0.000318 -0.000654
-0.00283 0.000332 -0.000625
-0.002797 0.000349 -0.000596
-0.002764 0.000366 -0.000567
-0.002727 0.000385 -0.000537
-0.002686 0.000406 -0.000507
-0.002638 0.00043 -0.000475
-0.002589 0.000455 -0.000444
-0.002451 0.000523 -0.000376
-0.002423 0.000538 -0.000347
-0.002407 0.000547 -0.00032
-0.0024 0.000552 -0.000294
-0.002398 0.000554 -0.000269
-0.002399 0.000555 -0.000244
-0.002403 0.000555 -0.00022
-0.002411 0.000553 -0.000196
-0.002423 0.000549 -0.000173
-0.00244 0.000542 -0.00015
-0.002468 0.000531 -0.000129
-0.002584 0.000479 -9.5e-05
-0.002641 0.000454 -7.8e-05
-0.002691 0.000432 -6e-05
-0.002736 0.000413 -4.1e-05
-0.002779 0.000394 -2.2e-05
-0.002817 0.000378 -2e-06
-0.002852 0.000363 1.8e-05
-0.002886 0.000348 3.8e-05
-0.002918 0.000335 5.9e-05
-0.00295 0.000322 7.8e-05
-0.002978 0.00031 9.9e-05
-0.002298 0.000581 -0.001744
-0.002888 0.000485 -0.000819
-0.002274 0.000753 -0.000924
-0.001819 0.000667 -0.002113
-0.002464 0.000577 -0.001709
-0.002494 0.00062 -0.001561
-0.002508 0.00063 -0.001621
-0.002503 0.000664 -0.001592
-0.002905 0.000262 -0.00076
-0.002909 0.000261 -0.000736
-0.002905 0.000265 -0.00071
-0.002886 0.000276 -0.000682
-0.002858 0.00029 -0.000654
-0.00283 0.000305 -0.000625
-0.002796 0.000323 -0.000596
-0.002764 0.000339 -0.000567
-0.002728 0.000358 -0.000537
-0.002685 0.000379 -0.000507
-0.002639 0.000403 -0.000475
-0.002588 0.000428 -0.000444
-0.00245 0.000496 -0.000375
-0.002423 0.00051 -0.000347
-0.002407 0.000519 -0.00032
-0.0024 0.000525 -0.000294
-0.002398 0.000527 -0.000269
-0.002399 0.000528 -0.000244
-0.002403 0.000528 -0.00022
-0.002411 0.000526 -0.000196
-0.002422 0.000522 -0.000173
-0.002439 0.000515 -0.00015
-0.002467 0.000504 -0.000129
-0.002584 0.000452 -9.5e-05
-0.002641 0.000427 -7.8e-05
-0.002691 0.000405 -6e-05
-0.002737 0.000385 -4.1e-05
-0.002778 0.000367 -2.2e-05
-0.002816 0.000351 -2e-06
-0.002852 0.000336 1.8e-05
-0.002886 0.000321 3.8e-05
-0.002918 0.000308 5.9e-05
-0.002949 0.000295 7.9e-05
-0.002978 0.000283 9.9e-05
-0.002585 0.000566 -0.000928
-0.002533 0.000587 -0.000931
-0.002633 0.000628 -0.000922
-0.002835 0.000578 -0.000879
-0.002479 0.000575 -0.001689
-0.002446 0.000608 -0.001728
-0.002442 0.000637 -0.001726
-0.002905 0.000235 -0.00076
-0.002909 0.000234 -0.000736
-0.002905 0.000238 -0.00071
-0.002885 0.000249 -0.000682
-0.002858 0.000263 -0.000654
-0.00283 0.000278 -0.000626
-0.002795 0.000296 -0.000596
-0.002765 0.000312 -0.000567
-0.002727 0.000331 -0.000537
-0.002685 0.000352 -0.000507
-0.002638 0.000376 -0.000475
-0.002588 0.000401 -0.000444
-0.00245 0.000469 -0.000375
-0.002422 0.000484 -0.000347
-0.002407 0.000493 -0.00032
-0.002399 0.000498 -0.000294
-0.002397 0.0005 -0.000269
-0.002399 0.000501 -0.000244
-0.002404 0.000501 -0.00022
-0.002411 0.000499 -0.000196
-0.002423 0.000494 -0.000173
-0.00244 0.000488 -0.00015
-0.002467 0.000477 -0.000129
-0.002584 0.000425 -9.5e-05
-0.002641 0.0004 -7.8e-05
-0.002691 0.000378 -6e-05
-0.002737 0.000358 -4.1e-05
-0.002777 0.00034 -2.2e-05
-0.002816 0.000324 -2e-06
-0.002851 0.000309 1.8e-05
-0.002887 0.000294 3.8e-05
-0.002918 0.000281 5.9e-05
-0.002948 0.000268 7.9e-05
-0.002978 0.000256 9.9e-05
-0.002407 0.000641 -0.000929
-0.002298 0.00069 -0.001744
-0.002584 0.000675 -0.000927
-0.002513 0.000573 -0.001623
-0.002419 0.000678 -0.00142
-0.002488 0.000629 -0.001666
-0.002905 0.000208 -0.00076
-0.002909 0.000208 -0.000736
-0.002904 0.000211 -0.00071
-0.002885 0.000222 -0.000682
-0.002858 0.000236 -0.000654
-0.00283 0.000251 -0.000625
-0.002798 0.000267 -0.000596
-0.002765 0.000284 -0.000567
-0.002728 0.000304 -0.000537
-0.002685 0.000325 -0.000506
-0.002639 0.000348 -0.000475
-0.002589 0.000374 -0.000444
-0.002452 0.000441 -0.000376
-0.002422 0.000457 -0.000347
-0.002407 0.000465 -0.00032
-0.0024 0.00047 -0.000294
-0.002397 0.000473 -0.000269
-0.002399 0.000474 -0.000244
-0.002403 0.000474 -0.00022
-0.002411 0.000471 -0.000196
-0.002423 0.000467 -0.000173
-0.002439 0.000461 -0.00015
-0.002468 0.000449 -0.000129
-0.002583 0.000398 -9.5e-05
-0.002641 0.000373 -7.8e-05
-0.002691 0.000351 -6e-05
-0.002736 0.000331 -4.1e-05
-0.002778 0.000313 -2.2e-05
-0.002817 0.000296 -2e-06
-0.002852 0.000281 1.8e-05
-0.002886 0.000267 3.8e-05
-0.002918 0.000253 5.9e-05
-0.002948 0.000241 7.9e-05
-0.002978 0.000229 9.9e-05
-0.002332 0.000674 -0.000923
-0.001734 0.000659 -0.001879
-0.002493 0.000566 -0.001561
-0.002895 0.000568 -0.000796
-0.002492 0.000573 -0.001668
-0.002393 0.000697 -0.001381
-0.002474 0.000631 -0.001687
-0.002904 0.000181 -0.00076
-0.002908 0.000181 -0.000735
-0.002904 0.000184 -0.00071
-0.002885 0.000195 -0.000682
-0.002858 0.000209 -0.000654
-0.002829 0.000224 -0.000625
-0.002798 0.00024 -0.000596
-0.002766 0.000257 -0.000567
-0.002726 0.000277 -0.000537
-0.002686 0.000298 -0.000507
-0.002639 0.000321 -0.000475
-0.002588 0.000347 -0.000444
-0.002451 0.000414 -0.000375
-0.002422 0.00043 -0.000347
-0.002407 0.000438 -0.00032
-0.0024 0.000443 -0.000294
-0.002398 0.000446 -0.000269
-0.002399 0.000446 -0.000244
-0.002403 0.000446 -0.00022
-0.002411 0.000444 -0.000196
-0.002423 0.00044 -0.000173
-0.00244 0.000434 -0.00015
-0.002468 0.000422 -0.000129
-0.002583 0.000371 -9.5e-05
-0.002641 0.000346 -7.8e-05
-0.002691 0.000323 -6e-05
-0.002737 0.000303 -4.1e-05
-0.002778 0.000286 -2.2e-05
-0.002817 0.000269 -2e-06
-0.002852 0.000254 1.8e-05
-0.002886 0.00024 3.8e-05
-0.002919 0.000226 5.9e-05
-0.002949 0.000213 7.9e-05
-0.002978 0.000202 9.9e-05
-0.002996 0.000195 0.000123
-0.002208 0.00069 -0.000976
-0.002677 0.000611 -0.000914
-0.002493 0.000545 -0.001668
-0.002505 0.000572 -0.001647
-0.00276 0.000633 -0.000899
-0.002797 0.000647 -0.000889
-0.002719 0.000703 -0.000907
-0.002903 0.000154 -0.00076
-0.002906 0.000154 -0.000735
-0.002902 0.000158 -0.00071
-0.002884 0.000168 -0.000682
-0.002858 0.000182 -0.000654
-0.002829 0.000197 -0.000625
-0.002798 0.000213 -0.000596
-0.002765 0.00023 -0.000567
-0.002726 0.00025 -0.000537
-0.002638 0.000294 -0.000475
-0.002587 0.00032 -0.000443
-0.00245 0.000388 -0.000375
-0.002422 0.000402 -0.000347
-0.002407 0.000411 -0.00032
-0.0024 0.000416 -0.000294
-0.002398 0.000419 -0.000269
-0.002399 0.000419 -0.000244
-0.002403 0.000419 -0.00022
-0.002411 0.000417 -0.000196
-0.002423 0.000413 -0.000173
-0.00244 0.000406 -0.00015
-0.002468 0.000395 -0.000129
-0.002517 0.000373 -0.000111
-0.002583 0.000344 -9.5e-05
-0.002641 0.000318 -7.8e-05
-0.002692 0.000296 -6e-05
-0.002739 0.000276 -4.1e-05
-0.002779 0.000258 -2.2e-05
-0.002817 0.000242 -2e-06
-0.002853 0.000227 1.8e-05
-0.002886 0.000213 3.8e-05
-0.002919 0.000199 5.9e-05
-0.002949 0.000186 7.9e-05
-0.002978 0.000174 0.0001
-0.002995 0.000168 0.000123
-0.002184 0.000692 -0.001019
-0.002195 0.000691 -0.000997
-0.002412 0.00065 -0.001745
-0.002418 0.000652 -0.00142
-0.002798 0.000619 -0.00089
-0.002834 0.000633 -0.000879
-0.002797 0.000674 -0.000888
-0.002895 0.000129 -0.000783
-0.0029 0.000128 -0.000759
-0.002903 0.000128 -0.000735
-0.002901 0.000131 -0.000709
-0.002884 0.000141 -0.000682
-0.002859 0.000154 -0.000654
-0.002829 0.00017 -0.000625
-0.002798 0.000186 -0.000596
-0.002765 0.000203 -0.000567
-0.002727 0.000223 -0.000537
-0.002686 0.000243 -0.000506
-0.002638 0.000267 -0.000475
-0.002586 0.000293 -0.000443
-0.002451 0.00036 -0.000375
-0.002422 0.000375 -0.000347
-0.002408 0.000383 -0.00032
-0.0024 0.000389 -0.000294
-0.002398 0.000391 -0.000269
-0.002399 0.000392 -0.000244
-0.002403 0.000392 -0.00022
-0.002411 0.00039 -0.000196
-0.002423 0.000386 -0.000173
-0.00244 0.000379 -0.00015
-0.002468 0.000368 -0.000129
-0.002516 0.000347 -0.000111
-0.002583 0.000317 -9.5e-05
-0.002642 0.000291 -7.8e-05
-0.002692 0.000269 -6e-05
-0.002739 0.000248 -4.1e-05
-0.002778 0.000232 -2.2e-05
-0.002817 0.000215 -2e-06
-0.002852 0.0002 1.8e-05
-0.002886 0.000185 3.8e-05
-0.002919 0.000171 5.9e-05
-0.002948 0.000159 7.9e-05
-0.002977 0.000147 0.0001
-0.002993 0.000142 0.000123
-0.002203 0.000683 -0.001162
-0.002299 0.000624 -0.001259
-0.002514 0.000518 -0.001624
-0.002479 0.000547 -0.001689
-0.002441 0.000635 -0.001457
-0.001844 0.000651 -0.002229
-0.002633 0.000682 -0.000922
-0.002893 0.000665 -0.000715
-0.002891 0.000104 -0.000783
-0.002896 0.000103 -0.000759
-0.002899 0.000103 -0.000734
-0.002897 0.000106 -0.000709
-0.002884 0.000114 -0.000682
-0.002858 0.000127 -0.000654
-0.002829 0.000143 -0.000625
-0.002797 0.000159 -0.000596
-0.002765 0.000176 -0.000567
-0.002728 0.000195 -0.000537
-0.002686 0.000216 -0.000506
-0.002638 0.00024 -0.000475
-0.002587 0.000266 -0.000443
-0.002449 0.000334 -0.000375
-0.002423 0.000348 -0.000347
-0.002407 0.000356 -0.00032
-0.0024 0.000361 -0.000294
-0.002397 0.000364 -0.000269
-0.0024 0.000365 -0.000244
-0.002404 0.000365 -0.00022
-0.002411 0.000362 -0.000196
-0.002423 0.000358 -0.000173
-0.00244 0.000352 -0.00015
-0.002468 0.000341 -0.000129
-0.002516 0.000319 -0.000111
-0.002642 0.000264 -7.8e-05
-0.002692 0.000242 -6e-05
-0.002739 0.000221 -4.1e-05
-0.002778 0.000204 -2.2e-05
-0.002817 0.000188 -2e-06
-0.002853 0.000172 1.8e-05
-0.002886 0.000158 3.8e-05
-0.002918 0.000145 5.9e-05
-0.002948 0.000132 8e-05
-0.002976 0.000121 0.0001
-0.002989 0.000116 0.000124
-0.002994 0.000116 0.000148
-0.002478 0.00047 -0.001527
-0.002332 0.000602 -0.001301
-0.002506 0.000517 -0.001647
-0.002887 0.000567 -0.000819
-0.002798 0.000592 -0.000889
-0.002533 0.000696 -0.000932
-0.002835 0.000605 -0.000879
-0.002459 0.000634 -0.001707
-0.002884 8e-05 -0.000782
-0.002889 7.9e-05 -0.000758
-0.002892 8e-05 -0.000733
-0.002891 8.1e-05 -0.000708
-0.002881 8.7e-05 -0.000682
-0.002858 0.0001 -0.000654
-0.00283 0.000115 -0.000625
-0.002796 0.000132 -0.000596
-0.002764 0.000149 -0.000567
-0.002729 0.000167 -0.000537
-0.002686 0.000189 -0.000506
-0.002636 0.000214 -0.000475
-0.002586 0.000239 -0.000443
-0.002451 0.000306 -0.000375
-0.002423 0.00032 -0.000347
-0.002408 0.000329 -0.00032
-0.0024 0.000334 -0.000294
-0.002397 0.000337 -0.000269
-0.002399 0.000338 -0.000244
-0.002404 0.000337 -0.00022
-0.002411 0.000335 -0.000196
-0.002423 0.000331 -0.000173
-0.00244 0.000325 -0.00015
-0.002468 0.000313 -0.000129
-0.002518 0.000291 -0.000111
-0.002585 0.000262 -9.5e-05
-0.002641 0.000237 -7.8e-05
-0.002692 0.000214 -6e-05
-0.002738 0.000194 -4.1e-05
-0.002778 0.000177 -2.2e-05
-0.002817 0.00016 -2e-06
-0.002852 0.000145 1.8e-05
-0.002886 0.000131 3.8e-05
-0.002919 0.000117 5.9e-05
-0.002948 0.000105 7.9e-05
-0.002973 9.5e-05 0.000101
-0.002983 9.2e-05 0.000124
-0.002987 9.1e-05 0.000149
-0.002514 0.000436 -0.001624
-0.002393 0.000534 -0.001381
-0.001807 0.000711 -0.002071
-0.002459 0.000512 -0.001492
-0.002365 0.000608 -0.001342
-0.00244 0.000554 -0.001456
-0.00272 0.000621 -0.000907
-0.002159 0.000529 -0.001722
-0.002419 0.000706 -0.00142
-0.002874 5.8e-05 -0.00078
-0.002879 5.7e-05 -0.000756
-0.002882 5.7e-05 -0.000732
-0.002882 5.8e-05 -0.000707
-0.002877 6.2e-05 -0.000681
-0.002858 7.3e-05 -0.000654
-0.002829 8.8e-05 -0.000625
-0.002795 0.000106 -0.000596
-0.002764 0.000122 -0.000567
-0.002729 0.00014 -0.000537
-0.002685 0.000162 -0.000506
-0.002636 0.000187 -0.000475
-0.002585 0.000212 -0.000443
-0.002452 0.000278 -0.000375
-0.002423 0.000293 -0.000347
-0.002408 0.000302 -0.00032
-0.0024 0.000307 -0.000294
-0.002397 0.00031 -0.000269
-0.0024 0.000311 -0.000244
-0.002404 0.00031 -0.00022
-0.002411 0.000308 -0.000196
-0.002422 0.000304 -0.000173
-0.00244 0.000298 -0.00015
-0.002469 0.000286 -0.000129
-0.002518 0.000264 -0.000111
-0.002584 0.000235 -9.5e-05
-0.00264 0.00021 -7.8e-05
-0.002693 0.000187 -6e-05
-0.00274 0.000166 -4.1e-05
-0.002779 0.000149 -2.2e-05
-0.002817 0.000133 -2e-06
-0.002853 0.000118 1.8e-05
-0.002886 0.000104 3.8e-05
-0.002918 9e-05 5.9e-05
-0.002948 7.8e-05 7.9e-05
-0.002968 7e-05 0.000102
-0.002975 6.8e-05 0.000126
-0.002835 0.000469 -0.000878
-0.002798 0.000483 -0.000888
-0.00234 0.000593 -0.001747
-0.002506 0.000435 -0.001647
-0.00276 0.000606 -0.000898
-0.002676 0.000665 -0.000914
-0.002441 0.000689 -0.001457
-0.00286 3.7e-05 -0.000779
-0.002865 3.6e-05 -0.000754
-0.002868 3.6e-05 -0.00073
-0.00287 3.7e-05 -0.000705
-0.002867 4e-05 -0.00068
-0.002855 4.7e-05 -0.000654
-0.002829 6.1e-05 -0.000625
-0.002795 7.9e-05 -0.000596
-0.002763 9.5e-05 -0.000567
-0.002729 0.000113 -0.000537
-0.002685 0.000135 -0.000506
-0.002636 0.000159 -0.000475
-0.002585 0.000185 -0.000443
-0.002451 0.000251 -0.000375
-0.002423 0.000266 -0.000347
-0.002408 0.000275 -0.00032
-0.0024 0.00028 -0.000294
-0.002397 0.000283 -0.000269
-0.0024 0.000283 -0.000244
-0.002404 0.000283 -0.00022
-0.002411 0.000281 -0.000196
-0.002422 0.000277 -0.000173
-0.00244 0.000271 -0.00015
-0.002469 0.000259 -0.000129
-0.002585 0.000207 -9.5e-05
-0.002639 0.000183 -7.8e-05
-0.002693 0.00016 -6e-05
-0.00274 0.000139 -4.1e-05
-0.002779 0.000122 -2.2e-05
-0.002818 0.000105 -2e-06
-0.002852 9.1e-05 1.8e-05
-0.002886 7.6e-05 3.8e-05
-0.002918 6.3e-05 5.9e-05
-0.002945 5.2e-05 8e-05
-0.002958 4.7e-05 0.000103
-0.002964 4.6e-05 0.000127
-0.001846 0.000503 -0.002264
-0.002761 0.000497 -0.000898
-0.002172 0.000709 -0.001095
-0.00218 0.0007 -0.001125
-0.002476 0.00072 -0.000933
-0.002342 0.000733 -0.001305
-0.002885 0.000655 -0.000791
-0.002481 0.00066 -0.001663
-0.002848 1.7e-05 -0.000752
-0.002851 1.7e-05 -0.000728
-0.002853 1.8e-05 -0.000703
-0.002852 2e-05 -0.000678
-0.002845 2.5e-05 -0.000652
-0.002827 3.5e-05 -0.000625
-0.002795 5.1e-05 -0.000596
-0.002762 6.8e-05 -0.000566
-0.002729 8.6e-05 -0.000537
-0.002686 0.000107 -0.000506
-0.002637 0.000132 -0.000475
-0.002585 0.000158 -0.000443
-0.00245 0.000225 -0.000375
-0.002422 0.000239 -0.000347
-0.002408 0.000247 -0.00032
-0.0024 0.000253 -0.000294
-0.002397 0.000256 -0.000269
-0.0024 0.000256 -0.000244
-0.002404 0.000256 -0.00022
-0.002411 0.000254 -0.000196
-0.002422 0.00025 -0.000172
-0.00244 0.000243 -0.00015
-0.002469 0.000231 -0.000129
-0.002694 0.000132 -6e-05
-0.002739 0.000112 -4.1e-05
-0.00278 9.5e-05 -2.2e-05
-0.002817 7.9e-05 -2e-06
-0.002852 6.4e-05 1.8e-05
-0.002885 5e-05 3.8e-05
-0.002916 3.7e-05 5.9e-05
-0.002935 3e-05 8.1e-05
-0.002945 2.6e-05 0.000105
-0.002493 0.000511 -0.001561
-0.002508 0.000499 -0.001594
-0.002334 0.000728 -0.000924
-0.00246 0.00062 -0.001492
-0.002491 0.0006 -0.001668
-0.00289 0.000657 -0.000767
-0.00234 0.000457 -0.001747
-0.002881 0.000699 -0.000709
-0.002832 0.000662 -0.000877
-0.002877 0.000654 -0.000815
-0.00185 0.000682 -0.002252
-0.00283 3e-06 -0.000675
-0.002827 6e-06 -0.00065
-0.002816 1.3e-05 -0.000623
-0.002792 2.5e-05 -0.000595
-0.002762 4.1e-05 -0.000566
-0.002728 5.9e-05 -0.000537
-0.002686 8e-05 -0.000506
-0.002636 0.000105 -0.000475
-0.002582 0.000132 -0.000443
-0.00245 0.000197 -0.000375
-0.002422 0.000212 -0.000346
-0.002407 0.000221 -0.00032
-0.0024 0.000226 -0.000294
-0.002398 0.000228 -0.000269
-0.0024 0.000229 -0.000244
-0.002404 0.000229 -0.00022
-0.002411 0.000227 -0.000196
-0.002422 0.000223 -0.000172
-0.00244 0.000216 -0.00015
-0.002468 0.000204 -0.000129
-0.002584 0.000153 -9.5e-05
-0.002642 0.000127 -7.8e-05
-0.002693 0.000105 -6e-05
-0.002739 8.5e-05 -4.1e-05
-0.002781 6.7e-05 -2.2e-05
-0.002817 5.2e-05 -2e-06
-0.002852 3.7e-05 1.8e-05
-0.002883 2.4e-05 3.9e-05
-0.002905 1.5e-05 6.1e-05
-0.002918 1e-05 8.4e-05
-0.002926 8e-06 0.000108
-0.002514 0.000491 -0.001624
-0.002254 0.000653 -0.001739
-0.002391 0.000589 -0.001381
-0.002584 0.000702 -0.000927
-0.002503 0.0006 -0.001646
-0.00272 0.000675 -0.000907
-0.002677 0.000692 -0.000915
-0.002776 -6e-06 -0.000792
-0.00278 -7e-06 -0.000768
-0.002207 0.00059 -0.001731
-0.002463 0.000604 -0.001709
-0.00246 0.000647 -0.001492
-0.002479 0.000633 -0.001527
-0.002794 -6e-06 -0.000645
-0.002792 -4e-06 -0.00062
-0.002781 4e-06 -0.000594
-0.002759 1.6e-05 -0.000566
-0.002727 3.2e-05 -0.000537
-0.002684 5.4e-05 -0.000506
-0.002639 7.7e-05 -0.000475
-0.002583 0.000105 -0.000443
-0.00245 0.00017 -0.000375
-0.002422 0.000185 -0.000346
-0.002408 0.000193 -0.00032
-0.0024 0.000198 -0.000294
-0.002398 0.000201 -0.000269
-0.0024 0.000202 -0.000244
-0.002404 0.000202 -0.00022
-0.002411 0.0002 -0.000196
-0.002422 0.000196 -0.000172
-0.002441 0.000189 -0.00015
-0.002469 0.000177 -0.000129
-0.002519 0.000155 -0.000111
-0.002585 0.000126 -9.5e-05
-0.002642 0.0001 -7.8e-05
-0.002692 7.8e-05 -6e-05
-0.002738 5.8e-05 -4.1e-05
-0.00278 4e-05 -2.2e-05
-0.002816 2.5e-05 -2e-06
-0.002847 1.2e-05 1.9e-05
-0.00287 3e-06 4.1e-05
-0.002884 -2e-06 6.4e-05
-0.002892 -4e-06 8.7e-05
-0.0029 -4e-06 0.000136
-0.002902 -4e-06 0.00016
-0.002477 0.000579 -0.001527
-0.002533 0.000723 -0.000932
-0.002393 0.000643 -0.001381
-0.002508 0.000445 -0.001594
-0.002417 0.000516 -0.001419
-0.00272 0.000512 -0.000907
-0.002733 -1.2e-05 -0.000761
-0.002481 0.000693 -0.001636
-0.002458 0.00056 -0.001718
-0.002332 0.000701 -0.000923
-0.002417 0.000571 -0.001419
-0.002752 -1.3e-05 -0.000639
-0.002754 -1.2e-05 -0.000615
-0.002752 -1e-05 -0.00059
-0.002742 -4e-06 -0.000564
-0.00272 8e-06 -0.000536
-0.002683 2.7e-05 -0.000506
-0.002117 -3.3e-05 -7e-06
-0.002115 -3.4e-05 -3.1e-05
-0.002452 0.000142 -0.000375
-0.002421 0.000158 -0.000346
-0.002408 0.000166 -0.00032
-0.0024 0.000171 -0.000294
-0.002398 0.000174 -0.000269
-0.0024 0.000174 -0.000244
-0.002404 0.000174 -0.00022
-0.002411 0.000173 -0.000196
-0.002423 0.000168 -0.000173
-0.002441 0.000161 -0.00015
-0.002469 0.00015 -0.000129
-0.002516 0.000129 -0.000111
-0.002585 9.8e-05 -9.5e-05
-0.002643 7.3e-05 -7.8e-05
-0.002694 5.1e-05 -6e-05
-0.002738 3.1e-05 -4.1e-05
-0.002778 1.4e-05 -2.2e-05
-0.002808 1e-06 -2e-06
-0.002852 -1e-05 0.000142
-0.002855 -9e-06 0.000167
-0.002856 -8e-06 0.000192
-0.002112 -3.4e-05 -5.6e-05
-0.002678 0.000529 -0.000915
-0.00246 0.000593 -0.001492
-0.002659 -1.2e-05 -0.000876
-0.002664 -1.3e-05 -0.000851
-0.00211 -3.5e-05 -8e-05
-0.002676 -1.1e-05 -0.000729
-0.002585 0.000647 -0.000928
-0.00244 0.0005 -0.001456
-0.002506 0.000462 -0.001647
-0.002695 -1.2e-05 -0.000607
-0.002698 -1.2e-05 -0.000583
-0.002697 -1e-05 -0.000558
-0.002695 -7e-06 -0.000532
-0.002677 3e-06 -0.000505
-0.002637 2.3e-05 -0.000475
-0.002584 5e-05 -0.000443
-0.002452 0.000115 -0.000375
-0.002422 0.000131 -0.000346
-0.002407 0.000139 -0.00032
-0.0024 0.000144 -0.000294
-0.002398 0.000146 -0.000269
-0.0024 0.000147 -0.000244
-0.002404 0.000147 -0.00022
-0.002411 0.000145 -0.000196
-0.002423 0.000141 -0.000173
-0.002442 0.000134 -0.00015
-0.002468 0.000123 -0.000129
-0.002515 0.000103 -0.00011
-0.002584 7.2e-05 -9.5e-05
-0.002643 4.6e-05 -7.8e-05
-0.002692 2.4e-05 -6e-05
-0.002735 6e-06 -4.1e-05
-0.002763 -6e-06 -2e-05
-0.00278 -1.2e-05 3e-06
-0.0028 -1.4e-05 0.000125
-0.002803 -1.4e-05 0.000149
-0.002806 -1.4e-05 0.000174
-0.002808 -1.3e-05 0.000198
-0.002814 -1.4e-05 0.000222
-0.002108 -3.5e-05 -0.000105
-0.002864 0.000487 -0.000863
-0.0026 -1.2e-05 -0.000867
-0.002601 -1.1e-05 -0.000843
-0.002864 0.000514 -0.000863
-0.002835 0.000524 -0.000878
-0.002614 -1e-05 -0.000745
-0.002618 -1.1e-05 -0.000721
-0.002622 -1.1e-05 -0.000696
-0.002632 0.000547 -0.000922
