0.002436 0.000453 0.001352
0.002475 0.000439 0.001352
0.002514 0.000424 0.001353
0.00255 0.000412 0.001352
0.001479 0.000732 0.001935
0.001985 0.000586 0.002109
0.002022 0.000627 0.00212
0.002059 0.00064 0.00213
0.002025 0.000652 0.002124
0.001431 0.000522 0.002652
0.001438 0.00065 0.001963
0.001526 0.000672 0.001917
0.001909 0.000724 0.002086
0.002112 0.000308 0.002137
0.002135 0.000304 0.002125
0.002153 0.000302 0.002108
0.002171 0.000302 0.002091
0.002188 0.000301 0.002073
0.002205 0.0003 0.002055
0.00222 0.0003 0.002035
0.002227 0.000305 0.002009
0.00222 0.000319 0.001971
0.002209 0.000335 0.001931
0.002195 0.000353 0.001887
0.002179 0.000372 0.001842
0.00216 0.000393 0.001795
0.002137 0.000417 0.001744
0.002108 0.000444 0.001688
0.002073 0.000474 0.001628
0.002002 0.000574 0.001378
0.002016 0.000575 0.001358
0.002033 0.000574 0.00134
0.002053 0.000572 0.001325
0.002077 0.000567 0.001313
0.002106 0.000558 0.001303
0.002144 0.000545 0.001303
0.002198 0.000522 0.001316
0.002254 0.000497 0.00133
0.002305 0.000476 0.001339
0.00235 0.000458 0.001345
0.002396 0.00044 0.001351
0.002435 0.000426 0.001351
0.002475 0.000411 0.001352
0.002513 0.000398 0.001352
0.002551 0.000385 0.001351
0.002586 0.000373 0.00135
0.00212 0.000488 0.002132
0.00174 0.000688 0.002012
0.001465 0.00065 0.002439
0.002115 0.000655 0.002126
0.001985 0.000668 0.002109
0.001466 0.000577 0.002485
0.00212 0.000461 0.002132
0.00191 0.000533 0.002086
0.00187 0.000549 0.002072
0.001273 0.000714 0.002684
0.002113 0.000281 0.002137
0.002135 0.000277 0.002125
0.002153 0.000275 0.002108
0.00217 0.000274 0.00209
0.002188 0.000274 0.002073
0.002205 0.000273 0.002055
0.00222 0.000273 0.002035
0.002227 0.000278 0.002009
0.00222 0.000292 0.001972
0.002209 0.000308 0.00193
0.002195 0.000326 0.001887
0.002179 0.000345 0.001842
0.002161 0.000366 0.001795
0.002137 0.000389 0.001744
0.002108 0.000417 0.001688
0.002072 0.000448 0.001626
0.002002 0.000547 0.001377
0.002016 0.000548 0.001358
0.002033 0.000547 0.00134
0.002053 0.000544 0.001325
0.002077 0.000539 0.001312
0.002105 0.000531 0.001303
0.002144 0.000518 0.001303
0.002198 0.000495 0.001315
0.002254 0.00047 0.00133
0.002305 0.000449 0.00134
0.00235 0.000431 0.001345
0.002395 0.000413 0.00135
0.002435 0.000399 0.001351
0.002476 0.000384 0.001353
0.002513 0.000371 0.001352
0.00255 0.000358 0.00135
0.002587 0.000345 0.001349
0.001447 0.000552 0.002282
0.001387 0.000525 0.002675
0.000784 0.000674 0.002309
0.000373 0.000716 0.002961
0.001948 0.000682 0.002099
0.001638 0.000739 0.001949
0.001636 0.000713 0.001947
0.001829 0.000567 0.002055
0.002075 0.000267 0.002139
0.002113 0.000254 0.002137
0.002135 0.00025 0.002125
0.002153 0.000248 0.002108
0.002171 0.000247 0.002091
0.002188 0.000246 0.002073
0.002204 0.000246 0.002054
0.00222 0.000246 0.002035
0.002226 0.000251 0.002009
0.002221 0.000264 0.001972
0.002209 0.000281 0.00193
0.002195 0.000299 0.001887
0.002178 0.000318 0.001841
0.002161 0.000338 0.001795
0.002137 0.000362 0.001744
0.002107 0.00039 0.001687
0.002068 0.000423 0.001623
0.002002 0.00052 0.001377
0.002016 0.00052 0.001358
0.002033 0.00052 0.001339
0.002053 0.000517 0.001324
0.002077 0.000512 0.001312
0.002105 0.000504 0.001303
0.002144 0.00049 0.001303
0.002197 0.000468 0.001315
0.002255 0.000443 0.00133
0.002304 0.000422 0.001339
0.00235 0.000404 0.001345
0.002396 0.000386 0.001351
0.002435 0.000371 0.001351
0.002476 0.000356 0.001353
0.002514 0.000343 0.001352
0.00255 0.000331 0.00135
0.002587 0.000318 0.001349
0.00146 0.00045 0.002607
0.001324 0.000642 0.002698
0.000458 0.000613 0.00298
0.001238 0.000286 0.002671
0.002118 0.000626 0.002129
0.001393 0.000645 0.002669
0.000558 0.000477 0.002889
0.002074 0.000241 0.002138
0.002112 0.000227 0.002137
0.002135 0.000222 0.002125
0.002154 0.000221 0.002108
0.002171 0.00022 0.002091
0.002188 0.000219 0.002073
0.002205 0.000218 0.002055
0.00222 0.000219 0.002035
0.002227 0.000224 0.002009
0.002221 0.000237 0.001972
0.002209 0.000254 0.001931
0.002194 0.000272 0.001887
0.002179 0.000291 0.001842
0.00216 0.000311 0.001795
0.002137 0.000335 0.001744
0.002107 0.000362 0.001688
0.002002 0.000493 0.001377
0.002016 0.000493 0.001358
0.002033 0.000493 0.001339
0.002053 0.00049 0.001324
0.002076 0.000485 0.001311
0.002105 0.000477 0.001303
0.002143 0.000464 0.001302
0.002255 0.000415 0.00133
0.002304 0.000395 0.001339
0.00235 0.000377 0.001345
0.002396 0.000359 0.001351
0.002437 0.000343 0.001353
0.002476 0.000329 0.001353
0.002514 0.000316 0.001352
0.00255 0.000304 0.00135
0.002595 0.000286 0.001355
0.002622 0.000279 0.001346
0.001502 0.000703 0.001925
0.00146 0.000559 0.002607
0.000457 0.000641 0.002978
0.001428 0.000633 0.002648
0.001465 0.000615 0.002528
0.001459 0.000505 0.002606
0.001465 0.000524 0.002484
0.001555 0.000637 0.001916
0.001393 0.00062 0.002071
0.001436 0.000551 0.002222
0.000619 0.000669 0.002681
0.002111 0.0002 0.002135
0.002135 0.000195 0.002124
0.002153 0.000194 0.002108
0.002171 0.000193 0.002091
0.002188 0.000192 0.002073
0.002204 0.000192 0.002054
0.002219 0.000192 0.002034
0.002227 0.000197 0.002009
0.002221 0.00021 0.001972
0.002209 0.000226 0.001931
0.002195 0.000245 0.001887
0.002179 0.000264 0.001842
0.002161 0.000284 0.001795
0.002135 0.000309 0.001742
0.002108 0.000335 0.001688
0.002002 0.000465 0.001377
0.002016 0.000466 0.001358
0.002033 0.000465 0.001339
0.002053 0.000463 0.001324
0.002076 0.000458 0.001311
0.002106 0.00045 0.001303
0.002144 0.000436 0.001303
0.002255 0.000388 0.00133
0.002304 0.000368 0.001339
0.00235 0.000349 0.001345
0.002395 0.000332 0.00135
0.002437 0.000316 0.001352
0.002475 0.000302 0.001352
0.002514 0.000289 0.001352
0.00255 0.000276 0.00135
0.002589 0.000262 0.00135
0.002622 0.000252 0.001345
0.001421 0.000675 0.001981
0.002022 0.0006 0.002119
0.000482 0.000612 0.002975
0.001447 0.000635 0.002632
0.001269 0.000599 0.00269
0.001431 0.000495 0.002652
0.001463 0.000437 0.002568
0.001526 0.000645 0.001917
0.001396 0.000634 0.002032
0.001447 0.000525 0.002281
0.002141 0.00046 0.002119
0.00141 0.000749 0.002008
0.001985 0.000695 0.00211
0.002133 0.000169 0.002123
0.002153 0.000167 0.002107
0.00217 0.000166 0.00209
0.002187 0.000165 0.002072
0.002203 0.000165 0.002054
0.002217 0.000166 0.002033
0.002226 0.00017 0.002008
0.00222 0.000183 0.001972
0.002209 0.000199 0.001931
0.002194 0.000218 0.001887
0.002178 0.000237 0.001842
0.00216 0.000257 0.001795
0.002135 0.000282 0.001742
0.002107 0.000308 0.001687
0.00207 0.00034 0.001625
0.002002 0.000438 0.001377
0.002016 0.000439 0.001358
0.002033 0.000438 0.001339
0.002053 0.000436 0.001324
0.002076 0.000431 0.001311
0.002106 0.000423 0.001303
0.002144 0.000409 0.001303
0.002199 0.000385 0.001316
0.002256 0.000361 0.001331
0.002304 0.000341 0.001339
0.002351 0.000322 0.001345
0.002395 0.000305 0.00135
0.002437 0.000289 0.001352
0.002476 0.000275 0.001353
0.002513 0.000262 0.001352
0.002551 0.000249 0.00135
0.002588 0.000236 0.00135
0.001948 0.000492 0.002098
0.001461 0.000615 0.00239
0.001829 0.000729 0.002056
0.001348 0.000642 0.00269
0.001742 0.00074 0.002016
0.001466 0.000533 0.002529
0.001985 0.000505 0.002109
0.001479 0.000705 0.001935
0.001366 0.000444 0.002688
0.001985 0.000613 0.00211
0.001393 0.00059 0.002672
0.002131 0.000143 0.002121
0.002151 0.000141 0.002106
0.002169 0.00014 0.002089
0.002186 0.000139 0.002071
0.002201 0.000139 0.002052
0.002215 0.00014 0.002031
0.002225 0.000144 0.002007
0.00222 0.000156 0.001972
0.002209 0.000172 0.00193
0.002194 0.000191 0.001886
0.002179 0.000209 0.001842
0.002161 0.00023 0.001795
0.002136 0.000254 0.001743
0.002106 0.000282 0.001686
0.002002 0.000411 0.001377
0.002017 0.000412 0.001358
0.002033 0.000411 0.001339
0.002053 0.000409 0.001324
0.002076 0.000404 0.001311
0.002105 0.000396 0.001303
0.002143 0.000382 0.001302
0.002198 0.000359 0.001315
0.002255 0.000334 0.001331
0.002305 0.000313 0.00134
0.002351 0.000295 0.001345
0.002395 0.000278 0.00135
0.002437 0.000262 0.001352
0.002476 0.000248 0.001353
0.002514 0.000234 0.001352
0.002552 0.000221 0.001351
0.002589 0.000208 0.001351
0.001455 0.000528 0.002338
0.001447 0.000661 0.002281
0.001909 0.00067 0.002086
0.00187 0.000713 0.002072
0.001431 0.000549 0.002652
0.001387 0.000497 0.002676
0.001466 0.000442 0.002485
0.000433 0.000588 0.002984
0.001436 0.00066 0.002221
0.002057 0.000506 0.002127
0.001465 0.000623 0.002439
0.002128 0.000118 0.002118
0.002147 0.000116 0.002103
0.002165 0.000115 0.002086
0.002183 0.000114 0.002068
0.002198 0.000114 0.002049
0.002212 0.000115 0.002028
0.002222 0.000118 0.002005
0.00222 0.000129 0.001972
0.002209 0.000145 0.001931
0.002195 0.000163 0.001887
0.002179 0.000182 0.001842
0.00216 0.000203 0.001795
0.002106 0.000255 0.001686
0.00207 0.000285 0.001625
0.002002 0.000384 0.001377
0.002017 0.000385 0.001358
0.002033 0.000384 0.00134
0.002053 0.000381 0.001325
0.002077 0.000377 0.001312
0.002105 0.000369 0.001303
0.002144 0.000355 0.001303
0.002256 0.000306 0.001331
0.002305 0.000286 0.001339
0.002351 0.000268 0.001346
0.002396 0.00025 0.001351
0.002436 0.000235 0.001352
0.002476 0.000221 0.001353
0.002514 0.000207 0.001352
0.002551 0.000194 0.00135
0.002587 0.000182 0.001349
0.001589 0.000708 0.001921
0.001414 0.000721 0.002147
0.001985 0.000641 0.00211
0.001948 0.000654 0.002099
0.001653 0.000753 0.001972
0.001409 0.000496 0.002664
0.001692 0.000684 0.001985
0.001458 0.000705 0.001948
0.001393 0.000729 0.002071
0.001447 0.000633 0.002282
0.001393 0.000674 0.002072
0.001421 0.000648 0.001981
0.002141 0.00057 0.002119
0.002122 9.5e-05 0.002114
0.002142 9.2e-05 0.002098
0.00216 9.1e-05 0.002081
0.002177 9e-05 0.002063
0.002192 9e-05 0.002044
0.002206 9.1e-05 0.002024
0.002217 9.4e-05 0.002001
0.002219 0.000102 0.001971
0.002209 0.000118 0.00193
0.002195 0.000136 0.001887
0.002179 0.000155 0.001842
0.002161 0.000175 0.001795
0.002106 0.000227 0.001686
0.002002 0.000357 0.001377
0.002017 0.000357 0.001358
0.002034 0.000357 0.00134
0.002054 0.000354 0.001325
0.002077 0.00035 0.001312
0.002106 0.000341 0.001303
0.0022 0.000303 0.001317
0.002255 0.00028 0.00133
0.002305 0.000259 0.00134
0.002351 0.00024 0.001346
0.002395 0.000223 0.00135
0.002436 0.000208 0.001352
0.002476 0.000193 0.001353
0.002514 0.00018 0.001353
0.002551 0.000167 0.001351
0.002587 0.000155 0.001351
0.001366 0.000416 0.002688
0.001692 0.000711 0.001985
0.002057 0.000615 0.002128
0.002091 0.000603 0.002135
0.001741 0.000715 0.002013
0.001365 0.000498 0.002687
0.001787 0.000584 0.002037
0.001692 0.000629 0.001985
0.001588 0.000682 0.00192
0.001465 0.000496 0.002484
0.001456 0.000555 0.002338
0.001463 0.000519 0.002568
0.00062 0.000723 0.002681
0.002114 7.2e-05 0.002107
0.002134 7e-05 0.002092
0.002152 6.8e-05 0.002075
0.002169 6.8e-05 0.002057
0.002184 6.8e-05 0.002038
0.002198 6.9e-05 0.002017
0.00221 7.1e-05 0.001995
0.002216 7.7e-05 0.001968
0.002209 9.1e-05 0.00193
0.002195 0.000109 0.001887
0.002178 0.000128 0.001841
0.002162 0.000147 0.001796
0.002002 0.00033 0.001377
0.002016 0.00033 0.001357
0.002034 0.000329 0.00134
0.002054 0.000327 0.001325
0.002077 0.000322 0.001312
0.002106 0.000314 0.001303
0.002144 0.0003 0.001303
0.002199 0.000277 0.001316
0.002255 0.000253 0.00133
0.002305 0.000232 0.00134
0.002352 0.000213 0.001346
0.002396 0.000196 0.00135
0.002437 0.000181 0.001352
0.002475 0.000167 0.001352
0.002514 0.000153 0.001352
0.00255 0.000141 0.001351
0.001396 0.000662 0.002032
0.001829 0.000648 0.002055
0.001269 0.000626 0.002691
0.000527 0.000424 0.002956
0.001693 0.000737 0.001987
0.000408 0.000535 0.002988
0.001431 0.000413 0.002653
0.001948 0.000519 0.002098
0.001463 0.000546 0.002568
0.001425 0.000662 0.002644
0.002104 5.1e-05 0.002099
0.002123 4.9e-05 0.002083
0.002141 4.8e-05 0.002066
0.002158 4.7e-05 0.002048
0.002173 4.7e-05 0.002029
0.002188 4.8e-05 0.002009
0.002201 5e-05 0.001987
0.002209 5.4e-05 0.001962
0.002208 6.4e-05 0.001929
0.002195 8.1e-05 0.001887
0.002177 0.000102 0.001841
0.002161 0.000121 0.001796
0.001787 -2.9e-05 0.001104
0.001772 -2.9e-05 0.001124
0.001758 -3e-05 0.001144
0.001743 -3.1e-05 0.001164
0.002002 0.000303 0.001377
0.002016 0.000303 0.001357
0.002033 0.000302 0.00134
0.002054 0.0003 0.001325
0.002077 0.000295 0.001312
0.002106 0.000287 0.001303
0.002144 0.000273 0.001303
0.0022 0.000249 0.001317
0.002255 0.000225 0.001331
0.002305 0.000205 0.001339
0.002352 0.000185 0.001346
0.002396 0.000169 0.00135
0.002437 0.000153 0.001352
0.002476 0.000139 0.001353
0.002513 0.000126 0.001351
0.00255 0.000114 0.00135
0.002587 0.000101 0.001351
0.001438 0.000731 0.001963
0.00187 0.000631 0.002072
0.000543 0.000518 0.002924
0.002119 0.000598 0.002131
0.001455 0.000664 0.002338
0.001301 0.000262 0.002706
0.001462 0.000587 0.002391
0.001728 -3.1e-05 0.001183
0.001714 -3.2e-05 0.001203
0.001462 0.000479 0.002391
0.00145 0.000387 0.002637
0.001829 0.000675 0.002055
0.001466 0.000696 0.002529
0.002091 3.2e-05 0.002088
0.00211 3e-05 0.002072
0.002127 2.9e-05 0.002054
0.002144 2.8e-05 0.002036
0.00216 2.8e-05 0.002017
0.002174 2.9e-05 0.001998
0.002187 3e-05 0.001976
0.002197 3.4e-05 0.001953
0.002201 4.1e-05 0.001924
0.002194 5.5e-05 0.001886
0.002178 7.4e-05 0.001841
0.002161 9.4e-05 0.001795
0.000297 -7e-06 0.002164
0.002002 0.000275 0.001377
0.002016 0.000276 0.001357
0.002033 0.000275 0.00134
0.002053 0.000273 0.001324
0.002077 0.000268 0.001311
0.002106 0.000259 0.001303
0.002143 0.000247 0.001302
0.002256 0.000197 0.001331
0.002304 0.000178 0.001339
0.002353 0.000158 0.001347
0.002395 0.000142 0.00135
0.002436 0.000127 0.001352
0.002477 0.000112 0.001353
0.002514 9.9e-05 0.001352
0.00255 8.6e-05 0.00135
0.002587 7.3e-05 0.001349
0.001463 0.000542 0.002437
0.001909 0.000615 0.002086
0.001171 0.000723 0.002625
0.000527 0.00056 0.002955
0.001787 0.000693 0.002038
0.002091 0.00055 0.002133
0.001406 0.00067 0.002003
0.002057 0.000479 0.002127
0.00103 0.000632 0.002509
0.00145 0.00074 0.002286
0.0004 0.000711 0.002962
0.002073 1.6e-05 0.002073
0.002091 1.5e-05 0.002056
0.002108 1.3e-05 0.002039
0.002125 1.3e-05 0.00202
0.00214 1.3e-05 0.002001
0.002155 1.3e-05 0.001982
0.002169 1.4e-05 0.001962
0.002181 1.7e-05 0.001939
0.002189 2.1e-05 0.001914
0.002189 3.1e-05 0.001882
0.002178 4.7e-05 0.001841
0.00216 6.7e-05 0.001795
0.000273 -7e-06 0.00217
0.000249 -6e-06 0.002175
0.002002 0.000248 0.001377
0.002017 0.000249 0.001357
0.002034 0.000248 0.00134
0.002053 0.000245 0.001324
0.002077 0.000241 0.001311
0.002106 0.000232 0.001303
0.002144 0.000219 0.001303
0.001699 -3.3e-05 0.001223
0.002256 0.00017 0.001331
0.002305 0.00015 0.001339
0.002353 0.000131 0.001347
0.002395 0.000115 0.00135
0.002437 9.9e-05 0.001353
0.002477 8.4e-05 0.001353
0.002515 7.1e-05 0.001352
0.00255 5.9e-05 0.001349
0.002584 4.8e-05 0.001346
0.001985 0.000559 0.00211
0.00212 0.000543 0.002132
0.001449 0.000551 0.002636
0.001447 0.000714 0.002283
0.001709 0.000751 0.00201
0.002057 0.000561 0.002127
0.001462 0.00056 0.002391
0.00141 0.000387 0.002665
0.002021 0.000492 0.002118
0.00144 0.000738 0.002228
0.002007 1.1e-05 0.002083
0.002026 8e-06 0.002067
0.002043 7e-06 0.002049
0.002059 7e-06 0.00203
0.002074 7e-06 0.002011
0.00209 7e-06 0.001992
0.002105 7e-06 0.001973
0.002121 7e-06 0.001953
0.00215 8e-06 0.001913
0.002164 9e-06 0.001893
0.002173 1.3e-05 0.001869
0.00217 2.4e-05 0.001835
0.002157 4.2e-05 0.001792
0.001683 -3.3e-05 0.001242
0.000225 -5e-06 0.002181
0.002002 0.000221 0.001377
0.002017 0.000221 0.001357
0.002034 0.000221 0.00134
0.002053 0.000218 0.001324
0.002077 0.000213 0.001311
0.002106 0.000205 0.001303
0.002144 0.000192 0.001302
0.002255 0.000144 0.00133
0.002305 0.000123 0.00134
0.002353 0.000104 0.001347
0.002395 8.7e-05 0.00135
0.002437 7.1e-05 0.001353
0.002475 5.8e-05 0.001352
0.002513 4.5e-05 0.001351
0.002546 3.4e-05 0.001347
0.002576 2.5e-05 0.00134
0.001431 0.000467 0.002652
0.001327 0.000258 0.002705
0.001461 0.000642 0.00239
0.001464 0.0006 0.002569
0.001455 0.000691 0.002338
0.00145 0.000523 0.002636
0.00212 0.000434 0.002133
0.001388 0.000388 0.002676
0.001312 0.000672 0.002695
0.001955 5e-06 0.002072
0.001971 4e-06 0.002054
0.001987 3e-06 0.002035
0.002003 3e-06 0.002016
0.002019 3e-06 0.001997
0.001458 0.000678 0.001948
0.001465 0.000469 0.002484
0.000905 0.000525 0.002362
0.002084 2e-06 0.001923
0.002099 2e-06 0.001904
0.002115 2e-06 0.001885
0.002131 2e-06 0.001866
0.002145 3e-06 0.001846
0.002153 7e-06 0.001821
0.002151 1.8e-05 0.001787
0.002105 6.5e-05 0.001685
0.002069 9.6e-05 0.001624
0.002002 0.000194 0.001377
0.002017 0.000194 0.001357
0.002034 0.000193 0.00134
0.002053 0.000191 0.001324
0.002077 0.000186 0.001312
0.002105 0.000178 0.001303
0.002144 0.000165 0.001302
0.002201 0.000139 0.001318
0.002255 0.000117 0.00133
0.002306 9.5e-05 0.00134
0.002352 7.7e-05 0.001347
0.002395 6e-05 0.00135
0.002436 4.5e-05 0.001351
0.002474 3.2e-05 0.001351
0.002507 2e-05 0.001348
0.002535 1.2e-05 0.001338
0.000572 0.000274 0.002852
0.001948 0.0006 0.002098
0.001465 0.000588 0.002528
0.001387 0.000579 0.002675
0.00146 0.000586 0.002607
0.00103 0.00074 0.00251
0.001503 0.000756 0.001926
0.001463 0.000461 0.002437
0.0019 0.0 0.002059
0.001919 -1e-06 0.002042
0.001934 0.0 0.002023
0.001949 0.0 0.002004
0.001965 -1e-06 0.001985
0.001982 -2e-06 0.001967
0.001555 0.000719 0.001916
0.002057 0.0 0.001869
0.002074 -1e-06 0.001851
0.002089 0.0 0.001831
0.002105 -0.0 0.001813
0.002119 1e-06 0.001793
0.002128 5e-06 0.001768
0.002126 1.6e-05 0.001734
0.002106 3.7e-05 0.001686
0.002002 0.000166 0.001377
0.002017 0.000167 0.001358
0.002034 0.000166 0.00134
0.002053 0.000164 0.001324
0.002077 0.000159 0.001311
0.002106 0.000151 0.001303
0.002144 0.000138 0.001302
0.002201 0.000112 0.001317
0.002254 9e-05 0.001329
0.002305 6.8e-05 0.00134
0.002353 4.9e-05 0.001347
0.002394 3.4e-05 0.001349
0.002431 2.1e-05 0.001347
0.002464 1.1e-05 0.001342
0.00159 0.000734 0.001923
0.001787 0.000666 0.002038
0.001466 0.000632 0.002484
0.001409 0.000577 0.002664
0.00139 0.000676 0.002662
0.001948 0.000627 0.002099
0.001205 0.000355 0.002649
0.00183 0.000539 0.002056
0.002022 0.000735 0.002121
0.001992 0.000744 0.002119
0.001668 -3.3e-05 0.001262
0.001653 -3.3e-05 0.001281
0.001638 -3.3e-05 0.0013
0.000585 0.000289 0.002814
0.002006 4e-06 0.001827
0.002021 4e-06 0.001808
0.002039 3e-06 0.00179
0.002053 4e-06 0.00177
0.00207 4e-06 0.001752
0.002086 3e-06 0.001734
0.0021 4e-06 0.001713
0.002099 1.4e-05 0.00168
0.001622 -3.4e-05 0.001319
0.00199 0.000137 0.001399
0.002002 0.000139 0.001377
0.002017 0.00014 0.001357
0.002033 0.000139 0.001339
0.002053 0.000137 0.001324
0.002076 0.000132 0.001311
0.002106 0.000124 0.001303
0.002143 0.00011 0.001302
0.002201 8.5e-05 0.001318
0.002255 6.2e-05 0.00133
0.002305 4.1e-05 0.00134
0.002351 2.3e-05 0.001345
0.002386 1.1e-05 0.001342
0.001422 0.000755 0.001983
0.002141 0.000542 0.002119
0.001465 0.000605 0.002484
0.001449 0.000578 0.002635
0.00143 0.000577 0.002651
0.00146 0.000532 0.002607
0.002057 0.000452 0.002128
0.001787 0.000558 0.002037
0.000543 0.000572 0.002924
0.001438 0.000677 0.001963
0.001821 4e-06 0.001962
0.00054 0.000712 0.002916
0.001853 2e-06 0.001924
0.001464 0.000488 0.002437
0.001462 0.000506 0.002391
0.001606 -3.4e-05 0.001338
0.001238 0.000727 0.002675
0.001964 2e-06 0.001792
0.001979 3e-06 0.001773
0.001995 3e-06 0.001754
0.00201 3e-06 0.001735
0.002026 2e-06 0.001716
0.002042 3e-06 0.001697
0.002059 2e-06 0.001679
0.002074 2e-06 0.00166
0.00199 0.00011 0.001399
0.002002 0.000112 0.001377
0.002017 0.000112 0.001358
0.002033 0.000112 0.001339
0.002053 0.00011 0.001323
0.002076 0.000105 0.00131
0.002105 9.7e-05 0.001302
0.002144 8.3e-05 0.001303
0.002201 5.8e-05 0.001317
0.002253 3.6e-05 0.001329
0.002303 1.5e-05 0.001338
0.002336 4e-06 0.001333
0.00159 -3.3e-05 0.001357
0.001574 -3.3e-05 0.001376
0.002021 0.000519 0.002119
0.002022 0.000573 0.002119
0.001464 0.000573 0.002569
0.001461 0.00067 0.00239
0.001464 0.000596 0.002438
0.001742 0.000632 0.002014
0.002092 0.00044 0.002135
0.001448 0.000605 0.002283
0.001388 0.00047 0.002676
0.001304 0.000704 0.002683
0.00177 -3e-06 0.001952
0.001786 -3e-06 0.001933
0.001802 -2e-06 0.001914
0.001819 -4e-06 0.001896
0.001834 -3e-06 0.001877
0.001527 0.000752 0.001919
0.001556 0.000746 0.001917
0.001558 -3.3e-05 0.001395
0.001542 -3.3e-05 0.001413
0.001915 -5e-06 0.001784
0.001932 -6e-06 0.001766
0.001948 -5e-06 0.001747
0.001963 -5e-06 0.001728
0.001979 -6e-06 0.001709
0.001995 -6e-06 0.00169
0.002011 -6e-06 0.001671
0.002027 -6e-06 0.001653
0.002042 -6e-06 0.001633
0.002051 -2e-06 0.001609
0.00199 8.3e-05 0.001399
0.002002 8.5e-05 0.001377
0.002017 8.6e-05 0.001357
0.002033 8.5e-05 0.001339
0.002053 8.2e-05 0.001323
0.002076 7.8e-05 0.00131
0.002105 7e-05 0.001303
0.002143 5.6e-05 0.001302
0.002199 3.2e-05 0.001316
0.002253 9e-06 0.001329
0.002284 -1e-06 0.001322
0.002313 1e-06 0.001282
0.002329 1e-06 0.001263
0.002343 2e-06 0.001243
0.002358 3e-06 0.001223
0.002374 2e-06 0.001205
0.001393 0.000647 0.002071
0.001465 0.000561 0.002528
0.002091 0.000631 0.002134
0.00209 0.000659 0.002132
0.002057 0.000588 0.002128
0.000572 0.000518 0.002852
0.001456 0.000582 0.002338
0.001732 -6e-06 0.00192
0.001747 -6e-06 0.001901
0.001765 -8e-06 0.001884
0.001794 -6e-06 0.001844
0.00181 -7e-06 0.001825
0.001826 -7e-06 0.001807
0.00187 -5e-06 0.001747
0.001886 -5e-06 0.001728
0.001902 -5e-06 0.001709
0.001965 -6e-06 0.001634
0.001981 -6e-06 0.001615
0.001997 -6e-06 0.001596
0.002012 -5e-06 0.001577
0.002018 0.0 0.00155
0.002002 5.8e-05 0.001377
0.002017 5.8e-05 0.001357
0.002033 5.8e-05 0.001339
0.002052 5.6e-05 0.001323
0.002076 5.1e-05 0.00131
0.002105 4.2e-05 0.001303
0.002144 2.9e-05 0.001302
0.002265 -7e-06 0.001275
0.002282 -8e-06 0.001257
0.002297 -7e-06 0.001237
0.002311 -6e-06 0.001216
0.002325 -5e-06 0.001197
0.00234 -4e-06 0.001177
0.001463 0.000465 0.002568
0.00146 0.000614 0.002607
0.001466 0.000642 0.002528
0.001466 0.000686 0.002485
0.001465 0.000669 0.002528
0.001787 0.000612 0.002037
0.001526 -3.3e-05 0.001432
0.000655 0.000684 0.002391
0.00168 -3e-06 0.001878
0.001697 -3e-06 0.00186
0.001727 -3e-06 0.001821
0.001742 -2e-06 0.001801
0.001774 -3e-06 0.001764
0.001791 -3e-06 0.001746
0.001805 -2e-06 0.001726
0.001819 -1e-06 0.001705
0.001835 -2e-06 0.001686
0.001853 -3e-06 0.001669
0.001867 -2e-06 0.001649
0.00151 -3.2e-05 0.001451
0.001914 -2e-06 0.001592
0.001931 -2e-06 0.001574
0.001946 -2e-06 0.001554
0.001962 -2e-06 0.001535
0.002001 3.1e-05 0.001376
0.002016 3.2e-05 0.001357
0.002033 3.1e-05 0.001339
0.002052 2.9e-05 0.001322
0.002075 2.4e-05 0.00131
0.002108 1.4e-05 0.001304
0.001494 -3.2e-05 0.001469
0.002202 -5e-06 0.001255
0.002217 -5e-06 0.001235
0.002234 -6e-06 0.001217
0.00225 -6e-06 0.001198
0.002266 -6e-06 0.001179
0.002282 -6e-06 0.001161
0.002297 -6e-06 0.001141
0.001478 -3.2e-05 0.001488
0.001461 0.000757 0.001952
0.001464 0.000627 0.002569
0.001448 0.000606 0.002634
0.001465 0.000677 0.002439
0.001464 0.000654 0.002569
0.001589 0.000626 0.001922
0.001461 -3.1e-05 0.001506
0.001595 -7e-06 0.001903
0.001603 -2e-06 0.001878
0.001629 1e-06 0.001836
0.001646 -0.0 0.001818
0.001444 -3e-05 0.001524
0.001677 0.0 0.00178
0.001693 0.0 0.001761
0.001709 0.0 0.001742
0.001724 -0.0 0.001722
0.00174 1e-06 0.001703
0.001754 1e-06 0.001684
0.001772 0.0 0.001666
0.001458 0.000732 0.001948
0.001819 -0.0 0.001609
0.001835 -0.0 0.00159
0.001865 0.0 0.001552
0.001882 -0.0 0.001533
0.001427 -3e-05 0.001542
0.001999 5e-06 0.001374
0.002015 5e-06 0.001356
0.002031 7e-06 0.001337
0.002053 3e-06 0.001322
0.002074 -2e-06 0.001308
0.001393 0.000617 0.002671
0.002149 -1e-06 0.001211
0.002165 -1e-06 0.001192
0.002181 -1e-06 0.001173
0.002197 -1e-06 0.001154
0.002212 -0.0 0.001135
0.002231 -2e-06 0.001119
0.000201 -4e-06 0.002188
0.000178 -4e-06 0.002195
0.001481 0.000757 0.001937
0.001461 0.000711 0.002565
0.001501 0.000649 0.001924
0.001463 0.00041 0.002568
0.001459 0.000396 0.002606
0.001501 -6e-06 0.001921
0.001539 -0.0 0.001857
0.001555 -1e-06 0.001839
0.001571 -1e-06 0.00182
0.001588 -1e-06 0.001802
0.001604 -2e-06 0.001783
0.001634 -1e-06 0.001744
0.001648 -0.0 0.001724
0.001664 0.0 0.001705
0.00168 -0.0 0.001686
0.001696 -0.0 0.001667
0.001711 -0.0 0.001648
0.001728 -1e-06 0.00163
0.001692 0.000602 0.001985
0.001742 0.000578 0.002014
0.001773 0.0 0.001572
0.001789 1e-06 0.001552
0.001365 0.000471 0.002687
0.001819 1e-06 0.001514
0.001838 -1e-06 0.001497
0.001465 0.000452 0.002528
0.00212 -1e-06 0.001155
0.002135 -0.0 0.001136
0.00215 0.0 0.001116
0.002166 -0.0 0.001097
0.002181 1e-06 0.001077
0.001272 0.0 0.001895
0.001248 0.0 0.001902
0.001465 0.000725 0.002527
0.001453 0.000701 0.002596
0.001431 -0.0 0.001896
0.001447 -1e-06 0.001878
0.001463 -1e-06 0.001859
0.001478 -0.0 0.001839
0.001493 0.0 0.00182
0.001509 -0.0 0.001801
0.001525 -0.0 0.001782
0.001541 -0.0 0.001763
0.001555 1e-06 0.001743
0.001461 0.000533 0.002391
0.001587 0.0 0.001705
0.001602 0.0 0.001686
0.001619 -0.0 0.001668
0.001633 1e-06 0.001647
0.001651 -0.0 0.00163
0.001666 -1e-06 0.001611
0.001683 -1e-06 0.001593
0.001698 -1e-06 0.001574
0.001714 -0.0 0.001554
0.00173 -1e-06 0.001536
0.002021 0.000546 0.002119
0.001343 0.000473 0.002698
0.001778 -1e-06 0.00148
0.001839 0.0 0.001402
0.001854 0.0 0.001383
0.00141 0.000468 0.002665
0.001916 1e-06 0.001306
0.001932 1e-06 0.001287
0.001947 1e-06 0.001268
0.001964 0.0 0.00125
0.00191 0.000588 0.002086
0.001455 0.00061 0.002337
0.002105 0.0 0.001078
0.002123 -1e-06 0.001062
0.002137 0.0 0.001042
0.002021 0.000465 0.002118
0.00062 0.000505 0.002682
0.000867 0.000627 0.002326
0.0013 0.000561 0.002704
0.001171 0.000696 0.002625
0.001387 -1e-06 0.00186
0.001401 0.0 0.00184
0.001418 1e-06 0.001822
0.001434 -1e-06 0.001803
0.001449 -0.0 0.001783
0.001479 1e-06 0.001744
0.001493 1e-06 0.001724
0.00151 1e-06 0.001706
0.001527 0.0 0.001688
0.001466 0.000659 0.002485
0.000949 0.000493 0.002419
0.002141 0.000488 0.002119
0.001396 0.000716 0.002032
0.002057 0.000533 0.002127
0.00145 0.000414 0.002636
0.001777 1e-06 0.001383
0.001793 0.0 0.001364
0.00181 -0.0 0.001347
0.001872 0.0 0.00127
0.001887 0.0 0.001251
0.001903 0.0 0.001232
0.001918 1e-06 0.001212
0.002031 -1e-06 0.001081
0.002046 -1e-06 0.001062
0.002061 -0.0 0.001043
0.002075 0.0 0.001023
0.00212 2e-06 0.000963
0.002138 1e-06 0.000946
0.000637 0.000578 0.002574
0.000867 0.000682 0.002327
0.000527 0.000506 0.002955
0.00187 0.000577 0.002072
0.001371 0.0 0.001783
0.001388 -0.0 0.001765
0.001402 -0.0 0.001745
0.001419 0.0 0.001727
0.001436 -1e-06 0.001708
0.001452 -1e-06 0.00169
0.001467 -1e-06 0.00167
0.001484 -1e-06 0.001653
0.001409 0.000523 0.002664
0.000481 0.000641 0.002972
0.001465 0.000479 0.002528
0.001396 0.000689 0.002032
0.00214 0.000515 0.002118
0.00212 0.000515 0.002132
0.001555 0.000665 0.001916
0.00145 0.000442 0.002636
0.001431 0.00044 0.002653
0.001406 0.000697 0.002004
0.001421 0.000702 0.001981
0.001431 0.000386 0.002653
0.001691 -4e-06 0.001408
0.001738 -3e-06 0.001351
0.001753 -2e-06 0.001331
0.001768 -3e-06 0.001312
0.001784 -2e-06 0.001293
0.001799 -2e-06 0.001274
0.001815 -4e-06 0.001255
0.001831 -3e-06 0.001236
0.001845 -2e-06 0.001216
0.00186 -2e-06 0.001196
0.001967 1e-06 0.001061
0.001983 0.0 0.001042
0.002 -0.0 0.001025
0.002015 0.0 0.001005
0.00203 0.0 0.000986
0.002061 1e-06 0.000947
0.002077 1e-06 0.000928
0.001438 0.000704 0.001963
0.001985 0.000532 0.002109
0.001829 0.000594 0.002055
0.002092 0.000494 0.002135
0.001421 0.000729 0.001981
0.001407 0.000724 0.002004
0.001349 -4e-06 0.001733
0.001366 -4e-06 0.001715
0.001383 -5e-06 0.001697
0.0014 -6e-06 0.001679
0.001416 -7e-06 0.001661
0.001433 -7e-06 0.001642
0.001449 -7e-06 0.001623
0.001464 0.000681 0.002569
0.001137 0.000685 0.002601
0.001466 0.000713 0.002485
0.001465 0.000731 0.00244
0.001531 -1e-05 0.001532
0.001548 -1e-05 0.001513
0.002099 0.000723 0.002102
0.00158 -1.1e-05 0.001476
0.001596 -1.1e-05 0.001457
0.001611 -1.1e-05 0.001438
0.001627 -1.1e-05 0.001419
0.001642 -1.1e-05 0.0014
0.001659 -1.1e-05 0.001382
0.001674 -1.1e-05 0.001363
0.00169 -1.1e-05 0.001343
0.001705 -1e-05 0.001324
0.001721 -1e-05 0.001305
0.001736 -1e-05 0.001286
0.001752 -1e-05 0.001267
0.001767 -1e-05 0.001248
0.001783 -1e-05 0.001228
0.001797 -1e-05 0.001208
0.001812 -9e-06 0.001189
0.001827 -9e-06 0.001169
0.001843 -9e-06 0.00115
0.001931 -5e-06 0.001031
0.001945 -4e-06 0.001011
0.001959 -3e-06 0.000991
0.001974 -2e-06 0.000971
0.001989 -2e-06 0.000951
0.002003 -1e-06 0.000931
0.002019 -1e-06 0.000913
0.002035 -1e-06 0.000893
0.001463 0.000492 0.002568
0.002092 0.000467 0.002135
0.001464 0.000514 0.002438
0.001948 0.000546 0.002099
0.00191 0.000561 0.002086
0.002091 0.000522 0.002134
0.002078 0.000723 0.002115
0.002051 0.000728 0.002119
0.000558 0.000639 0.002889
0.001459 0.000641 0.002606
0.001369 -1.5e-05 0.001654
0.001386 -1.5e-05 0.001635
0.001402 -1.6e-05 0.001617
0.001457 0.00067 0.002603
0.000991 0.00071 0.002468
0.001453 -1.8e-05 0.001564
0.00147 -1.9e-05 0.001545
0.001486 -1.9e-05 0.001527
0.001503 -2e-05 0.001508
0.001519 -2e-05 0.00149
0.001535 -2e-05 0.001471
0.001551 -2e-05 0.001452
0.001567 -2e-05 0.001434
0.001583 -2.1e-05 0.001415
0.001599 -2.1e-05 0.001396
0.001615 -2.1e-05 0.001377
0.00163 -2.1e-05 0.001358
0.001646 -2.1e-05 0.001339
0.001662 -2.1e-05 0.001321
0.001678 -2.1e-05 0.001301
0.001693 -2.1e-05 0.001282
0.001708 -2.1e-05 0.001263
0.001724 -2e-05 0.001244
0.001739 -2e-05 0.001224
0.001754 -2e-05 0.001205
0.001769 -1.9e-05 0.001185
0.001783 -1.9e-05 0.001165
0.001798 -1.8e-05 0.001145
0.001813 -1.8e-05 0.001125
0.0019 -1.3e-05 0.001006
0.001915 -1.2e-05 0.000986
0.001928 -1.1e-05 0.000965
0.001943 -1.1e-05 0.000945
0.001957 -1e-05 0.000925
0.001971 -9e-06 0.000904
0.001985 -8e-06 0.000884
0.001465 0.000507 0.002528
0.00146 0.000478 0.002607
0.001366 0.000389 0.002687
0.001588 0.000655 0.00192
0.001691 0.000576 0.001984
0.001741 0.000551 0.002013
0.001788 0.000529 0.002038
0.00183 0.000512 0.002056
0.00187 0.000495 0.002072
0.00191 0.000479 0.002087
0.001947 0.000465 0.002098
0.001985 0.000451 0.002109
0.002021 0.000438 0.002118
0.002057 0.000425 0.002128
0.002091 0.000413 0.002135
0.002121 0.000406 0.002133
0.000434 0.000343 0.002985
0.000643 0.000584 0.002435
0.001301 0.000452 0.002705
0.000433 0.000479 0.002985
0.000644 0.000737 0.002518
0.000544 0.000653 0.002925
0.001366 0.000362 0.002687
0.001388 0.000361 0.002676
0.00141 0.00036 0.002664
0.001431 0.000359 0.002652
0.00145 0.00036 0.002637
0.001459 0.000369 0.002606
0.001463 0.000383 0.002568
0.001465 0.000398 0.002527
0.001466 0.000414 0.002485
0.001464 0.000433 0.002437
0.001461 0.000452 0.00239
0.001456 0.000473 0.002339
0.001447 0.000498 0.002281
0.001435 0.000524 0.002221
0.001394 0.000592 0.002072
0.001396 0.000607 0.002032
0.001406 0.000616 0.002003
0.00142 0.000621 0.00198
0.001438 0.000623 0.001962
0.001458 0.000624 0.001947
0.001478 0.000624 0.001934
0.001501 0.000622 0.001924
0.001526 0.000618 0.001916
0.001555 0.00061 0.001916
0.001589 0.000599 0.001922
0.001638 0.000576 0.001949
0.001692 0.000548 0.001985
0.001741 0.000524 0.002014
0.001787 0.000503 0.002037
0.00183 0.000484 0.002057
0.00187 0.000468 0.002071
0.001909 0.000452 0.002085
0.001947 0.000438 0.002098
0.001985 0.000423 0.002109
0.002021 0.00041 0.002118
0.002056 0.000398 0.002128
0.002091 0.000386 0.002135
0.000655 0.000494 0.00239
0.000735 0.000514 0.002319
0.000691 0.00051 0.002342
0.000629 0.000581 0.00263
0.001326 0.00053 0.002704
0.000597 0.000659 0.002772
0.001344 0.000336 0.002699
0.001366 0.000335 0.002688
0.001388 0.000333 0.002677
0.00141 0.000332 0.002665
0.001432 0.000331 0.002653
0.00145 0.000333 0.002637
0.00146 0.000342 0.002606
0.001463 0.000356 0.002568
0.001465 0.000371 0.002527
0.001466 0.000387 0.002484
0.001463 0.000406 0.002437
0.001462 0.000424 0.002391
0.001456 0.000446 0.002338
0.001446 0.000471 0.002281
0.001434 0.000498 0.00222
0.001393 0.000566 0.002071
0.001396 0.00058 0.002031
0.001406 0.000589 0.002003
0.00142 0.000594 0.00198
0.001438 0.000596 0.001962
0.001457 0.000597 0.001947
0.001478 0.000597 0.001934
0.001501 0.000594 0.001924
0.001526 0.000591 0.001917
0.001555 0.000583 0.001916
0.00159 0.000572 0.001923
0.001638 0.000549 0.001949
0.001692 0.000521 0.001985
0.001741 0.000497 0.002013
0.001787 0.000476 0.002037
0.001831 0.000457 0.002057
0.00187 0.000441 0.002071
0.001909 0.000425 0.002085
0.001947 0.000411 0.002097
0.001985 0.000396 0.002109
0.002022 0.000383 0.002119
0.002057 0.000371 0.002128
0.002091 0.000359 0.002135
0.000558 0.000368 0.00289
0.001138 0.000413 0.002601
0.000609 0.000432 0.002728
0.00062 0.00056 0.002682
0.000713 0.00073 0.00233
0.001067 0.000639 0.002542
0.000585 0.000669 0.002814
0.001344 0.000309 0.002699
0.001366 0.000307 0.002688
0.001389 0.000306 0.002677
0.001411 0.000305 0.002666
0.001432 0.000304 0.002653
0.00145 0.000305 0.002637
0.001459 0.000315 0.002606
0.001463 0.000329 0.002568
0.001465 0.000344 0.002527
0.001466 0.00036 0.002485
0.001463 0.000379 0.002437
0.001462 0.000397 0.002391
0.001457 0.000418 0.002339
0.001394 0.000538 0.002072
0.001396 0.000553 0.002031
0.001406 0.000561 0.002003
0.00142 0.000567 0.00198
0.001438 0.000569 0.001962
0.001457 0.00057 0.001947
0.001478 0.00057 0.001934
0.001501 0.000567 0.001924
0.001526 0.000563 0.001917
0.001555 0.000556 0.001916
0.00159 0.000544 0.001923
0.001637 0.000522 0.001949
0.001692 0.000493 0.001985
0.001741 0.00047 0.002013
0.001788 0.000448 0.002038
0.00183 0.00043 0.002056
0.001869 0.000414 0.00207
0.001909 0.000398 0.002085
0.001947 0.000384 0.002097
0.001985 0.00037 0.002108
0.002022 0.000356 0.002119
0.002057 0.000343 0.002128
0.002091 0.000332 0.002135
0.000572 0.000382 0.002853
0.000543 0.000355 0.002924
0.001238 0.000477 0.00267
0.000458 0.000477 0.002981
0.000408 0.000562 0.002988
0.000407 0.000646 0.002984
0.001344 0.000282 0.002699
0.001366 0.00028 0.002688
0.001388 0.000279 0.002677
0.00141 0.000278 0.002665
0.001432 0.000277 0.002653
0.00145 0.000278 0.002637
0.00146 0.000288 0.002606
0.001463 0.000302 0.002567
0.001465 0.000317 0.002527
0.001466 0.000332 0.002485
0.001463 0.000352 0.002437
0.001462 0.00037 0.00239
0.001456 0.000392 0.002339
0.001396 0.000526 0.002031
0.001406 0.000534 0.002003
0.00142 0.000539 0.00198
0.001438 0.000542 0.001962
0.001457 0.000543 0.001947
0.001478 0.000542 0.001934
0.001501 0.00054 0.001923
0.001526 0.000536 0.001917
0.001555 0.000529 0.001915
0.00159 0.000517 0.001923
0.001638 0.000494 0.00195
0.001692 0.000466 0.001985
0.001742 0.000442 0.002014
0.001787 0.000421 0.002037
0.00183 0.000403 0.002057
0.00187 0.000387 0.002071
0.001909 0.000371 0.002085
0.001948 0.000356 0.002098
0.001984 0.000343 0.002108
0.002022 0.000329 0.002119
0.002057 0.000316 0.002128
0.000759 0.000486 0.002312
0.000558 0.000259 0.002889
0.000609 0.000323 0.002729
0.000558 0.000503 0.00289
0.001326 0.000585 0.002703
0.000381 0.00065 0.002983
0.001344 0.000255 0.002699
0.001366 0.000253 0.002688
0.001388 0.000252 0.002677
0.00141 0.000251 0.002665
0.001432 0.00025 0.002653
0.00145 0.000251 0.002636
0.001459 0.000261 0.002606
0.001463 0.000275 0.002567
0.001465 0.000289 0.002527
0.001466 0.000305 0.002485
0.001464 0.000325 0.002437
0.001462 0.000343 0.002391
0.001456 0.000365 0.002338
0.001447 0.000389 0.002281
0.001434 0.000417 0.002218
0.001394 0.000484 0.002072
0.001396 0.000499 0.002031
0.001406 0.000507 0.002003
0.00142 0.000512 0.00198
0.001438 0.000515 0.001962
0.001457 0.000516 0.001947
0.001478 0.000515 0.001933
0.001501 0.000513 0.001923
0.001526 0.000509 0.001917
0.001555 0.000502 0.001916
0.00159 0.00049 0.001923
0.001639 0.000466 0.001951
0.001692 0.000439 0.001985
0.001742 0.000415 0.002014
0.001788 0.000394 0.002038
0.00183 0.000375 0.002057
0.00187 0.00036 0.002071
0.00191 0.000343 0.002086
0.001948 0.000329 0.002098
0.001985 0.000315 0.002108
0.002021 0.000302 0.002119
0.002059 0.000288 0.002129
0.000482 0.000367 0.002976
0.000527 0.00037 0.002955
0.001137 0.000494 0.002601
0.001326 0.000503 0.002704
0.00127 0.000572 0.00269
0.001415 0.000619 0.002658
0.001344 0.000227 0.002699
0.001366 0.000226 0.002688
0.001388 0.000225 0.002677
0.00141 0.000223 0.002665
0.001432 0.000223 0.002653
0.00145 0.000224 0.002636
0.00146 0.000233 0.002606
0.001463 0.000247 0.002568
0.001465 0.000262 0.002527
0.001465 0.000279 0.002484
0.001464 0.000297 0.002438
0.001462 0.000316 0.002391
0.001455 0.000338 0.002338
0.001446 0.000362 0.00228
0.001412 0.000424 0.002143
0.001394 0.000456 0.002073
0.001396 0.000472 0.002031
0.001406 0.00048 0.002002
0.00142 0.000485 0.001979
0.001438 0.000488 0.001962
0.001457 0.000489 0.001947
0.001478 0.000488 0.001933
0.001501 0.000486 0.001923
0.001526 0.000482 0.001916
0.001555 0.000474 0.001916
0.00159 0.000463 0.001923
0.001639 0.000439 0.001951
0.001693 0.000411 0.001987
0.001741 0.000388 0.002014
0.001787 0.000367 0.002037
0.001831 0.000348 0.002058
0.00187 0.000332 0.002072
0.00191 0.000316 0.002086
0.001948 0.000302 0.002098
0.001984 0.000288 0.002108
0.002021 0.000275 0.002118
0.000507 0.000366 0.002971
0.000458 0.000369 0.00298
0.000809 0.000698 0.002308
0.001301 0.000507 0.002705
0.000597 0.000577 0.002772
0.001326 0.000558 0.002704
0.001299 0.000645 0.002701
0.001366 0.000199 0.002688
0.001388 0.000197 0.002677
0.00141 0.000196 0.002665
0.001431 0.000196 0.002652
0.00145 0.000197 0.002635
0.00146 0.000206 0.002606
0.001463 0.00022 0.002568
0.001466 0.000235 0.002528
0.001465 0.000252 0.002483
0.001464 0.00027 0.002438
0.001462 0.000289 0.002391
0.001456 0.000311 0.002338
0.001447 0.000335 0.002281
0.001394 0.000429 0.002072
0.001395 0.000445 0.002031
0.001406 0.000453 0.002002
0.00142 0.000458 0.001979
0.001438 0.000461 0.001962
0.001457 0.000461 0.001946
0.001478 0.000461 0.001933
0.0015 0.000459 0.001923
0.001526 0.000455 0.001916
0.001555 0.000447 0.001916
0.00159 0.000435 0.001923
0.001639 0.000412 0.00195
0.001692 0.000385 0.001985
0.001742 0.000361 0.002014
0.001787 0.00034 0.002036
0.00183 0.000321 0.002057
0.001871 0.000305 0.002072
0.00191 0.000289 0.002086
0.001947 0.000275 0.002097
0.001985 0.000261 0.002109
0.002022 0.000247 0.002119
0.002058 0.000234 0.002129
0.000948 0.000467 0.002417
0.001269 0.0003 0.00269
0.000483 0.000285 0.002977
0.000609 0.000568 0.002728
0.000506 0.000475 0.002971
0.000643 0.00072 0.002435
0.001029 0.000714 0.002507
0.001366 0.000172 0.002687
0.001388 0.000171 0.002676
0.00141 0.00017 0.002664
0.00143 0.000169 0.002651
0.001449 0.000171 0.002634
0.00146 0.000179 0.002607
0.001463 0.000193 0.002568
0.001465 0.000208 0.002527
0.001465 0.000225 0.002483
0.001465 0.000242 0.002439
0.001462 0.000261 0.002391
0.001456 0.000283 0.002338
0.001446 0.000308 0.00228
0.001434 0.000335 0.002219
0.001392 0.000404 0.002069
0.001395 0.000418 0.002031
0.001406 0.000426 0.002002
0.00142 0.000431 0.001979
0.001437 0.000434 0.001961
0.001457 0.000434 0.001946
0.001478 0.000434 0.001933
0.0015 0.000432 0.001923
0.001526 0.000427 0.001916
0.001555 0.00042 0.001916
0.00159 0.000408 0.001923
0.00164 0.000384 0.001952
0.001692 0.000357 0.001985
0.001742 0.000333 0.002015
0.001787 0.000313 0.002036
0.00183 0.000294 0.002056
0.001871 0.000277 0.002072
0.00191 0.000262 0.002086
0.001948 0.000248 0.002097
0.001985 0.000233 0.002109
0.002022 0.00022 0.002119
0.00206 0.000205 0.002131
0.002092 0.000195 0.002136
0.000759 0.000676 0.002313
0.000735 0.000676 0.00232
0.00127 0.000327 0.00269
0.000637 0.000605 0.002574
0.000571 0.000491 0.002852
0.000784 0.000729 0.002309
0.001137 0.000603 0.0026
0.000609 0.000704 0.002728
0.001387 0.000144 0.002675
0.001409 0.000143 0.002662
0.001429 0.000143 0.002649
0.001448 0.000145 0.002632
0.001459 0.000152 0.002606
0.001463 0.000166 0.002568
0.001465 0.000181 0.002527
0.001465 0.000198 0.002483
0.001465 0.000215 0.002438
0.001463 0.000234 0.002392
0.001446 0.000281 0.00228
0.001435 0.000307 0.00222
0.001391 0.000378 0.002067
0.001395 0.00039 0.002031
0.001406 0.000399 0.002002
0.00142 0.000404 0.001979
0.001438 0.000406 0.001962
0.001457 0.000407 0.001946
0.001478 0.000407 0.001933
0.0015 0.000405 0.001923
0.001526 0.0004 0.001916
0.001555 0.000393 0.001916
0.00159 0.000381 0.001923
0.00164 0.000357 0.001952
0.001693 0.00033 0.001986
0.001741 0.000306 0.002014
0.001787 0.000286 0.002037
0.001831 0.000266 0.002057
0.001871 0.00025 0.002072
0.00191 0.000235 0.002086
0.001949 0.00022 0.002099
0.001986 0.000206 0.00211
0.002022 0.000193 0.002119
0.002058 0.00018 0.002129
0.002092 0.000168 0.002135
0.002119 0.000163 0.002131
0.001067 0.000503 0.002543
0.000713 0.000675 0.00233
0.001237 0.000341 0.00267
0.000507 0.000257 0.002971
0.000558 0.000449 0.00289
0.000904 0.000689 0.00236
0.000837 0.000746 0.002315
0.00066 0.000741 0.002566
0.001385 0.000119 0.002671
0.001406 0.000118 0.002659
0.001426 0.000118 0.002645
0.001445 0.00012 0.002629
0.001458 0.000126 0.002604
0.001463 0.000138 0.002568
0.001465 0.000154 0.002527
0.001465 0.000171 0.002483
0.001464 0.000188 0.002438
0.001462 0.000207 0.002392
0.001456 0.000229 0.002339
0.001446 0.000254 0.002279
0.001435 0.00028 0.00222
0.001393 0.000349 0.00207
0.001395 0.000363 0.00203
0.001406 0.000372 0.002002
0.00142 0.000377 0.00198
0.001438 0.000379 0.001962
0.001457 0.00038 0.001946
0.001478 0.00038 0.001933
0.001501 0.000377 0.001923
0.001526 0.000373 0.001916
0.001556 0.000366 0.001916
0.001591 0.000354 0.001923
0.00164 0.000329 0.001952
0.001692 0.000303 0.001985
0.001788 0.000258 0.002037
0.001831 0.000239 0.002057
0.001871 0.000223 0.002072
0.00191 0.000207 0.002086
0.001948 0.000193 0.002098
0.001985 0.000179 0.002109
0.002022 0.000166 0.002118
0.002058 0.000153 0.002128
0.002091 0.000142 0.002134
0.002118 0.000137 0.002128
0.000507 0.000339 0.002971
0.000585 0.000398 0.002813
0.000691 0.000618 0.002343
0.001205 0.000518 0.002649
0.00099 0.000656 0.002466
0.000433 0.000533 0.002985
0.00137 0.000643 0.00268
0.001402 9.4e-05 0.002653
0.001423 9.4e-05 0.002639
0.001442 9.5e-05 0.002623
0.001457 0.0001 0.002602
0.001463 0.000112 0.002567
0.001465 0.000126 0.002527
0.001465 0.000144 0.002482
0.001464 0.000161 0.002438
0.001462 0.00018 0.002391
0.001456 0.000202 0.002338
0.001446 0.000227 0.00228
0.001434 0.000254 0.002219
0.001391 0.000323 0.002067
0.001395 0.000336 0.002031
0.001405 0.000345 0.002001
0.00142 0.000349 0.001979
0.001437 0.000352 0.001961
0.001457 0.000353 0.001946
0.001478 0.000352 0.001933
0.001501 0.00035 0.001923
0.001526 0.000346 0.001916
0.001556 0.000339 0.001916
0.001591 0.000326 0.001923
0.001639 0.000303 0.001951
0.001693 0.000276 0.001985
0.001741 0.000252 0.002013
0.001787 0.000231 0.002037
0.001831 0.000212 0.002057
0.001871 0.000196 0.002072
0.00191 0.00018 0.002087
0.001948 0.000166 0.002098
0.001985 0.000152 0.002109
0.002022 0.000138 0.002119
0.002058 0.000126 0.002128
0.00209 0.000116 0.002131
0.002115 0.000112 0.002124
0.000527 0.000343 0.002955
0.000483 0.000339 0.002977
0.001067 0.000394 0.002543
0.000507 0.00042 0.002971
0.00103 0.000578 0.002508
0.000672 0.000694 0.002363
0.001171 0.000533 0.002626
0.001137 0.000576 0.002601
0.000619 0.000642 0.00268
0.000382 0.000621 0.002987
0.001397 7.2e-05 0.002645
0.001417 7.2e-05 0.002631
0.001436 7.3e-05 0.002616
0.001453 7.6e-05 0.002596
0.001462 8.5e-05 0.002566
0.001465 0.0001 0.002526
0.001465 0.000116 0.002483
0.001465 0.000133 0.002439
0.001456 0.000175 0.002338
0.001446 0.000199 0.002281
0.001435 0.000226 0.00222
0.001391 0.000295 0.002069
0.001395 0.000309 0.00203
0.001405 0.000318 0.002001
0.00142 0.000322 0.001979
0.001437 0.000325 0.001961
0.001457 0.000326 0.001946
0.001478 0.000325 0.001933
0.001501 0.000323 0.001923
0.001526 0.000319 0.001917
0.001556 0.000311 0.001916
0.001591 0.000299 0.001923
0.001639 0.000276 0.001951
0.001692 0.000249 0.001985
0.001742 0.000225 0.002014
0.001788 0.000204 0.002038
0.001831 0.000185 0.002057
0.001871 0.000169 0.002072
0.00191 0.000153 0.002086
0.001948 0.000138 0.002098
0.001985 0.000125 0.002108
0.002022 0.000111 0.002118
0.002057 9.9e-05 0.002127
0.002087 9.1e-05 0.002127
0.002111 8.8e-05 0.002118
0.001327 0.000285 0.002705
0.000527 0.000261 0.002955
0.00099 0.00044 0.002465
0.000691 0.000699 0.002344
0.001237 0.000504 0.00267
0.00127 0.000518 0.00269
0.000527 0.000533 0.002955
0.000383 0.000593 0.002989
0.001368 5.1e-05 0.002647
0.001389 5.1e-05 0.002634
0.00141 5.1e-05 0.00262
0.001429 5.1e-05 0.002605
0.001447 5.4e-05 0.002587
0.001459 6e-05 0.002562
0.001464 7.3e-05 0.002525
0.001465 8.9e-05 0.002483
0.001464 0.000107 0.002438
0.001461 0.000126 0.00239
0.001456 0.000148 0.002338
0.001446 0.000172 0.00228
0.001435 0.000198 0.00222
0.001392 0.000268 0.002069
0.001395 0.000282 0.00203
0.001405 0.000291 0.002001
0.00142 0.000295 0.001979
0.001437 0.000298 0.001961
0.001457 0.000299 0.001946
0.001478 0.000298 0.001933
0.001501 0.000296 0.001923
0.001526 0.000291 0.001917
0.001556 0.000284 0.001916
0.001591 0.000272 0.001923
0.001638 0.00025 0.001949
0.001743 0.000197 0.002015
0.001789 0.000175 0.002039
0.001831 0.000158 0.002057
0.001871 0.000141 0.002072
0.00191 0.000126 0.002086
0.001948 0.000111 0.002098
0.001985 9.8e-05 0.002108
0.002022 8.4e-05 0.002119
0.002056 7.3e-05 0.002125
0.002083 6.7e-05 0.002121
0.002105 6.6e-05 0.002109
0.000585 0.000371 0.002813
0.000572 0.000355 0.002852
0.00103 0.000415 0.002508
0.000543 0.000436 0.002923
0.000597 0.00055 0.002771
0.000482 0.000503 0.002977
0.001171 0.000642 0.002626
0.001414 0.000648 0.002655
0.001359 3.2e-05 0.002633
0.00138 3.2e-05 0.00262
0.0014 3.1e-05 0.002606
0.00142 3.2e-05 0.002592
0.001438 3.4e-05 0.002574
0.001453 3.8e-05 0.002553
0.001462 4.8e-05 0.002522
0.001464 6.3e-05 0.002482
0.001464 7.9e-05 0.002438
0.001462 9.9e-05 0.00239
0.001456 0.00012 0.002338
0.001446 0.000145 0.00228
0.001434 0.000172 0.002219
0.001392 0.000241 0.002069
0.001395 0.000255 0.00203
0.001405 0.000264 0.002001
0.00142 0.000268 0.001978
0.001437 0.000271 0.001961
0.001457 0.000272 0.001946
0.001478 0.000271 0.001933
0.001501 0.000269 0.001923
0.001527 0.000264 0.001917
0.001556 0.000257 0.001916
0.001591 0.000245 0.001923
0.001638 0.000223 0.001949
0.001743 0.000169 0.002016
0.001789 0.000148 0.002039
0.001831 0.000131 0.002057
0.001871 0.000114 0.002073
0.00191 9.8e-05 0.002086
0.001947 8.5e-05 0.002097
0.001985 7.1e-05 0.002108
0.002021 5.7e-05 0.002118
0.002051 4.9e-05 0.002118
0.002076 4.6e-05 0.00211
0.002097 4.5e-05 0.002098
0.000904 0.000499 0.002359
0.000558 0.00034 0.002889
0.000809 0.000562 0.002308
0.000483 0.000475 0.002977
0.000506 0.000529 0.00297
0.000505 0.000612 0.002968
0.000504 0.000641 0.002965
0.001345 1.6e-05 0.002613
0.001366 1.6e-05 0.0026
0.001387 1.5e-05 0.002587
0.001407 1.6e-05 0.002573
0.001426 1.7e-05 0.002557
0.001443 2e-05 0.002537
0.001456 2.6e-05 0.002513
0.001463 3.7e-05 0.002479
0.001464 5.2e-05 0.002438
0.001461 7.2e-05 0.00239
0.001446 0.000118 0.002279
0.001434 0.000145 0.002218
0.001393 0.000213 0.00207
0.001395 0.000228 0.00203
0.001405 0.000236 0.002001
0.00142 0.000241 0.001979
0.001437 0.000243 0.001961
0.001457 0.000245 0.001945
0.001478 0.000244 0.001933
0.001501 0.000241 0.001923
0.001527 0.000237 0.001917
0.001556 0.00023 0.001916
0.00159 0.000218 0.001923
0.001638 0.000195 0.001949
0.001692 0.000168 0.001984
0.001742 0.000143 0.002015
0.001788 0.000122 0.002038
0.001831 0.000103 0.002057
0.001872 8.7e-05 0.002073
0.00191 7.2e-05 0.002086
0.001948 5.7e-05 0.002097
0.001983 4.5e-05 0.002106
0.002016 3.4e-05 0.00211
0.002043 2.9e-05 0.002106
0.002066 2.7e-05 0.002096
0.000691 0.000564 0.002343
0.000672 0.000558 0.002363
0.000609 0.000513 0.002728
0.00127 0.000463 0.00269
0.000784 0.000702 0.002309
0.000693 0.000752 0.002348
0.000458 0.000559 0.002981
0.001282 8e-06 0.002607
0.001303 7e-06 0.002595
0.001324 7e-06 0.002582
0.001368 0.000673 0.002674
0.000432 0.000643 0.002982
0.001386 6e-06 0.002542
0.001405 7e-06 0.002526
0.001424 8e-06 0.002509
0.001441 1e-05 0.002492
0.001454 1.7e-05 0.002467
0.001461 2.8e-05 0.002433
0.001461 4.5e-05 0.002389
0.001394 0.000185 0.002071
0.001395 0.0002 0.00203
0.001405 0.000209 0.002001
0.00142 0.000214 0.001979
0.001438 0.000216 0.001961
0.001457 0.000217 0.001946
0.001478 0.000216 0.001933
0.001501 0.000214 0.001924
0.001527 0.00021 0.001917
0.001556 0.000203 0.001916
0.00159 0.000191 0.001923
0.001639 0.000167 0.001951
0.001693 0.00014 0.001985
