-0.00063 -0.0 0.002711
-0.000559 -1e-06 0.002733
-0.000536 -1e-06 0.00274
-0.000512 -1e-06 0.002747
-0.000489 -1e-06 0.002754
-0.000465 -0.0 0.00276
-0.00044 2e-06 0.002764
-0.00166 0.000523 0.00229
-0.00137 -0.0 0.002434
-0.001346 -0.0 0.00244
-0.001323 0.0 0.002446
-0.001299 1e-06 0.002452
-0.001273 4e-06 0.002452
-0.001245 1.2e-05 0.002443
-0.001176 4.7e-05 0.002385
-0.001141 6.6e-05 0.002352
-0.001105 8.7e-05 0.002315
-0.001069 0.000107 0.002281
-0.001039 0.000118 0.002266
-0.001012 0.000124 0.002261
-0.000987 0.000127 0.002262
-0.000963 0.000127 0.002268
-0.000939 0.000126 0.002276
-0.001671 0.000677 0.002444
-0.001504 0.00066 0.002594
-0.001508 0.000575 0.002601
-0.001575 0.000435 0.002568
-0.000845 8e-06 0.002569
-0.000826 1e-06 0.002591
-0.000803 -1e-06 0.002601
-0.00078 -1e-06 0.002609
-0.000732 -1e-06 0.002621
-0.000709 -1e-06 0.002629
-0.000685 -1e-06 0.002635
-0.000544 -2e-06 0.002679
-0.00052 -2e-06 0.002687
-0.000496 -1e-06 0.002692
-0.001665 0.000501 0.002344
-0.001354 -1e-06 0.002379
-0.001331 -1e-06 0.002386
-0.001307 -1e-06 0.002393
-0.001636 0.000705 0.00184
-0.001661 0.00055 0.002291
-0.001637 0.000703 0.00219
-0.00167 0.000506 0.002397
-0.001176 1.9e-05 0.002385
-0.001142 3.8e-05 0.002354
-0.001104 6.1e-05 0.002314
-0.001069 8e-05 0.002281
-0.001039 9.1e-05 0.002266
-0.001012 9.7e-05 0.002261
-0.000987 9.9e-05 0.002263
-0.000963 0.0001 0.002268
-0.000939 9.9e-05 0.002276
-0.00161 0.000685 0.002533
-0.001666 0.00069 0.002345
-0.001475 0.000613 0.002595
-0.001934 0.000636 0.001895
-0.000834 -1e-06 0.002532
-0.000812 -3e-06 0.002542
-0.000763 -1e-06 0.002553
-0.00074 -1e-06 0.002559
-0.000716 -1e-06 0.002567
-0.000693 -2e-06 0.002575
-0.000669 -2e-06 0.002583
-0.000646 -2e-06 0.002589
-0.000622 -1e-06 0.002595
-0.000598 -2e-06 0.002602
-0.000574 -2e-06 0.002609
-0.000551 -2e-06 0.002617
-0.000527 -2e-06 0.002623
-0.000504 -3e-06 0.002632
-0.00048 -1e-06 0.002638
-0.001314 -1e-06 0.00233
-0.00129 -0.0 0.002335
-0.001267 -1e-06 0.002345
-0.002385 0.000496 0.00183
-0.001666 0.000527 0.002345
-0.001638 0.000724 0.002484
-0.001141 1.1e-05 0.002353
-0.001104 3.4e-05 0.002314
-0.001069 5.3e-05 0.002281
-0.001039 6.3e-05 0.002266
-0.001012 6.9e-05 0.002261
-0.000987 7.2e-05 0.002263
-0.000962 7.3e-05 0.002268
-0.000939 7.2e-05 0.002276
-0.001662 0.000694 0.002476
-0.00139 0.000705 0.002552
-0.001574 0.000599 0.002568
-0.001649 0.000621 0.002266
-0.000843 -3e-06 0.002473
-0.00082 -4e-06 0.002482
-0.000772 -3e-06 0.002494
-0.000748 -4e-06 0.002502
-0.000724 -3e-06 0.002507
-0.000701 -3e-06 0.002514
-0.000677 -3e-06 0.002521
-0.000654 -3e-06 0.002529
-0.00063 -3e-06 0.002536
-0.000606 -3e-06 0.002542
-0.000582 -3e-06 0.002548
-0.000559 -3e-06 0.002555
-0.000535 -3e-06 0.002563
-0.000512 -3e-06 0.002569
-0.001575 0.000517 0.002568
-0.001298 -3e-06 0.002276
-0.001275 -3e-06 0.002284
-0.001252 -3e-06 0.002293
-0.001672 0.000486 0.002446
-0.001069 2.5e-05 0.002282
-0.001039 3.7e-05 0.002265
-0.001012 4.3e-05 0.002261
-0.000986 4.5e-05 0.002262
-0.000962 4.6e-05 0.002267
-0.000939 4.5e-05 0.002275
-0.001433 0.000685 0.002576
0.001127 -1.3e-05 0.001849
-0.00167 0.000614 0.002397
-0.001637 0.000462 0.002529
-0.001653 0.000729 0.002462
-0.000803 -3e-06 0.002424
-0.000755 -3e-06 0.002437
-0.000731 -2e-06 0.002442
-0.000708 -2e-06 0.00245
-0.000684 -3e-06 0.002458
-0.00066 -2e-06 0.002464
-0.000637 -2e-06 0.002471
-0.000613 -2e-06 0.002478
-0.00059 -2e-06 0.002485
-0.000566 -3e-06 0.002493
-0.000543 -3e-06 0.0025
-0.000519 -3e-06 0.002506
-0.001595 0.000517 0.002555
-0.001282 -2e-06 0.00222
-0.001258 -2e-06 0.002226
-0.001235 -2e-06 0.002234
-0.001212 -3e-06 0.002242
-0.000342 -3.3e-05 0.002078
-0.001118 -4e-06 0.002272
-0.001095 -5e-06 0.002281
-0.001068 -2e-06 0.002279
-0.001039 9e-06 0.002267
-0.001012 1.5e-05 0.00226
-0.000986 1.8e-05 0.002261
-0.000962 1.9e-05 0.002267
-0.000939 1.8e-05 0.002275
-0.001656 0.0006 0.002512
-0.001637 0.000517 0.002529
-0.001768 0.000681 0.001818
-0.001616 0.000462 0.002542
-0.000853 0.000728 0.002353
-0.000811 -5e-06 0.002364
-0.000787 -5e-06 0.002371
-0.00074 -4e-06 0.002385
-0.000716 -4e-06 0.002391
-0.000692 -4e-06 0.002397
-0.000668 -3e-06 0.002402
-0.000645 -3e-06 0.00241
-0.000621 -4e-06 0.002418
-0.000551 -5e-06 0.002442
-0.000528 -5e-06 0.002448
-0.000503 -4e-06 0.002453
-0.000367 -3.3e-05 0.002072
-0.000121 4.3e-05 0.002462
-9.7e-05 4.3e-05 0.002469
-0.002342 0.000601 0.00189
-0.001706 0.000753 0.001813
-0.001243 -4e-06 0.002175
-0.00122 -4e-06 0.002181
-0.001196 -4e-06 0.002189
-0.000391 -3.4e-05 0.002067
-0.001101 -3e-06 0.002214
-0.001078 -5e-06 0.002225
-0.001054 -3e-06 0.002228
-0.00103 -2e-06 0.002234
-0.001005 -1e-06 0.002238
-0.000982 -2e-06 0.002246
-0.000958 -1e-06 0.002254
-0.000934 -1e-06 0.00226
-0.001473 0.000669 0.002593
-0.001895 0.000706 0.00188
-0.001656 0.000706 0.001826
-0.000867 0.000734 0.002329
-0.000794 -4e-06 0.002307
-0.000771 -5e-06 0.002316
-0.000414 -3.4e-05 0.00206
-0.000723 -4e-06 0.002328
-0.0007 -4e-06 0.002334
-0.000676 -4e-06 0.002342
-0.000652 -4e-06 0.002349
-0.000629 -4e-06 0.002356
-0.000534 -5e-06 0.002383
-0.000512 -4e-06 0.002389
-0.000487 -3e-06 0.002396
-0.000438 -3.5e-05 0.002054
-0.000121 1.5e-05 0.002461
-9.7e-05 1.6e-05 0.002468
-0.001679 0.000758 0.001816
-0.001733 0.000748 0.001809
-0.000462 -3.5e-05 0.002049
-0.001227 -4e-06 0.002118
-0.001203 -4e-06 0.002125
-0.00118 -4e-06 0.002133
-0.001156 -4e-06 0.002141
-0.000486 -3.5e-05 0.002042
-0.00051 -3.6e-05 0.002036
-0.002354 0.000658 0.001868
-0.001063 -7e-06 0.002173
-0.00104 -7e-06 0.00218
-0.001016 -7e-06 0.002187
-0.000968 -6e-06 0.002199
-0.000944 -5e-06 0.002204
-0.000921 -6e-06 0.002214
-0.000897 -6e-06 0.00222
-0.000874 -5e-06 0.002227
-0.000534 -3.6e-05 0.002029
-0.000826 -5e-06 0.00224
-0.001853 0.000671 0.001859
-0.000684 -5e-06 0.00228
-0.000661 -6e-06 0.002289
-0.000637 -6e-06 0.002296
-0.000613 -5e-06 0.002302
-0.000589 -4e-06 0.002307
-0.000566 -5e-06 0.002315
-0.000557 -3.6e-05 0.002022
-0.000331 -7e-06 0.00239
-0.000307 -8e-06 0.002397
-0.000283 -7e-06 0.002402
-9.1e-05 -2e-06 0.002447
-0.000581 -3.6e-05 0.002015
-0.001637 0.000489 0.002529
-0.001188 -6e-06 0.002072
-0.001166 -8e-06 0.002084
-0.001141 -6e-06 0.002089
-0.000605 -3.6e-05 0.002009
-0.001045 -4e-06 0.002112
-0.001022 -5e-06 0.002121
-0.001811 0.000662 0.00184
-0.000846 0.000681 0.002479
-0.001732 0.000721 0.001808
-0.000926 -2e-06 0.002143
-0.000902 -2e-06 0.00215
-0.000879 -3e-06 0.002158
-0.000855 -3e-06 0.002164
-0.000808 -4e-06 0.00218
-0.000785 -4e-06 0.002187
-0.000628 -3.6e-05 0.002001
-0.000652 -3.6e-05 0.001994
-0.000675 -3.6e-05 0.001987
-0.000667 -4e-06 0.002222
-0.000643 -4e-06 0.002229
-0.000572 -4e-06 0.002249
-0.000549 -4e-06 0.002257
-0.000699 -3.5e-05 0.001979
-0.000336 -4e-06 0.002321
-0.000313 -5e-06 0.002328
-0.000289 -4e-06 0.002334
-0.000265 -4e-06 0.00234
-0.000241 -4e-06 0.002347
-0.000722 -3.5e-05 0.001972
-0.000746 -3.5e-05 0.001964
-0.001266 -5e-06 0.001988
-0.001532 0.000436 0.002594
-0.000769 -3.4e-05 0.001956
-0.001122 -2e-06 0.002023
-0.001099 -3e-06 0.002033
-0.001768 0.000709 0.001817
-0.001973 0.000675 0.001911
-0.001006 -6e-06 0.002067
-0.000983 -6e-06 0.002074
-0.000843 0.000701 0.00243
-0.000936 -7e-06 0.00209
-0.000912 -7e-06 0.002096
-0.000889 -8e-06 0.002104
-0.000866 -8e-06 0.002112
-0.000842 -8e-06 0.002119
-0.001812 0.000715 0.001841
-0.001853 0.000698 0.00186
-0.000792 -3.4e-05 0.001948
-0.000815 -3.3e-05 0.00194
-0.000297 -6e-06 0.002275
-0.000274 -6e-06 0.002282
-0.000249 -5e-06 0.002287
-0.000225 -4e-06 0.002292
-0.000202 -4e-06 0.002299
-0.000178 -4e-06 0.002305
-0.000154 -4e-06 0.002315
-0.00013 -3e-06 0.002318
-0.000107 -3e-06 0.002325
-8.3e-05 -4e-06 0.002331
-6e-05 -4e-06 0.00234
-3.6e-05 -4e-06 0.002346
-0.00125 -6e-06 0.001934
-0.001227 -7e-06 0.001943
-0.001554 0.000436 0.002581
-0.000839 -3.2e-05 0.001931
-0.000862 -3.2e-05 0.001923
-0.000885 -3.1e-05 0.001915
-0.00111 -9e-06 0.001983
-0.001086 -8e-06 0.001987
-0.001811 0.000688 0.00184
-0.000853 0.000756 0.002353
-0.000845 0.000745 0.002386
-0.000943 -6e-06 0.002025
-0.000919 -6e-06 0.002032
-0.000896 -7e-06 0.002041
-0.000872 -6e-06 0.002046
-0.000848 -6e-06 0.002053
-0.001769 0.000735 0.001819
-0.001895 0.000679 0.001879
-0.001616 0.000517 0.002542
-0.001433 0.000549 0.002576
-0.001671 0.000523 0.00249
-0.001657 0.000517 0.002514
-0.001637 0.000435 0.002529
-0.001619 0.000756 0.00186
-0.000589 -7e-06 0.002131
-0.000565 -7e-06 0.002138
-0.000376 -8e-06 0.002194
-0.000352 -6e-06 0.002198
-0.000328 -5e-06 0.002203
-0.000908 -3e-05 0.001906
-0.000234 -6e-06 0.002234
-0.00021 -6e-06 0.002239
-0.000186 -6e-06 0.002246
-0.000163 -6e-06 0.002254
-0.000139 -6e-06 0.00226
-0.000116 -7e-06 0.00227
-9.3e-05 -8e-06 0.002278
-6.9e-05 -6e-06 0.002285
-4.5e-05 -7e-06 0.00229
-2.1e-05 -6e-06 0.002295
-0.000931 -3e-05 0.001898
-0.00107 -8e-06 0.001931
-0.001046 -8e-06 0.001937
-0.001621 0.000721 0.002504
-0.001672 0.000513 0.002446
-0.000975 -9e-06 0.001961
-0.000953 -1e-05 0.00197
-0.000929 -1.1e-05 0.001979
-0.000906 -1.1e-05 0.001986
-0.000882 -1.1e-05 0.001993
-0.000859 -1.2e-05 0.002
-0.001671 0.000496 0.00249
-0.002357 0.000602 0.001871
-0.001432 0.000496 0.002575
-0.001569 0.000685 0.002559
-0.000742 -1.3e-05 0.002039
-0.000718 -1.4e-05 0.002047
-0.000695 -1.4e-05 0.002054
-0.000671 -1.4e-05 0.002061
-0.000648 -1.4e-05 0.002068
-0.001475 0.000531 0.002596
-0.001636 0.00076 0.00184
-0.000577 -1.4e-05 0.002089
-0.000553 -1.4e-05 0.002095
-0.000529 -1.4e-05 0.002102
-0.000506 -1.4e-05 0.002109
-0.000482 -1.4e-05 0.002115
-0.000458 -1.3e-05 0.002121
-0.000434 -1.3e-05 0.002128
-0.00041 -1.3e-05 0.002135
-0.000386 -1.2e-05 0.00214
-0.000363 -1.2e-05 0.002147
-0.000338 -1.1e-05 0.002152
-0.000315 -1.1e-05 0.002159
-0.000171 -8e-06 0.002194
-0.000147 -7e-06 0.0022
-0.000123 -7e-06 0.002206
-0.0001 -7e-06 0.002213
-7.6e-05 -7e-06 0.002219
-4e-06 -6e-06 0.002238
-0.002311 0.000465 0.001928
-0.002071 0.00057 0.001948
-0.002017 0.000593 0.001933
-0.000867 0.000761 0.002329
-0.000951 0.00076 0.002278
-0.000973 0.000732 0.002267
-0.001057 -1.5e-05 0.001889
-0.001034 -1.5e-05 0.001897
-0.001601 0.00072 0.002519
-0.001532 0.000518 0.002593
-0.000965 -1.8e-05 0.001923
-0.000941 -1.9e-05 0.001932
-0.000918 -2e-05 0.00194
-0.000895 -2e-05 0.001949
-0.000872 -2.1e-05 0.001957
-0.000848 -2.1e-05 0.001965
-0.000825 -2.2e-05 0.001973
-0.000802 -2.2e-05 0.001981
-0.000778 -2.3e-05 0.001988
-0.000755 -2.3e-05 0.001996
-0.000732 -2.4e-05 0.002004
-0.000708 -2.4e-05 0.002011
-0.000684 -2.4e-05 0.002018
-0.000661 -2.4e-05 0.002026
-0.000638 -2.4e-05 0.002034
-0.000614 -2.4e-05 0.00204
-0.00059 -2.4e-05 0.002047
-0.000566 -2.4e-05 0.002054
-0.000543 -2.4e-05 0.002061
-0.000519 -2.4e-05 0.002067
-0.000495 -2.4e-05 0.002074
-0.000471 -2.3e-05 0.00208
-0.000448 -2.3e-05 0.002086
-0.000424 -2.3e-05 0.002093
-0.0004 -2.3e-05 0.002099
-0.000376 -2.2e-05 0.002105
-0.000352 -2.1e-05 0.00211
-0.000328 -2.1e-05 0.002117
-0.000304 -2.1e-05 0.002123
-0.000135 -1.5e-05 0.002159
-0.000111 -1.4e-05 0.002165
-0.001554 0.000517 0.002581
-0.001813 0.000741 0.001843
-0.001509 0.000438 0.002603
-0.001626 0.000719 0.002148
-0.000926 0.000737 0.002285
-0.001389 0.000544 0.002549
-0.001388 0.000517 0.002549
-0.000949 0.000735 0.002275
-0.001934 0.000609 0.001895
-0.001575 0.000463 0.002568
-0.001595 0.000462 0.002555
-0.001388 0.00049 0.002549
-0.000973 0.000705 0.002267
-0.000948 0.000708 0.002274
-0.000926 0.00071 0.002284
-0.000868 0.000707 0.00233
-0.000853 0.000701 0.002354
-0.000843 0.000691 0.002384
-0.000843 0.000673 0.00243
-0.000846 0.000653 0.00248
-0.00201 0.000552 0.001923
-0.001973 0.000566 0.001911
-0.001934 0.000582 0.001895
-0.001895 0.000598 0.001879
-0.001854 0.000615 0.001861
-0.001811 0.000635 0.00184
-0.001767 0.000654 0.001817
-0.001732 0.000667 0.001808
-0.001703 0.000674 0.001809
-0.001678 0.000678 0.001815
-0.001656 0.000679 0.001826
-0.001636 0.000678 0.00184
-0.002302 0.000688 0.00192
-0.002213 0.000648 0.001973
-0.002372 0.000575 0.001851
-0.002326 0.000546 0.001909
-0.002133 0.000782 0.001184
-0.001659 0.000496 0.002289
-0.001665 0.000473 0.002344
-0.00167 0.000451 0.002398
-0.001672 0.000432 0.002446
-0.001671 0.000415 0.00249
-0.001657 0.000408 0.002515
-0.001637 0.000408 0.002529
-0.001616 0.000408 0.002542
-0.001596 0.000408 0.002556
-0.001574 0.000408 0.002568
-0.001553 0.000408 0.002581
-0.001532 0.000409 0.002594
-0.001509 0.000411 0.002603
-0.001475 0.000422 0.002596
-0.001433 0.000441 0.002575
-0.001389 0.000462 0.002548
-0.000868 0.00068 0.00233
-0.000853 0.000674 0.002353
-0.000843 0.000664 0.002384
-0.000843 0.000646 0.00243
-0.000846 0.000626 0.002479
-0.002009 0.000525 0.001922
-0.001973 0.000539 0.001911
-0.001934 0.000555 0.001895
-0.001894 0.000571 0.001879
-0.001853 0.000589 0.00186
-0.001811 0.000607 0.00184
-0.001767 0.000627 0.001817
-0.001732 0.00064 0.001808
-0.001703 0.000647 0.001809
-0.001678 0.00065 0.001815
-0.001656 0.000652 0.001826
-0.001636 0.000651 0.00184
-0.002207 0.000706 0.001969
-0.002383 0.000606 0.001828
-0.002295 0.000573 0.001947
-0.002295 0.000464 0.001947
-0.002278 0.000465 0.001965
-0.001577 0.000725 0.002007
-0.002147 0.000783 0.001163
-0.001659 0.000469 0.002289
-0.001665 0.000446 0.002344
-0.00167 0.000424 0.002398
-0.001672 0.000405 0.002446
-0.001671 0.000387 0.00249
-0.001657 0.000381 0.002515
-0.001637 0.000381 0.002529
-0.001616 0.000381 0.002542
-0.001595 0.000381 0.002555
-0.001574 0.000381 0.002568
-0.001554 0.000381 0.002581
-0.001532 0.000382 0.002594
-0.001509 0.000384 0.002603
-0.001475 0.000395 0.002596
-0.001432 0.000414 0.002574
-0.00139 0.000434 0.00255
-0.000904 0.000657 0.002296
-0.000885 0.000656 0.002312
-0.000868 0.000653 0.00233
-0.000853 0.000647 0.002353
-0.000844 0.000637 0.002385
-0.000843 0.00062 0.002429
-0.000845 0.000599 0.002479
-0.002371 0.000705 0.001785
-0.001973 0.000511 0.001911
-0.001934 0.000528 0.001895
-0.001894 0.000544 0.001878
-0.001853 0.000561 0.00186
-0.001811 0.00058 0.00184
-0.001768 0.0006 0.001818
-0.001732 0.000612 0.001808
-0.001703 0.000619 0.001809
-0.001678 0.000623 0.001815
-0.001656 0.000625 0.001826
-0.001636 0.000624 0.00184
-0.002324 0.000656 0.001907
-0.002372 0.000603 0.001851
-0.002277 0.000574 0.001964
-0.002331 0.000634 0.001683
-0.001596 0.000704 0.002056
-0.00233 0.00058 0.001683
-0.002779 0.000525 0.001131
-0.001666 0.000418 0.002345
-0.00167 0.000397 0.002398
-0.001671 0.000378 0.002446
-0.00167 0.000361 0.00249
-0.001657 0.000354 0.002515
-0.001637 0.000353 0.002529
-0.001616 0.000353 0.002543
-0.001596 0.000353 0.002556
-0.001575 0.000354 0.002569
-0.001554 0.000354 0.002582
-0.001532 0.000354 0.002594
-0.001509 0.000357 0.002603
-0.001475 0.000368 0.002596
-0.001433 0.000387 0.002575
-0.00139 0.000406 0.002551
-0.000925 0.000629 0.002284
-0.000904 0.00063 0.002296
-0.000885 0.000629 0.002311
-0.000868 0.000626 0.00233
-0.000853 0.00062 0.002353
-0.000844 0.00061 0.002384
-0.000843 0.000592 0.002429
-0.000846 0.000572 0.002479
-0.002288 0.000736 0.001156
-0.001973 0.000484 0.001911
-0.001934 0.000501 0.001895
-0.001893 0.000518 0.001877
-0.001853 0.000535 0.00186
-0.001811 0.000553 0.00184
-0.001768 0.000572 0.001818
-0.001732 0.000585 0.001807
-0.001703 0.000593 0.001808
-0.001678 0.000596 0.001815
-0.001656 0.000598 0.001825
-0.001635 0.000597 0.00184
-0.002211 0.000676 0.001972
-0.002409 0.000697 0.000493
-0.001689 0.000738 0.002105
-0.002794 0.00067 0.000277
-0.002362 0.000502 0.001746
-0.001666 0.000391 0.002345
-0.00167 0.00037 0.002398
-0.001672 0.00035 0.002446
-0.00167 0.000334 0.00249
-0.001657 0.000327 0.002515
-0.001637 0.000326 0.00253
-0.001617 0.000326 0.002543
-0.001596 0.000326 0.002556
-0.001575 0.000326 0.002569
-0.001554 0.000327 0.002582
-0.001533 0.000327 0.002594
-0.001509 0.00033 0.002603
-0.001474 0.000341 0.002595
-0.001433 0.000359 0.002576
-0.00139 0.00038 0.00255
-0.000925 0.000602 0.002283
-0.000904 0.000603 0.002295
-0.000884 0.000602 0.002311
-0.000867 0.000598 0.002329
-0.000853 0.000592 0.002353
-0.000843 0.000583 0.002384
-0.000843 0.000565 0.00243
-0.000845 0.000545 0.002479
-0.002292 0.000721 0.001912
-0.001973 0.000457 0.001911
-0.001934 0.000473 0.001895
-0.001894 0.00049 0.001878
-0.001853 0.000508 0.001859
-0.00181 0.000526 0.001839
-0.001767 0.000545 0.001817
-0.001731 0.000559 0.001807
-0.001703 0.000565 0.001808
-0.001678 0.000569 0.001815
-0.001656 0.000571 0.001825
-0.001635 0.00057 0.00184
-0.002271 0.000659 0.001959
-0.002276 0.000602 0.001963
-0.002212 0.000594 0.001973
-0.002385 0.00055 0.001829
-0.002119 0.000577 0.001957
-0.001637 0.000676 0.00219
-0.001613 0.000683 0.002104
-0.001666 0.000364 0.002345
-0.00167 0.000342 0.002398
-0.001672 0.000323 0.002446
-0.00167 0.000306 0.002489
-0.001657 0.0003 0.002515
-0.001637 0.000299 0.002529
-0.001616 0.000299 0.002542
-0.001595 0.000299 0.002555
-0.001575 0.000299 0.002569
-0.001554 0.0003 0.002582
-0.001533 0.0003 0.002594
-0.001509 0.000302 0.002603
-0.001475 0.000314 0.002595
-0.001432 0.000333 0.002575
-0.00139 0.000353 0.00255
-0.000925 0.000575 0.002283
-0.000903 0.000576 0.002295
-0.000884 0.000574 0.00231
-0.000867 0.000571 0.002329
-0.000852 0.000565 0.002353
-0.000843 0.000556 0.002384
-0.000843 0.000538 0.002429
-0.000845 0.000518 0.002479
-0.00201 0.000416 0.001922
-0.001973 0.00043 0.00191
-0.001934 0.000446 0.001895
-0.001894 0.000463 0.001878
-0.001853 0.00048 0.00186
-0.00181 0.000499 0.001839
-0.001767 0.000519 0.001816
-0.001732 0.000531 0.001807
-0.001703 0.000538 0.001808
-0.001678 0.000542 0.001815
-0.001656 0.000543 0.001825
-0.001635 0.000543 0.001839
-0.002342 0.000628 0.00189
-0.002294 0.0006 0.001947
-0.002252 0.00058 0.001975
-0.002167 0.000558 0.001966
-0.002829 0.000472 0.001018
-0.002369 0.000696 0.001815
-0.002359 0.000692 0.00184
-0.001666 0.000337 0.002345
-0.00167 0.000316 0.002397
-0.001672 0.000296 0.002446
-0.00167 0.000279 0.00249
-0.001657 0.000273 0.002515
-0.001637 0.000272 0.002529
-0.001616 0.000272 0.002542
-0.001595 0.000272 0.002556
-0.001575 0.000272 0.002569
-0.001554 0.000272 0.002581
-0.001532 0.000273 0.002594
-0.001509 0.000275 0.002604
-0.001475 0.000287 0.002595
-0.001433 0.000305 0.002575
-0.001389 0.000326 0.00255
-0.000925 0.000548 0.002283
-0.000903 0.000549 0.002295
-0.000884 0.000547 0.00231
-0.000867 0.000544 0.002329
-0.000852 0.000538 0.002353
-0.000843 0.000528 0.002384
-0.000843 0.000511 0.002429
-0.000846 0.00049 0.002481
-0.00201 0.000389 0.001923
-0.001973 0.000403 0.001911
-0.001934 0.000419 0.001895
-0.001894 0.000436 0.001878
-0.001853 0.000453 0.001859
-0.00181 0.000472 0.001839
-0.001767 0.000491 0.001817
-0.001731 0.000504 0.001807
-0.001703 0.000511 0.001808
-0.001678 0.000515 0.001815
-0.001656 0.000516 0.001825
-0.001635 0.000516 0.001839
-0.002361 0.000665 0.001746
-0.002072 0.000678 0.001948
-0.002821 0.00047 0.001042
-0.001643 0.000689 0.002228
-0.002327 0.000519 0.00191
-0.001647 0.000358 0.002231
-0.001659 0.000334 0.002289
-0.00167 0.000288 0.002398
-0.001672 0.000269 0.002446
-0.00167 0.000252 0.00249
-0.001657 0.000246 0.002514
-0.001637 0.000245 0.002529
-0.001617 0.000245 0.002543
-0.001596 0.000245 0.002556
-0.001575 0.000245 0.002569
-0.001554 0.000245 0.002582
-0.001533 0.000245 0.002594
-0.001509 0.000248 0.002603
-0.001475 0.00026 0.002595
-0.001432 0.000278 0.002575
-0.001389 0.000299 0.002549
-0.000925 0.000521 0.002283
-0.000903 0.000521 0.002295
-0.000884 0.00052 0.00231
-0.000866 0.000517 0.002329
-0.000852 0.000511 0.002352
-0.000843 0.000501 0.002384
-0.000843 0.000483 0.00243
-0.000846 0.000463 0.00248
-0.00201 0.000362 0.001923
-0.001973 0.000375 0.001911
-0.001933 0.000392 0.001894
-0.001894 0.000408 0.001879
-0.001853 0.000426 0.00186
-0.00181 0.000445 0.001838
-0.001767 0.000464 0.001817
-0.001731 0.000477 0.001807
-0.001703 0.000484 0.001808
-0.001678 0.000488 0.001814
-0.001655 0.000489 0.001825
-0.001635 0.000488 0.001839
-0.002423 0.000754 0.000449
-0.001649 0.000729 0.002266
-0.001666 0.000742 0.002117
-0.002311 0.000546 0.001929
-0.001613 0.00071 0.002104
-0.001659 0.000306 0.002289
-0.001668 0.000281 0.002348
-0.00167 0.000261 0.002398
-0.001672 0.000241 0.002446
-0.00167 0.000225 0.00249
-0.001656 0.000219 0.002514
-0.001637 0.000218 0.002529
-0.001616 0.000218 0.002542
-0.001595 0.000218 0.002556
-0.001575 0.000218 0.002569
-0.001553 0.000218 0.002581
-0.001532 0.000219 0.002594
-0.001508 0.000221 0.002602
-0.001474 0.000233 0.002594
-0.001433 0.000251 0.002576
-0.001388 0.000272 0.00255
-0.000925 0.000494 0.002283
-0.000903 0.000494 0.002295
-0.000884 0.000493 0.00231
-0.000867 0.00049 0.002329
-0.000852 0.000484 0.002353
-0.000843 0.000474 0.002384
-0.000844 0.000456 0.002431
-0.000845 0.000436 0.002479
-0.002009 0.000335 0.001922
-0.001973 0.000349 0.001911
-0.001933 0.000365 0.001894
-0.001894 0.000381 0.001878
-0.001852 0.000399 0.001859
-0.001811 0.000417 0.001839
-0.001767 0.000437 0.001817
-0.001731 0.00045 0.001807
-0.001703 0.000457 0.001808
-0.001678 0.000461 0.001814
-0.001655 0.000462 0.001825
-0.001635 0.000461 0.001839
-0.002427 0.000757 0.000424
-0.001644 0.000743 0.002228
-0.001637 0.00073 0.00219
-0.001596 0.000731 0.002056
-0.002326 0.000465 0.001909
-0.002112 0.00075 0.001283
-0.001661 0.000278 0.002292
-0.001666 0.000255 0.002346
-0.00167 0.000234 0.002398
-0.001672 0.000214 0.002447
-0.00167 0.000198 0.00249
-0.001656 0.000192 0.002513
-0.001637 0.000191 0.002529
-0.001616 0.00019 0.002542
-0.001595 0.000191 0.002556
-0.001574 0.000191 0.002568
-0.001553 0.000191 0.002581
-0.001532 0.000192 0.002594
-0.001508 0.000194 0.002602
-0.001474 0.000206 0.002594
-0.001433 0.000224 0.002576
-0.001389 0.000244 0.00255
-0.000925 0.000466 0.002283
-0.000903 0.000467 0.002295
-0.000884 0.000466 0.00231
-0.000867 0.000463 0.002329
-0.000853 0.000457 0.002353
-0.000843 0.000447 0.002384
-0.000844 0.000428 0.002431
-0.000845 0.000409 0.002479
-0.002009 0.000308 0.001921
-0.001972 0.000322 0.00191
-0.001934 0.000337 0.001895
-0.001893 0.000354 0.001877
-0.001853 0.000371 0.00186
-0.001811 0.00039 0.00184
-0.001767 0.00041 0.001816
-0.001731 0.000423 0.001807
-0.001703 0.00043 0.001808
-0.001678 0.000434 0.001814
-0.001655 0.000435 0.001825
-0.001635 0.000434 0.00184
-0.002246 0.000665 0.00197
-0.002018 0.000702 0.001934
-0.001629 0.000745 0.00215
-0.002821 0.000606 0.001041
-0.002342 0.000465 0.00189
-0.002357 0.000466 0.001871
-0.001667 0.000227 0.002347
-0.00167 0.000206 0.002398
-0.001672 0.000187 0.002446
-0.00167 0.000171 0.00249
-0.001655 0.000165 0.002512
-0.001636 0.000164 0.002528
-0.001616 0.000163 0.002542
-0.001595 0.000164 0.002555
-0.001574 0.000164 0.002568
-0.001553 0.000164 0.002581
-0.001531 0.000165 0.002592
-0.001507 0.000168 0.002601
-0.001474 0.000179 0.002594
-0.001432 0.000197 0.002574
-0.001389 0.000217 0.00255
-0.000903 0.00044 0.002295
-0.000884 0.000439 0.00231
-0.000867 0.000436 0.002329
-0.000854 0.00043 0.002353
-0.000843 0.00042 0.002384
-0.000844 0.000401 0.002431
-0.000845 0.000382 0.002479
-0.002009 0.000281 0.001922
-0.001973 0.000294 0.001911
-0.001933 0.00031 0.001895
-0.001893 0.000327 0.001878
-0.001853 0.000345 0.00186
-0.00181 0.000363 0.001839
-0.001766 0.000383 0.001816
-0.001731 0.000396 0.001807
-0.001702 0.000403 0.001808
-0.001677 0.000406 0.001814
-0.001655 0.000408 0.001825
-0.001635 0.000407 0.001839
-0.002121 0.000712 0.001959
-0.00212 0.000659 0.001958
-0.001644 0.000716 0.002228
-0.002342 0.000547 0.00189
-0.002459 0.000734 0.001172
-0.001667 0.0002 0.002348
-0.00167 0.000179 0.002398
-0.001672 0.00016 0.002446
-0.001669 0.000144 0.002488
-0.001654 0.000139 0.00251
-0.001635 0.000138 0.002527
-0.001615 0.000137 0.002541
-0.001595 0.000137 0.002555
-0.001574 0.000137 0.002568
-0.001552 0.000138 0.00258
-0.00153 0.000139 0.002591
-0.001506 0.000142 0.002599
-0.001473 0.000152 0.002593
-0.001432 0.00017 0.002574
-0.001389 0.00019 0.00255
-0.000903 0.000413 0.002296
-0.000884 0.000412 0.002311
-0.000867 0.000408 0.00233
-0.000854 0.000402 0.002354
-0.000844 0.000392 0.002384
-0.000844 0.000374 0.002432
-0.000845 0.000355 0.002479
-0.00201 0.000253 0.001923
-0.001972 0.000267 0.00191
-0.001933 0.000283 0.001895
-0.001893 0.0003 0.001877
-0.001853 0.000317 0.00186
-0.00181 0.000336 0.001839
-0.001766 0.000356 0.001815
-0.001731 0.000369 0.001807
-0.001702 0.000376 0.001807
-0.001677 0.000379 0.001814
-0.001655 0.00038 0.001825
-0.001635 0.00038 0.001839
-0.002381 0.000634 0.001826
-0.002311 0.0006 0.001928
-0.002794 0.000507 0.000277
-0.002211 0.000513 0.001972
-0.00166 0.000197 0.00229
-0.001667 0.000173 0.002347
-0.001671 0.000152 0.002399
-0.001672 0.000132 0.002447
-0.001667 0.000118 0.002485
-0.001652 0.000114 0.002506
-0.001633 0.000112 0.002523
-0.001613 0.000111 0.002538
-0.001593 0.000111 0.002552
-0.001572 0.000111 0.002565
-0.00155 0.000112 0.002576
-0.001528 0.000114 0.002587
-0.001504 0.000116 0.002595
-0.001473 0.000125 0.002592
-0.001432 0.000143 0.002574
-0.001389 0.000162 0.002551
-0.000925 0.000385 0.002283
-0.000903 0.000385 0.002295
-0.000884 0.000384 0.002311
-0.000867 0.000381 0.00233
-0.000854 0.000375 0.002354
-0.000844 0.000365 0.002385
-0.000844 0.000347 0.002431
-0.000844 0.000328 0.002478
-0.002011 0.000225 0.001924
-0.001972 0.00024 0.00191
-0.001933 0.000256 0.001894
-0.001893 0.000273 0.001878
-0.001853 0.00029 0.00186
-0.00181 0.000309 0.001838
-0.001766 0.000329 0.001816
-0.001731 0.000341 0.001807
-0.001702 0.000348 0.001807
-0.001677 0.000352 0.001814
-0.001655 0.000353 0.001825
-0.001635 0.000353 0.001839
-0.00237 0.000631 0.00185
-0.002345 0.000595 0.001716
-0.001649 0.000702 0.002266
-0.001577 0.000698 0.002007
-0.002382 0.000453 0.001795
-0.00166 0.00017 0.00229
-0.001667 0.000146 0.002347
-0.00167 0.000124 0.002399
-0.001672 0.000105 0.002447
-0.001665 9.4e-05 0.002481
-0.001648 9e-05 0.002501
-0.001629 8.8e-05 0.002517
-0.00161 8.7e-05 0.002532
-0.001589 8.7e-05 0.002546
-0.001568 8.7e-05 0.002559
-0.001547 8.8e-05 0.002571
-0.001524 9e-05 0.002581
-0.0015 9.2e-05 0.00259
-0.001472 9.9e-05 0.002591
-0.001431 0.000116 0.002573
-0.00139 0.000135 0.002551
-0.000925 0.000358 0.002283
-0.000903 0.000358 0.002295
-0.000884 0.000357 0.00231
-0.000867 0.000354 0.002329
-0.000853 0.000348 0.002354
-0.000844 0.000338 0.002385
-0.000843 0.00032 0.002431
-0.000845 0.0003 0.002479
-0.00201 0.000198 0.001924
-0.001973 0.000213 0.00191
-0.001932 0.00023 0.001893
-0.001893 0.000246 0.001878
-0.001853 0.000262 0.001861
-0.00181 0.000282 0.001838
-0.001766 0.000302 0.001816
-0.001731 0.000314 0.001807
-0.001702 0.000321 0.001807
-0.001677 0.000325 0.001814
-0.001655 0.000326 0.001825
-0.001635 0.000326 0.001839
-0.00231 0.000628 0.001928
-0.002251 0.000607 0.001974
-0.002381 0.000563 0.001794
-0.002166 0.000744 0.00118
-0.001607 0.000751 0.002066
-0.001624 0.000751 0.002048
-0.001666 0.000119 0.002346
-0.001671 9.7e-05 0.0024
-0.00167 8e-05 0.002444
-0.00166 7e-05 0.002474
-0.001643 6.7e-05 0.002493
-0.001624 6.6e-05 0.002509
-0.001604 6.5e-05 0.002524
-0.001584 6.4e-05 0.002538
-0.001563 6.5e-05 0.002551
-0.001541 6.5e-05 0.002563
-0.001519 6.7e-05 0.002573
-0.001495 6.9e-05 0.002582
-0.001469 7.5e-05 0.002586
-0.00143 9e-05 0.002571
-0.00139 0.000108 0.002551
-0.000925 0.00033 0.002283
-0.000903 0.000331 0.002295
-0.000884 0.00033 0.00231
-0.000866 0.000327 0.002329
-0.000852 0.000321 0.002353
-0.000843 0.000311 0.002384
-0.000843 0.000293 0.00243
-0.000845 0.000273 0.002479
-0.002009 0.000172 0.001922
-0.001973 0.000186 0.00191
-0.001932 0.000203 0.001893
-0.001893 0.000218 0.001878
-0.001853 0.000235 0.00186
-0.00181 0.000255 0.001838
-0.001767 0.000274 0.001817
-0.001731 0.000287 0.001807
-0.001702 0.000294 0.001808
-0.001677 0.000298 0.001814
-0.001655 0.000299 0.001825
-0.001635 0.000298 0.001839
-0.002357 0.000629 0.00187
-0.00236 0.000612 0.001745
-0.002373 0.000548 0.001852
-0.002279 0.000715 0.001148
-0.002016 0.000621 0.001932
-0.002017 0.000648 0.001934
-0.000934 -3.3e-05 0.001886
-0.001666 9.2e-05 0.002346
-0.00167 7.1e-05 0.002398
-0.001667 5.5e-05 0.002439
-0.001653 4.9e-05 0.002464
-0.001636 4.6e-05 0.002482
-0.001617 4.5e-05 0.002498
-0.001597 4.4e-05 0.002513
-0.001577 4.4e-05 0.002527
-0.001556 4.4e-05 0.00254
-0.001534 4.5e-05 0.002551
-0.001512 4.6e-05 0.002562
-0.001489 4.8e-05 0.002572
-0.001463 5.2e-05 0.002577
-0.00143 6.3e-05 0.002571
-0.001389 8.1e-05 0.00255
-0.000955 -3.3e-05 0.001874
-0.000925 0.000303 0.002283
-0.000903 0.000304 0.002295
-0.000884 0.000303 0.00231
-0.000866 0.0003 0.002329
-0.000852 0.000294 0.002353
-0.000843 0.000284 0.002384
-0.000843 0.000266 0.002429
-0.000846 0.000246 0.00248
-0.002009 0.000145 0.001922
-0.001974 0.000158 0.001912
-0.001932 0.000175 0.001893
-0.001894 0.000191 0.001878
-0.001853 0.000208 0.00186
-0.00181 0.000227 0.001839
-0.001766 0.000247 0.001816
-0.001731 0.00026 0.001807
-0.001702 0.000267 0.001807
-0.001677 0.000271 0.001814
-0.001655 0.000272 0.001825
-0.001635 0.000271 0.001839
-0.002293 0.000628 0.001946
-0.002977 0.000457 0.00018
-0.00282 0.000525 0.001041
-0.002803 0.000523 0.001088
-0.002794 0.000523 0.00111
-0.00207 0.000598 0.001947
-0.002149 0.000717 0.001198
-0.001666 6.4e-05 0.002347
-0.001668 4.5e-05 0.002394
-0.00166 3.4e-05 0.002428
-0.001645 2.9e-05 0.00245
-0.001627 2.7e-05 0.002468
-0.001608 2.6e-05 0.002483
-0.001588 2.5e-05 0.002498
-0.001567 2.5e-05 0.002512
-0.001546 2.5e-05 0.002525
-0.001525 2.6e-05 0.002536
-0.001502 2.7e-05 0.002547
-0.00148 2.9e-05 0.002558
-0.001455 3.2e-05 0.002564
-0.001426 3.9e-05 0.002565
-0.001389 5.5e-05 0.002549
-0.000925 0.000276 0.002283
-0.000903 0.000277 0.002295
-0.000884 0.000276 0.00231
-0.000867 0.000272 0.002329
-0.000852 0.000267 0.002352
-0.000843 0.000256 0.002384
-0.000843 0.000238 0.002431
-0.000845 0.000219 0.002479
-0.00201 0.000117 0.001924
-0.001973 0.000131 0.001911
-0.001932 0.000148 0.001893
-0.001893 0.000164 0.001877
-0.001853 0.000181 0.00186
-0.001809 0.000201 0.001838
-0.001766 0.00022 0.001816
-0.001732 0.000232 0.001808
-0.001702 0.00024 0.001808
-0.001677 0.000244 0.001814
-0.001655 0.000245 0.001825
-0.001635 0.000244 0.001839
-0.00238 0.000645 0.001792
-0.002945 0.000551 0.0002
-0.002432 0.000698 -0.000323
-0.002373 0.000466 0.001852
-0.002167 0.000504 0.001966
-0.001664 3.9e-05 0.002343
-0.001661 2.4e-05 0.002384
-0.001649 1.6e-05 0.002411
-0.001633 1.3e-05 0.002431
-0.001614 1.1e-05 0.002448
-0.001594 1e-05 0.002463
-0.001574 9e-06 0.002477
-0.001554 9e-06 0.002491
-0.001533 9e-06 0.002504
-0.001511 1e-05 0.002516
-0.00149 1.1e-05 0.002528
-0.001467 1.2e-05 0.002538
-0.001443 1.5e-05 0.002546
-0.001416 2.1e-05 0.00255
-0.001384 3.1e-05 0.002544
-0.000925 0.000249 0.002283
-0.000903 0.00025 0.002295
-0.000883 0.000249 0.00231
-0.000866 0.000245 0.002329
-0.000852 0.00024 0.002352
-0.000843 0.000229 0.002384
-0.000843 0.000212 0.00243
-0.000846 0.000191 0.00248
-0.00201 9e-05 0.001923
-0.001973 0.000104 0.001911
-0.001933 0.00012 0.001895
-0.001893 0.000137 0.001877
-0.001852 0.000154 0.001859
-0.00181 0.000173 0.001839
-0.001766 0.000193 0.001816
-0.001731 0.000205 0.001807
-0.001702 0.000212 0.001808
-0.001677 0.000216 0.001814
-0.001655 0.000217 0.001825
-0.001635 0.000217 0.00184
-0.002168 0.000693 0.001967
-0.002382 0.000589 0.001794
-0.002018 0.000675 0.001934
-0.00165 0.000648 0.002267
-0.002212 0.000486 0.001973
-0.002252 0.000471 0.001976
-0.001658 1.7e-05 0.002334
-0.001648 8e-06 0.002364
-0.001631 4e-06 0.002383
-0.001592 2e-06 0.002414
-0.001571 3e-06 0.002427
-0.00155 3e-06 0.00244
-0.00153 3e-06 0.002453
-0.00151 2e-06 0.002467
-0.001488 3e-06 0.00248
-0.001467 3e-06 0.002493
-0.001446 3e-06 0.002506
-0.001425 3e-06 0.002518
-0.001401 6e-06 0.002527
-0.001374 1.3e-05 0.002528
-0.000924 0.000222 0.002283
-0.000903 0.000223 0.002295
-0.000883 0.000221 0.00231
-0.000866 0.000218 0.002329
-0.000851 0.000213 0.002352
-0.000843 0.000202 0.002384
-0.000842 0.000185 0.002429
-0.000846 0.000164 0.00248
-0.002008 6.4e-05 0.001921
-0.001973 7.6e-05 0.001911
-0.001931 9.5e-05 0.001892
-0.001892 0.000111 0.001876
-0.001853 0.000126 0.001861
-0.00181 0.000146 0.001839
-0.001766 0.000166 0.001816
-0.001731 0.000178 0.001807
-0.001702 0.000185 0.001808
-0.001677 0.000189 0.001814
-0.001655 0.00019 0.001825
-0.001635 0.000189 0.00184
-0.002345 0.000714 0.001697
-0.002326 0.000628 0.001909
-0.002326 0.000601 0.001909
-0.002072 0.000651 0.001948
-0.002321 0.000726 0.001152
-0.001568 0.000714 0.001966
-0.001646 3.5e-05 0.002231
-0.001653 1.3e-05 0.00228
-0.001643 3e-06 0.00231
-0.001625 1e-06 0.002327
-0.001605 -0.0 0.002342
-0.001584 0.0 0.002355
-0.001564 -0.0 0.002369
-0.001543 -0.0 0.002383
-0.001523 -0.0 0.002396
-0.001502 -0.0 0.002409
-0.001481 -1e-06 0.002423
-0.001459 0.0 0.002435
-0.001439 0.0 0.002448
-0.001418 0.0 0.002461
-0.001398 -0.0 0.002475
-0.001376 1e-06 0.002487
-0.000976 -3.4e-05 0.001861
-0.000924 0.000195 0.002283
-0.000903 0.000195 0.002295
-0.000883 0.000194 0.00231
-0.000866 0.000191 0.002329
-0.000852 0.000185 0.002352
-0.000843 0.000175 0.002384
-0.000842 0.000158 0.002428
-0.000846 0.000136 0.002481
-0.002008 3.7e-05 0.001921
-0.001973 5e-05 0.001911
-0.001933 6.6e-05 0.001894
-0.001893 8.3e-05 0.001878
-0.001853 0.0001 0.00186
-0.00181 0.000119 0.001839
-0.001767 0.000138 0.001817
-0.001731 0.000151 0.001806
-0.001702 0.000158 0.001808
-0.001677 0.000162 0.001814
-0.001655 0.000163 0.001825
-0.001635 0.000162 0.00184
-0.00224 0.000696 0.001965
-0.002308 0.000656 0.001926
-0.002381 0.000617 0.001793
-0.002342 0.000574 0.00189
-0.002385 0.000469 0.00183
-0.002208 0.000738 0.001152
-0.001634 1e-06 0.002251
-0.001616 -1e-06 0.002268
-0.001595 -1e-06 0.002281
-0.001575 -1e-06 0.002294
-0.001554 -1e-06 0.002308
-0.001532 -0.0 0.00232
-0.001512 -1e-06 0.002334
-0.000998 -3.4e-05 0.001848
-0.001429 -0.0 0.002387
-0.001408 -1e-06 0.0024
-0.001388 -1e-06 0.002414
-0.001019 -3.5e-05 0.001836
-0.000924 0.000167 0.002283
-0.000903 0.000168 0.002295
-0.000883 0.000167 0.00231
-0.000866 0.000164 0.002329
-0.000852 0.000158 0.002352
-0.000843 0.000148 0.002385
-0.000842 0.00013 0.002429
-0.000846 0.000109 0.002481
-0.002385 0.000441 0.00183
-0.001973 2.2e-05 0.001911
-0.001933 3.9e-05 0.001894
-0.001893 5.5e-05 0.001878
-0.001852 7.3e-05 0.001859
-0.001809 9.2e-05 0.001838
-0.001766 0.000112 0.001816
-0.001731 0.000124 0.001806
-0.001702 0.000131 0.001808
-0.001677 0.000135 0.001814
-0.001655 0.000136 0.001825
-0.001635 0.000135 0.001839
-0.002167 0.000721 0.001966
-0.00229 0.000658 0.001943
-0.002073 0.000705 0.00195
-0.002357 0.000574 0.001871
-0.002342 0.000493 0.00189
-0.002385 0.000523 0.001829
-0.00225 0.000727 0.00194
-0.001607 -2e-06 0.002208
-0.001586 -2e-06 0.00222
-0.001565 -2e-06 0.002234
-0.001543 -1e-06 0.002246
-0.001523 -1e-06 0.002259
-0.001481 -0.0 0.002285
-0.00146 -1e-06 0.002298
-0.00144 -1e-06 0.002312
-0.001419 -1e-06 0.002326
-0.001398 -1e-06 0.002339
-0.001378 -1e-06 0.002352
-0.001273 -0.0 0.002417
-0.001251 1e-06 0.002428
-0.001223 7e-06 0.002431
-0.000924 0.00014 0.002283
-0.000903 0.000141 0.002295
-0.000884 0.00014 0.00231
-0.000866 0.000137 0.002329
-0.000852 0.000131 0.002353
-0.000843 0.00012 0.002385
-0.000843 0.000103 0.00243
-0.000846 8.2e-05 0.002481
-0.002394 0.000735 0.001169
-0.002186 0.000742 0.001165
-0.001932 1.2e-05 0.001893
-0.001896 2.6e-05 0.001882
-0.001852 4.6e-05 0.001859
-0.001809 6.5e-05 0.001837
-0.001766 8.4e-05 0.001816
-0.00173 9.7e-05 0.001806
-0.001702 0.000104 0.001808
-0.001677 0.000108 0.001814
-0.001655 0.000109 0.001825
-0.001635 0.000108 0.001839
-0.00212 0.00074 0.001957
-0.00212 0.000685 0.001958
-0.002384 0.000578 0.001829
-0.002357 0.000493 0.001871
-0.002166 0.000781 0.001148
-0.002381 0.000536 0.001793
-0.001574 -1e-06 0.002157
-0.001554 -2e-06 0.002171
-0.001533 -1e-06 0.002184
-0.001512 -1e-06 0.002196
-0.001491 -1e-06 0.002209
-0.001471 -2e-06 0.002224
-0.001451 -2e-06 0.002239
-0.00143 -2e-06 0.002251
-0.001408 -1e-06 0.002263
-0.001389 -2e-06 0.002278
-0.001367 -1e-06 0.00229
-0.001346 -1e-06 0.002302
-0.001263 -1e-06 0.002356
-0.001242 -1e-06 0.002369
-0.001221 -0.0 0.002381
-0.0012 3e-06 0.002392
-0.000924 0.000113 0.002283
-0.000903 0.000114 0.002295
-0.000884 0.000113 0.00231
-0.000866 0.00011 0.002329
-0.000852 0.000104 0.002353
-0.000843 9.4e-05 0.002384
-0.000842 7.6e-05 0.002429
-0.000846 5.5e-05 0.002481
-0.00104 -3.5e-05 0.001824
-0.002346 0.000728 0.001828
-0.001888 5e-06 0.00187
-0.001853 1.8e-05 0.001861
-0.001809 3.8e-05 0.001837
-0.001766 5.8e-05 0.001815
-0.00173 7e-05 0.001805
-0.001702 7.7e-05 0.001807
-0.001677 8.1e-05 0.001814
-0.001655 8.2e-05 0.001825
-0.001635 8.1e-05 0.001839
-0.001616 7.9e-05 0.001856
-0.002168 0.000666 0.001967
-0.002168 0.000639 0.001967
-0.002315 0.000593 0.001649
-0.001061 -3.5e-05 0.001811
-0.001637 0.000648 0.00219
-0.001545 -3e-06 0.002111
-0.001524 -3e-06 0.002124
-0.001504 -3e-06 0.002138
-0.001483 -3e-06 0.002151
-0.001463 -3e-06 0.002165
-0.001442 -3e-06 0.002178
-0.001421 -4e-06 0.002192
-0.001401 -4e-06 0.002205
-0.00138 -4e-06 0.002219
-0.001359 -3e-06 0.002231
-0.001338 -3e-06 0.002244
-0.001317 -3e-06 0.002258
-0.001234 -3e-06 0.00231
-0.001212 -2e-06 0.002322
-0.001192 -2e-06 0.002336
-0.001172 -3e-06 0.00235
-0.001147 1e-06 0.002357
-0.000924 8.6e-05 0.002283
-0.000903 8.7e-05 0.002295
-0.000884 8.5e-05 0.002311
-0.000866 8.3e-05 0.002329
-0.000851 7.7e-05 0.002352
-0.000843 6.6e-05 0.002384
-0.000842 4.9e-05 0.002429
-0.000846 2.8e-05 0.002481
-0.001082 -3.5e-05 0.001798
-0.001103 -3.6e-05 0.001785
-0.001637 0.000621 0.00219
-0.001866 -3e-06 0.001836
-0.002382 0.000481 0.001794
-0.001766 3e-05 0.001816
-0.00173 4.3e-05 0.001805
-0.001702 5e-05 0.001807
-0.001676 5.4e-05 0.001813
-0.001654 5.5e-05 0.001824
-0.001634 5.4e-05 0.001838
-0.00236 0.000693 0.001745
-0.00225 0.000635 0.001973
-0.002212 0.000621 0.001973
-0.002212 0.000567 0.001973
-0.001577 -4e-06 0.002024
-0.001556 -3e-06 0.002037
-0.001535 -3e-06 0.002049
-0.001492 -2e-06 0.002073
-0.001471 -2e-06 0.002087
-0.00145 -2e-06 0.0021
-0.001429 -2e-06 0.002113
-0.001409 -2e-06 0.002127
-0.001389 -3e-06 0.002141
-0.001367 -2e-06 0.002153
-0.001347 -2e-06 0.002167
-0.001327 -3e-06 0.002181
-0.001306 -3e-06 0.002194
-0.001285 -2e-06 0.002207
-0.00118 -1e-06 0.002272
-0.00116 -2e-06 0.002286
-0.001124 -3.6e-05 0.001771
-0.000924 5.9e-05 0.002282
-0.000903 6e-05 0.002295
-0.000883 5.8e-05 0.00231
-0.000866 5.6e-05 0.002328
-0.000851 5e-05 0.002351
-0.000843 3.9e-05 0.002384
-0.001144 -3.6e-05 0.001758
-0.001165 -3.6e-05 0.001745
-0.002347 0.000689 0.001862
-0.002322 0.000722 0.001873
-0.001626 0.000692 0.002148
-0.001614 0.000737 0.002104
-0.001766 1e-06 0.001817
-0.001731 1.5e-05 0.001807
-0.001702 2.3e-05 0.001807
-0.001676 2.7e-05 0.001813
-0.001654 2.8e-05 0.001824
-0.001634 2.7e-05 0.001838
-0.002274 0.00063 0.001962
-0.002327 0.000573 0.001909
-0.002311 0.000573 0.001928
-0.001568 0.000741 0.001966
-0.001566 -3e-06 0.00196
-0.001548 -6e-06 0.001977
-0.001526 -5e-06 0.00199
-0.001504 -4e-06 0.002001
-0.001186 -3.5e-05 0.001731
-0.002185 0.000716 0.001164
-0.002277 0.000689 0.001146
-0.001401 -5e-06 0.002069
-0.001383 -7e-06 0.002086
-0.00136 -5e-06 0.002096
-0.001339 -5e-06 0.002109
-0.001319 -5e-06 0.002123
-0.001298 -5e-06 0.002135
-0.001206 -3.5e-05 0.001717
-0.001226 -3.5e-05 0.001703
-0.000924 3.2e-05 0.002282
-0.000902 3.3e-05 0.002294
-0.000883 3.1e-05 0.00231
-0.000866 2.8e-05 0.002328
-0.000851 2.3e-05 0.002351
-0.000843 1.2e-05 0.002384
-0.00159 0.000757 0.001887
-0.001608 0.000756 0.00187
-0.002307 0.000721 0.001892
-0.001806 -5e-06 0.001741
-0.001785 -4e-06 0.001754
-0.001765 -5e-06 0.001769
-0.001744 -5e-06 0.001781
-0.001723 -4e-06 0.001794
-0.001698 -1e-06 0.001801
-0.001674 2e-06 0.001809
-0.001652 2e-06 0.001821
-0.001632 1e-06 0.001836
-0.001612 1e-06 0.00185
-0.002167 0.000585 0.001966
-0.002165 0.000718 0.001179
-0.00236 0.000639 0.001745
-0.001535 -4e-06 0.001912
-0.001514 -4e-06 0.001925
-0.001492 -4e-06 0.001937
-0.002212 0.00054 0.001973
-0.002237 0.000703 0.001144
-0.002829 0.000499 0.001018
-0.001369 -4e-06 0.002018
-0.001307 -4e-06 0.002058
-0.001286 -4e-06 0.002072
-0.001265 -3e-06 0.002084
-0.001244 -4e-06 0.002098
-0.001224 -4e-06 0.002112
-0.001161 -3e-06 0.00215
-0.001139 -3e-06 0.002162
-0.001119 -3e-06 0.002176
-0.001099 -3e-06 0.00219
-0.000922 7e-06 0.002279
-0.000901 7e-06 0.002292
-0.000882 5e-06 0.002308
-0.000864 3e-06 0.002325
-0.000847 -2e-06 0.002346
-0.00083 -4e-06 0.002364
-0.00232 0.000699 0.001151
-0.002869 0.000597 -0.00088
-0.001794 -4e-06 0.001676
-0.001773 -4e-06 0.00169
-0.001753 -4e-06 0.001704
-0.001732 -4e-06 0.001717
-0.001671 -5e-06 0.001759
-0.00165 -5e-06 0.001772
-0.001631 -6e-06 0.001788
-0.001611 -7e-06 0.001802
-0.002071 0.000543 0.001948
-0.002016 0.000567 0.001933
-0.002071 0.000624 0.001948
-0.002364 0.000719 0.001746
-0.001247 -3.4e-05 0.00169
-0.001267 -3.4e-05 0.001675
-0.002572 0.000605 0.001171
-0.00134 -6e-06 0.001972
-0.001319 -6e-06 0.001986
-0.001277 -5e-06 0.002012
-0.001256 -5e-06 0.002024
-0.001236 -5e-06 0.002038
-0.001215 -6e-06 0.002052
-0.001195 -6e-06 0.002066
-0.001132 -6e-06 0.002105
-0.00111 -5e-06 0.002117
-0.001092 -7e-06 0.002134
-0.001072 -7e-06 0.002148
-0.00101 -7e-06 0.002188
-0.000989 -7e-06 0.002201
-0.000904 -4e-06 0.002251
-0.000883 -5e-06 0.002264
-0.000861 -4e-06 0.002276
-0.000839 -4e-06 0.002287
-0.000819 -3e-06 0.002301
-0.001649 0.000594 0.002266
-0.001643 0.000608 0.002228
-0.002257 0.000666 0.00154
-0.001745 -6e-06 0.001646
-0.001722 -5e-06 0.001656
-0.001701 -5e-06 0.001669
-0.001682 -6e-06 0.001685
-0.001661 -6e-06 0.001698
-0.00164 -5e-06 0.00171
-0.001619 -5e-06 0.001723
-0.001597 -4e-06 0.001734
-0.001576 -4e-06 0.001748
-0.001649 0.000675 0.002266
-0.001431 -4e-06 0.00184
-0.00141 -4e-06 0.001853
-0.001287 -3.3e-05 0.001661
-0.002362 0.000583 0.001746
-0.002357 0.000547 0.001871
-0.002707 0.000552 0.001152
-0.001286 -4e-06 0.001933
-0.001263 -3e-06 0.001944
-0.001223 -3e-06 0.001972
-0.001202 -4e-06 0.001986
-0.001182 -4e-06 0.002
-0.001161 -4e-06 0.002013
-0.001079 -5e-06 0.002067
-0.001058 -4e-06 0.00208
-0.000995 -4e-06 0.002119
-0.000974 -4e-06 0.002133
-0.000953 -3e-06 0.002145
-0.00081 -5e-06 0.002242
-0.00079 -6e-06 0.002256
-0.000771 -8e-06 0.002272
-0.001307 -3.3e-05 0.001647
-0.001327 -3.2e-05 0.001633
-0.00169 -4e-06 0.001605
-0.001668 -3e-06 0.001617
-0.001649 -4e-06 0.001632
-0.001628 -4e-06 0.001645
-0.001607 -4e-06 0.001658
-0.001586 -4e-06 0.001672
-0.001566 -5e-06 0.001687
-0.001547 -6e-06 0.001702
-0.002318 0.000687 0.001902
-0.001347 -3.2e-05 0.001618
-0.001485 -6e-06 0.001742
-0.001464 -6e-06 0.001755
-0.001367 -3.1e-05 0.001604
-0.001424 -7e-06 0.001784
-0.001404 -8e-06 0.001798
-0.001383 -8e-06 0.001812
-0.002119 0.000632 0.001957
-0.002167 0.000612 0.001967
-0.001592 0.00073 0.001888
-0.002519 0.000627 0.001173
-0.001197 -8e-06 0.001932
-0.001176 -8e-06 0.001945
-0.001155 -8e-06 0.001958
-0.001134 -7e-06 0.00197
-0.001114 -8e-06 0.001985
-0.001072 -7e-06 0.002011
-0.001051 -8e-06 0.002024
-0.00103 -8e-06 0.002037
-0.001009 -7e-06 0.00205
-0.002619 0.000586 0.001165
-0.000967 -6e-06 0.002075
-0.002803 0.000605 0.001087
-0.000797 -3e-06 0.002175
-0.000776 -3e-06 0.002189
-0.000756 -4e-06 0.002203
-0.000736 -5e-06 0.002218
-0.002829 0.000608 0.001018
-0.001596 0.000677 0.002056
-0.001702 -6e-06 0.001533
-0.001682 -7e-06 0.001547
-0.001663 -8e-06 0.001563
-0.001643 -8e-06 0.001577
-0.001622 -8e-06 0.001591
-0.001627 0.000664 0.002149
-0.002252 0.000498 0.001975
-0.002167 0.000531 0.001966
-0.002297 0.000662 0.001613
-0.001454 -7e-06 0.001694
-0.001432 -6e-06 0.001705
-0.001581 0.00075 0.00201
-0.002284 0.000689 0.001937
-0.002311 0.000519 0.001929
-0.001571 0.000749 0.001936
-0.001288 -7e-06 0.0018
-0.002361 0.000557 0.001746
-0.00212 0.000604 0.001958
-0.002277 0.000547 0.001965
-0.002252 0.000553 0.001975
-0.001164 -7e-06 0.001881
-0.001144 -7e-06 0.001895
-0.001041 -8e-06 0.001962
-0.001021 -9e-06 0.001977
-0.000999 -8e-06 0.001988
-0.000977 -7e-06 0.002
-0.002295 0.000519 0.001947
-0.000812 -8e-06 0.002107
-0.000791 -7e-06 0.00212
-0.00077 -7e-06 0.002133
-0.00075 -8e-06 0.002147
-0.000729 -8e-06 0.002161
-0.000708 -7e-06 0.002173
-0.000686 -6e-06 0.002184
-0.002362 0.000475 0.001746
-0.002209 0.000711 0.001153
-0.001673 -8e-06 0.001487
-0.001654 -9e-06 0.001503
-0.00163 -7e-06 0.001512
-0.00161 -7e-06 0.001526
-0.001579 0.000728 0.00191
-0.00157 0.000722 0.001935
-0.002238 0.00073 0.001145
-0.002295 0.000492 0.001947
-0.002278 0.000492 0.001965
-0.002357 0.00052 0.001871
-0.002367 0.00066 0.001847
-0.002377 0.000664 0.001823
-0.002295 0.000546 0.001947
-0.002372 0.000494 0.001852
-0.002119 0.000523 0.001957
-0.00234 0.000657 0.001888
-0.002334 0.000688 0.001883
-0.001579 0.000754 0.00191
-0.001285 -1.3e-05 0.001749
-0.001265 -1.3e-05 0.001763
-0.001244 -1.4e-05 0.001777
-0.001223 -1.3e-05 0.00179
-0.001202 -1.4e-05 0.001803
-0.002225 0.000732 0.001951
-0.001161 -1.4e-05 0.00183
-0.00114 -1.4e-05 0.001843
-0.00112 -1.4e-05 0.001856
-0.001099 -1.4e-05 0.00187
-0.001078 -1.3e-05 0.001882
-0.001014 -1.3e-05 0.00192
-0.000993 -1.2e-05 0.001933
-0.000845 -1e-05 0.002022
-0.000823 -8e-06 0.002032
-0.000802 -8e-06 0.002046
-0.000781 -9e-06 0.002058
-0.000759 -7e-06 0.002071
-0.000738 -7e-06 0.002083
-0.000718 -7e-06 0.002097
-0.000698 -7e-06 0.002111
-0.000675 -5e-06 0.002121
-0.000653 -5e-06 0.002134
-0.001627 0.000638 0.002148
-0.002326 0.000492 0.001909
-0.001623 -1e-05 0.001456
-0.001604 -1.2e-05 0.001472
-0.001585 -1.3e-05 0.001487
-0.002252 0.000525 0.001975
-0.002277 0.00052 0.001965
-0.002362 0.000529 0.001746
-0.002381 0.000508 0.001794
-0.00231 0.000492 0.001928
-0.002342 0.00052 0.00189
-0.002373 0.000521 0.001852
-0.002378 0.000673 0.001791
-0.002264 0.000691 0.001953
-0.001386 -2e-05 0.001633
-0.001366 -2.1e-05 0.001647
-0.001346 -2.1e-05 0.001662
-0.001325 -2.1e-05 0.001675
-0.001305 -2.2e-05 0.00169
-0.001285 -2.3e-05 0.001704
-0.001265 -2.3e-05 0.001718
-0.001245 -2.3e-05 0.001732
-0.001224 -2.4e-05 0.001746
-0.001204 -2.4e-05 0.001759
-0.001183 -2.4e-05 0.001772
-0.001162 -2.4e-05 0.001785
-0.001141 -2.4e-05 0.001799
-0.00112 -2.3e-05 0.001811
-0.001099 -2.3e-05 0.001825
-0.001079 -2.3e-05 0.001838
-0.001058 -2.3e-05 0.001851
-0.001036 -2.3e-05 0.001864
-0.001016 -2.3e-05 0.001877
-0.000994 -2.2e-05 0.001889
-0.000973 -2.2e-05 0.001902
-0.000823 -1.8e-05 0.001987
-0.000801 -1.7e-05 0.001999
-0.00078 -1.6e-05 0.002011
-0.000758 -1.5e-05 0.002023
-0.000693 -1.3e-05 0.002059
-0.000672 -1.2e-05 0.00207
-0.000649 -1.1e-05 0.002081
-0.000628 -1e-05 0.002094
-0.000606 -1e-05 0.002105
-0.002356 0.000731 0.001804
-0.001613 0.000656 0.002104
-0.001606 0.000731 0.001869
-0.002269 0.000725 0.001924
-0.002373 0.000439 0.001852
-0.002358 0.000438 0.001871
-0.002342 0.000438 0.00189
-0.002327 0.000438 0.00191
-0.002311 0.000437 0.001929
-0.002295 0.000437 0.001947
-0.002278 0.000438 0.001965
-0.002252 0.000444 0.001975
-0.002211 0.000459 0.001972
-0.002167 0.000476 0.001966
-0.002119 0.000496 0.001957
-0.002071 0.000515 0.001948
-0.001606 0.000704 0.001869
-0.001591 0.000703 0.001888
-0.001579 0.0007 0.00191
-0.001571 0.000695 0.001936
-0.001568 0.000687 0.001966
-0.001577 0.000671 0.002007
-0.001597 0.000649 0.002057
-0.001613 0.000629 0.002103
-0.001627 0.00061 0.002148
-0.001637 0.000594 0.00219
-0.001643 0.00058 0.002228
-0.001649 0.000566 0.002266
-0.002276 0.000662 0.001145
-0.002238 0.000675 0.001145
-0.002208 0.000684 0.001153
-0.002185 0.000689 0.001164
-0.002165 0.000691 0.001179
-0.002149 0.00069 0.001198
-0.002795 0.000724 0.000277
-0.002823 0.000694 0.000929
-0.00262 0.000694 0.001165
-0.002821 0.000579 0.001041
-0.002204 0.000677 0.001461
-0.002232 0.000657 0.001502
-0.002519 0.000709 0.001173
-0.002362 0.000448 0.001746
-0.002382 0.000426 0.001794
-0.002385 0.000414 0.00183
-0.002373 0.000412 0.001852
-0.002358 0.000411 0.001871
-0.002342 0.000411 0.001891
-0.002327 0.00041 0.00191
-0.002311 0.00041 0.001929
-0.002295 0.00041 0.001948
-0.002278 0.000411 0.001965
-0.002252 0.000417 0.001975
-0.002211 0.000432 0.001972
-0.002167 0.000449 0.001966
-0.002119 0.000469 0.001957
-0.002072 0.000488 0.001948
-0.002016 0.000513 0.001932
-0.001623 0.000676 0.001851
