-0.002233 -9e-06 0.000866
-0.002061 -3.3e-05 0.000392
-0.002349 -9e-06 -0.000312
-0.002345 -8e-06 -0.000288
0.000783 -2.4e-05 0.001985
0.00076 -2.5e-05 0.001993
-0.002312 -7e-06 -9.4e-05
-0.002306 -5e-06 -7e-05
-0.002301 -5e-06 -4.6e-05
-0.002298 -5e-06 -2.1e-05
-0.00297 0.000528 2.5e-05
-0.002292 -6e-06 2.8e-05
-0.002289 -6e-06 5.2e-05
-0.002286 -6e-06 7.7e-05
-0.002283 -7e-06 0.000101
-0.00228 -8e-06 0.000126
-0.002277 -7e-06 0.00015
-0.002273 -7e-06 0.000174
-0.002891 0.00051 -0.000808
-0.002896 0.000509 -0.000784
-0.002802 0.000588 -0.000647
-0.002792 0.000629 -7.4e-05
-0.002256 -6e-06 0.000296
-0.002254 -8e-06 0.000321
-0.002251 -8e-06 0.000345
-0.002241 -7e-06 0.000394
-0.002209 -6e-06 0.000588
-0.002206 -6e-06 0.000613
-0.002201 -6e-06 0.000637
-0.002065 -3.3e-05 0.000367
-0.002188 -5e-06 0.00071
-0.002182 -4e-06 0.000734
-0.002181 -5e-06 0.000758
-0.002178 -5e-06 0.000783
-0.002175 -5e-06 0.000807
-0.002172 -5e-06 0.000832
-0.002069 -3.3e-05 0.000343
-0.002865 0.000562 -0.000891
-0.002281 -6e-06 -0.000298
-0.002279 -6e-06 -0.000273
-0.002275 -6e-06 -0.000249
-0.002272 -7e-06 -0.000224
0.000736 -2.5e-05 0.002001
0.000713 -2.5e-05 0.002009
0.00069 -2.5e-05 0.002017
-0.002263 -9e-06 -0.000126
-0.00226 -9e-06 -0.000102
-0.002421 0.000759 -0.000297
-0.002938 0.00054 6e-06
-0.002237 -7e-06 2e-05
-0.002237 -9e-06 4.4e-05
-0.002233 -9e-06 6.9e-05
-0.002214 -8e-06 0.00019
-0.002939 0.000568 3e-06
-0.002157 -8e-06 0.00058
-0.002152 -8e-06 0.000604
-0.002129 -9e-06 0.000775
-0.002124 -9e-06 0.0008
-0.002121 -9e-06 0.000824
-0.002115 -8e-06 0.000848
-0.0021 -6e-06 0.000921
-0.002094 -5e-06 0.000945
-0.002223 -7e-06 -0.000282
-0.002222 -9e-06 -0.000257
-0.002217 -8e-06 -0.000233
-0.002204 -8e-06 -0.000135
-0.002199 -8e-06 -0.000111
-0.003003 0.00046 7.2e-05
-0.002737 0.000513 -0.000588
-0.002876 0.000541 -0.000856
-0.002188 -1e-05 -1.3e-05
-0.002184 -9e-06 1.2e-05
-0.002181 -1e-05 3.6e-05
-0.00218 -1.1e-05 6.1e-05
-0.002883 0.000539 -0.000832
-0.002935 0.000487 6e-06
-0.002968 0.000582 2.5e-05
-0.002167 -1.2e-05 0.000158
-0.002164 -1.2e-05 0.000183
-0.002161 -1.2e-05 0.000207
-0.002891 0.000429 -0.000808
-0.002862 0.000712 -0.000829
-0.002877 0.000513 -0.000856
-0.001417 0.000618 -0.002353
-0.002853 0.000618 -0.000912
-0.002105 -1.2e-05 0.000573
-0.002102 -1.1e-05 0.000597
-0.002071 -9e-06 0.000767
-0.002067 -9e-06 0.000791
-0.002062 -1e-05 0.00084
-0.002059 -1e-05 0.000865
-0.002055 -1e-05 0.000889
-0.002051 -9e-06 0.000913
-0.00205 -1.1e-05 0.000938
-0.002427 0.000706 -0.000248
-0.00242 0.000707 -0.000272
-0.00217 -9e-06 -0.00029
-0.002169 -1.1e-05 -0.000265
-0.002167 -1.1e-05 -0.00024
-0.002793 0.000575 -7.4e-05
-0.002592 0.000635 -0.000146
-0.002829 0.00052 -0.000675
-0.002845 0.000717 -0.000877
-0.002833 0.000721 -0.0009
-0.002867 0.00057 -3.4e-05
-0.002653 0.000663 -0.00013
-0.00263 0.000646 -0.000975
-0.002799 0.000581 -0.000942
-0.002144 -1.7e-05 5e-06
-0.002141 -1.8e-05 3e-05
-0.00214 -1.9e-05 5.5e-05
-0.002138 -2e-05 7.9e-05
-0.002134 -2e-05 0.000104
-0.002132 -2e-05 0.000128
-0.002129 -2.1e-05 0.000153
-0.002126 -2.1e-05 0.000177
-0.002123 -2.1e-05 0.000202
-0.002119 -2.1e-05 0.000226
-0.002116 -2.1e-05 0.00025
-0.002112 -2.1e-05 0.000275
-0.00211 -2.2e-05 0.000299
-0.002106 -2.2e-05 0.000324
-0.002102 -2.2e-05 0.000348
-0.002098 -2.2e-05 0.000372
-0.002095 -2.2e-05 0.000397
-0.002091 -2.1e-05 0.000421
-0.002086 -2.1e-05 0.000445
-0.002083 -2.1e-05 0.00047
-0.002078 -2.1e-05 0.000494
-0.002074 -2.1e-05 0.000518
-0.00207 -2e-05 0.000542
-0.002065 -2e-05 0.000567
-0.002059 -1.9e-05 0.000591
-0.002009 -1.2e-05 0.000832
-0.002004 -1.1e-05 0.000856
-0.001999 -1.1e-05 0.00088
-0.001994 -1e-05 0.000905
-0.002831 0.000531 -5.4e-05
-0.002416 0.000707 -0.000296
-0.002487 0.000666 -0.00043
-0.002829 0.000493 -0.000675
-0.002897 0.000456 -0.000759
-0.002752 0.000592 -9.3e-05
-0.00283 0.000558 -5.4e-05
-0.002857 0.000505 -0.000704
-0.00242 0.000734 -0.000272
-0.002449 0.000713 -0.0004
-0.003002 0.000515 7.2e-05
-0.00283 0.000586 -5.4e-05
-0.002591 0.00069 -0.000146
-0.002478 0.00074 -0.00018
-0.002856 0.000714 -0.000853
-0.002108 -2.9e-05 2.5e-05
-0.002105 -3e-05 4.9e-05
-0.002103 -3e-05 7.4e-05
-0.0021 -3.1e-05 9.8e-05
-0.002097 -3.1e-05 0.000123
-0.002095 -3.2e-05 0.000148
-0.002092 -3.2e-05 0.000172
-0.00209 -3.3e-05 0.000197
-0.002087 -3.3e-05 0.000221
-0.002083 -3.3e-05 0.000245
-0.00208 -3.3e-05 0.00027
-0.002076 -3.3e-05 0.000294
-0.002073 -3.3e-05 0.000319
-0.002698 0.000533 -0.000558
-0.002652 0.000557 -0.000527
-0.002603 0.000581 -0.000496
-0.00255 0.000608 -0.000464
-0.002487 0.000639 -0.00043
-0.002446 0.00066 -0.0004
-0.002427 0.00067 -0.000372
-0.002418 0.000676 -0.000346
-0.002414 0.000679 -0.000321
-0.002416 0.00068 -0.000296
-0.00242 0.00068 -0.000272
-0.002427 0.000678 -0.000248
-0.002437 0.000675 -0.000225
-0.002453 0.000669 -0.000202
-0.002477 0.000659 -0.00018
-0.002654 0.000581 -0.00013
-0.002707 0.000558 -0.000112
-0.002753 0.000537 -9.3e-05
-0.002793 0.00052 -7.4e-05
-0.002831 0.000504 -5.4e-05
-0.00291 0.00047 -1.5e-05
-0.002937 0.000459 6e-06
-0.002967 0.000446 2.7e-05
-0.002993 0.000436 4.8e-05
-0.003002 0.000433 7.2e-05
-0.003003 0.000434 9.7e-05
-0.003002 0.000436 0.000122
-0.002405 0.00074 -0.000983
-0.002584 0.000665 -0.000981
-0.002305 0.000747 -0.001316
-0.002833 0.000623 -0.00093
-0.002484 0.000664 -0.001638
-0.002877 0.000405 -0.000856
-0.002884 0.000403 -0.000832
-0.002891 0.000401 -0.000808
-0.002897 0.0004 -0.000784
-0.002897 0.000402 -0.000759
-0.00288 0.000411 -0.000732
-0.002857 0.000424 -0.000704
-0.002829 0.000438 -0.000675
-0.0028 0.000453 -0.000647
-0.002771 0.000469 -0.000618
-0.002737 0.000486 -0.000588
-0.002697 0.000507 -0.000558
-0.002651 0.00053 -0.000527
-0.002601 0.000555 -0.000495
-0.002549 0.000581 -0.000463
-0.002487 0.000611 -0.00043
-0.002445 0.000633 -0.0004
-0.002427 0.000643 -0.000372
-0.002418 0.000649 -0.000346
-0.002414 0.000652 -0.000321
-0.002415 0.000653 -0.000296
-0.00242 0.000653 -0.000272
-0.002426 0.000651 -0.000248
-0.002436 0.000648 -0.000224
-0.002453 0.000642 -0.000202
-0.002476 0.000632 -0.00018
-0.002525 0.000611 -0.000162
-0.002595 0.00058 -0.000146
-0.002654 0.000554 -0.00013
-0.002706 0.000531 -0.000112
-0.002753 0.00051 -9.3e-05
-0.002793 0.000493 -7.4e-05
-0.00283 0.000477 -5.4e-05
-0.002911 0.000443 -1.8e-05
-0.002939 0.000431 6e-06
-0.002967 0.000419 2.7e-05
-0.002994 0.000408 4.8e-05
-0.003003 0.000406 7.2e-05
-0.003003 0.000407 9.7e-05
-0.003002 0.000409 0.000122
-0.00237 0.000753 -0.000994
-0.001755 0.00058 -0.002026
-0.002486 0.000603 -0.001666
-0.002358 0.000737 -0.001393
-0.002884 0.000686 -0.000765
-0.002877 0.000377 -0.000856
-0.002884 0.000376 -0.000832
-0.002891 0.000374 -0.000808
-0.002897 0.000373 -0.000784
-0.002897 0.000374 -0.000759
-0.00288 0.000384 -0.000732
-0.002857 0.000396 -0.000704
-0.002828 0.000411 -0.000675
-0.002802 0.000425 -0.000647
-0.002772 0.000441 -0.000618
-0.002737 0.000459 -0.000588
-0.002696 0.00048 -0.000558
-0.002652 0.000502 -0.000527
-0.002602 0.000527 -0.000495
-0.002548 0.000554 -0.000463
-0.002445 0.000606 -0.0004
-0.002427 0.000616 -0.000372
-0.002417 0.000622 -0.000346
-0.002414 0.000625 -0.000321
-0.002415 0.000626 -0.000296
-0.002419 0.000626 -0.000272
-0.002426 0.000624 -0.000248
-0.002436 0.000621 -0.000224
-0.002453 0.000615 -0.000202
-0.002476 0.000605 -0.00018
-0.002527 0.000583 -0.000162
-0.002593 0.000553 -0.000146
-0.002655 0.000526 -0.00013
-0.002707 0.000503 -0.000112
-0.002752 0.000484 -9.3e-05
-0.002793 0.000466 -7.4e-05
-0.00283 0.00045 -5.4e-05
-0.002904 0.000418 -1.4e-05
-0.002936 0.000405 6e-06
-0.002968 0.000392 2.7e-05
-0.002993 0.000381 4.8e-05
-0.003003 0.000378 7.2e-05
-0.003003 0.00038 9.7e-05
-0.003002 0.000382 0.000122
-0.002295 0.000725 -0.001311
-0.002759 0.000623 -0.000951
-0.001812 0.000515 -0.002267
-0.002675 0.00071 -0.000968
-0.002877 0.00035 -0.000856
-0.002884 0.000348 -0.000832
-0.002891 0.000347 -0.000808
-0.002897 0.000346 -0.000784
-0.002897 0.000347 -0.000759
-0.00288 0.000357 -0.000732
-0.002856 0.00037 -0.000704
-0.002829 0.000384 -0.000675
-0.002801 0.000399 -0.000647
-0.002773 0.000414 -0.000618
-0.002737 0.000432 -0.000588
-0.002696 0.000453 -0.000558
-0.002651 0.000475 -0.000527
-0.002603 0.000499 -0.000496
-0.002548 0.000527 -0.000463
-0.002444 0.000579 -0.0004
-0.002426 0.000589 -0.000372
-0.002417 0.000595 -0.000346
-0.002414 0.000598 -0.000321
-0.002415 0.000599 -0.000296
-0.002419 0.000599 -0.000272
-0.002426 0.000597 -0.000248
-0.002437 0.000594 -0.000224
-0.002453 0.000587 -0.000202
-0.002477 0.000578 -0.00018
-0.002526 0.000556 -0.000162
-0.002594 0.000526 -0.000146
-0.002656 0.000498 -0.00013
-0.002707 0.000476 -0.000112
-0.002751 0.000457 -9.3e-05
-0.002793 0.000439 -7.4e-05
-0.00283 0.000423 -5.4e-05
-0.002904 0.000392 -1.7e-05
-0.002936 0.000378 6e-06
-0.002968 0.000365 2.7e-05
-0.002994 0.000354 4.8e-05
-0.003002 0.000351 7.2e-05
-0.003003 0.000353 9.7e-05
-0.003002 0.000355 0.000122
-0.002359 0.000682 -0.001393
-0.002313 0.000748 -0.001292
-0.002886 0.000621 -0.000819
-0.002387 0.000744 -0.001433
-0.002877 0.000323 -0.000856
-0.002884 0.000321 -0.000832
-0.002891 0.00032 -0.000808
-0.002897 0.000318 -0.000784
-0.002897 0.00032 -0.000759
-0.00288 0.00033 -0.000732
-0.002856 0.000342 -0.000704
-0.00283 0.000356 -0.000675
-0.002802 0.000371 -0.000647
-0.002772 0.000387 -0.000618
-0.002738 0.000404 -0.000588
-0.002697 0.000425 -0.000558
-0.002652 0.000448 -0.000527
-0.002602 0.000473 -0.000495
-0.002444 0.000552 -0.000399
-0.002426 0.000562 -0.000372
-0.002417 0.000568 -0.000346
-0.002413 0.000571 -0.000321
-0.002415 0.000572 -0.000296
-0.002419 0.000572 -0.000272
-0.002426 0.00057 -0.000248
-0.002436 0.000566 -0.000224
-0.002453 0.00056 -0.000202
-0.002477 0.00055 -0.00018
-0.002528 0.000528 -0.000162
-0.002593 0.000499 -0.000146
-0.002654 0.000472 -0.00013
-0.002707 0.000449 -0.000112
-0.002752 0.000429 -9.3e-05
-0.002792 0.000412 -7.4e-05
-0.00283 0.000396 -5.4e-05
-0.002903 0.000364 -1.4e-05
-0.002936 0.00035 6e-06
-0.002967 0.000338 2.7e-05
-0.002994 0.000327 4.8e-05
-0.003002 0.000324 7.2e-05
-0.003003 0.000326 9.7e-05
-0.003002 0.000327 0.000122
-0.00241 0.000646 -0.00147
-0.002431 0.000754 -0.000994
-0.002892 0.000624 -0.000795
-0.002583 0.000747 -0.000981
-0.002877 0.000296 -0.000856
-0.002884 0.000294 -0.000832
-0.002891 0.000292 -0.000808
-0.002897 0.000291 -0.000784
-0.002897 0.000293 -0.000759
-0.00288 0.000302 -0.000732
-0.002855 0.000316 -0.000704
-0.00283 0.000329 -0.000675
-0.002802 0.000344 -0.000647
-0.002773 0.000359 -0.000618
-0.002735 0.000378 -0.000588
-0.002697 0.000398 -0.000558
-0.002651 0.000421 -0.000527
-0.0026 0.000447 -0.000495
-0.002549 0.000472 -0.000463
-0.002486 0.000503 -0.00043
-0.002444 0.000524 -0.000399
-0.002426 0.000535 -0.000372
-0.002417 0.000541 -0.000346
-0.002413 0.000544 -0.000321
-0.002415 0.000545 -0.000296
-0.002419 0.000544 -0.000272
-0.002426 0.000543 -0.000248
-0.002436 0.000539 -0.000224
-0.002453 0.000533 -0.000202
-0.002477 0.000523 -0.00018
-0.002596 0.000471 -0.000146
-0.002654 0.000445 -0.000129
-0.002707 0.000422 -0.000112
-0.002752 0.000402 -9.3e-05
-0.002792 0.000385 -7.4e-05
-0.002832 0.000367 -5.4e-05
-0.002876 0.000348 -3.5e-05
-0.002902 0.000338 -1.4e-05
-0.002937 0.000323 6e-06
-0.002968 0.00031 2.7e-05
-0.002994 0.000299 4.8e-05
-0.003002 0.000297 7.2e-05
-0.003003 0.000298 9.7e-05
-0.003002 0.0003 0.000122
-0.002107 -2.9e-05 -5e-06
-0.002446 0.000617 -0.001539
-0.002675 0.000656 -0.000968
-0.001785 0.000733 -0.002116
-0.002831 0.000651 -0.00093
-0.002877 0.000269 -0.000856
-0.002884 0.000267 -0.000832
-0.002891 0.000265 -0.000808
-0.002897 0.000264 -0.000784
-0.002897 0.000266 -0.000759
-0.002879 0.000276 -0.000732
-0.002856 0.000288 -0.000704
-0.00283 0.000302 -0.000675
-0.0028 0.000318 -0.000646
-0.002774 0.000331 -0.000618
-0.002737 0.00035 -0.000588
-0.002697 0.000371 -0.000558
-0.002651 0.000394 -0.000527
-0.0026 0.00042 -0.000495
-0.00255 0.000444 -0.000463
-0.002486 0.000476 -0.00043
-0.002444 0.000497 -0.000399
-0.002426 0.000508 -0.000372
-0.002416 0.000514 -0.000346
-0.002413 0.000517 -0.000321
-0.002415 0.000518 -0.000296
-0.002419 0.000517 -0.000272
-0.002425 0.000516 -0.000248
-0.002436 0.000512 -0.000224
-0.002453 0.000506 -0.000202
-0.002478 0.000496 -0.00018
-0.002105 -2.9e-05 -3e-05
-0.002655 0.000417 -0.00013
-0.002707 0.000394 -0.000112
-0.002752 0.000375 -9.3e-05
-0.002793 0.000357 -7.4e-05
-0.002874 0.000322 -3.5e-05
-0.002903 0.00031 -1.4e-05
-0.002938 0.000295 6e-06
-0.002968 0.000283 2.7e-05
-0.002993 0.000272 4.8e-05
-0.003002 0.00027 7.2e-05
-0.003003 0.000271 9.7e-05
-0.003002 0.000273 0.000122
-0.002463 0.000604 -0.001573
-0.002834 0.000596 -0.000931
-0.002488 0.000608 -0.001639
-0.002885 0.000649 -0.000818
-0.002452 0.000692 -0.001704
-0.002884 0.00024 -0.000832
-0.002891 0.000238 -0.000808
-0.002897 0.000237 -0.000784
-0.002897 0.000239 -0.000759
-0.002881 0.000248 -0.000732
-0.002855 0.000261 -0.000703
-0.002829 0.000275 -0.000675
-0.002801 0.00029 -0.000646
-0.002774 0.000304 -0.000618
-0.002737 0.000323 -0.000588
-0.002697 0.000344 -0.000558
-0.002651 0.000367 -0.000527
-0.002599 0.000393 -0.000495
-0.002551 0.000417 -0.000464
-0.002487 0.000449 -0.00043
-0.002445 0.00047 -0.000399
-0.002426 0.00048 -0.000372
-0.002416 0.000486 -0.000346
-0.002413 0.000489 -0.000321
-0.002415 0.00049 -0.000296
-0.002419 0.00049 -0.000272
-0.002425 0.000489 -0.000248
-0.002437 0.000485 -0.000224
-0.002453 0.000478 -0.000202
-0.002478 0.000469 -0.00018
-0.002595 0.000417 -0.000146
-0.002655 0.00039 -0.00013
-0.002708 0.000367 -0.000112
-0.002753 0.000347 -9.3e-05
-0.002792 0.000331 -7.3e-05
-0.002103 -3e-05 -5.4e-05
-0.002941 0.000267 6e-06
-0.002969 0.000255 2.7e-05
-0.002993 0.000245 4.8e-05
-0.003002 0.000243 7.2e-05
-0.003002 0.000244 9.7e-05
-0.003002 0.000246 0.000122
-0.002488 0.00058 -0.001639
-0.002854 0.00059 -0.000913
-0.002463 0.000631 -0.001573
-0.002478 0.000646 -0.001607
-0.001796 0.000689 -0.002158
-0.002884 0.000212 -0.000832
-0.002891 0.000211 -0.000808
-0.002897 0.00021 -0.000784
-0.002896 0.000212 -0.000759
-0.00288 0.000221 -0.000732
-0.002855 0.000234 -0.000703
-0.002829 0.000248 -0.000675
-0.0028 0.000263 -0.000646
-0.002773 0.000278 -0.000618
-0.002738 0.000296 -0.000588
-0.002697 0.000316 -0.000558
-0.00265 0.00034 -0.000527
-0.0026 0.000365 -0.000495
-0.00255 0.00039 -0.000463
-0.002486 0.000422 -0.00043
-0.002445 0.000443 -0.000399
-0.002426 0.000453 -0.000372
-0.002417 0.000459 -0.000346
-0.002414 0.000462 -0.000321
-0.002415 0.000463 -0.000296
-0.002419 0.000463 -0.000272
-0.002425 0.000462 -0.000248
-0.002437 0.000458 -0.000224
-0.002453 0.000451 -0.000202
-0.002478 0.000442 -0.00018
-0.002101 -3e-05 -7.9e-05
-0.002594 0.00039 -0.000146
-0.002655 0.000363 -0.00013
-0.002708 0.00034 -0.000112
-0.002752 0.00032 -9.3e-05
-0.002098 -3.1e-05 -0.000104
-0.002939 0.000241 6e-06
-0.002968 0.000228 2.7e-05
-0.002993 0.000218 4.9e-05
-0.003001 0.000216 7.2e-05
-0.003002 0.000217 9.7e-05
-0.003002 0.000219 0.000122
-0.003 0.000221 0.000147
-0.002096 -3.1e-05 -0.000128
-0.002093 -3.2e-05 -0.000153
-0.002443 0.000532 -0.001737
-0.002799 0.000608 -0.000942
-0.002447 0.000644 -0.00154
-0.002464 0.000658 -0.001574
-0.002459 0.000661 -0.001708
-0.002884 0.000185 -0.000832
-0.002892 0.000183 -0.000808
-0.002896 0.000183 -0.000784
-0.002895 0.000185 -0.000759
-0.002881 0.000193 -0.000732
-0.002855 0.000207 -0.000703
-0.002829 0.000221 -0.000675
-0.002801 0.000236 -0.000646
-0.002773 0.00025 -0.000618
-0.002737 0.000269 -0.000588
-0.002696 0.00029 -0.000558
-0.002651 0.000313 -0.000527
-0.002601 0.000337 -0.000495
-0.002488 0.000394 -0.00043
-0.002444 0.000416 -0.000399
-0.002426 0.000426 -0.000372
-0.002417 0.000432 -0.000346
-0.002414 0.000435 -0.000321
-0.002415 0.000436 -0.000296
-0.002419 0.000436 -0.000272
-0.002425 0.000434 -0.000248
-0.002437 0.00043 -0.000224
-0.002453 0.000424 -0.000202
-0.002478 0.000414 -0.00018
-0.002593 0.000363 -0.000146
-0.002655 0.000336 -0.00013
-0.002707 0.000313 -0.000112
-0.002752 0.000293 -9.3e-05
-0.002091 -3.2e-05 -0.000177
-0.002872 0.000242 -3.4e-05
-0.002903 0.000228 -1.4e-05
-0.002938 0.000214 6e-06
-0.002968 0.000201 2.7e-05
-0.002992 0.000191 4.9e-05
-0.003 0.000189 7.2e-05
-0.003002 0.00019 9.7e-05
-0.003002 0.000192 0.000122
-0.003001 0.000194 0.000147
-0.002189 0.000636 -0.001781
-0.002632 0.000673 -0.000976
-0.002478 0.000619 -0.001607
-0.002447 0.000671 -0.00154
-0.002472 0.000659 -0.001686
-0.002884 0.000158 -0.000831
-0.00289 0.000157 -0.000808
-0.002894 0.000157 -0.000783
-0.002894 0.000158 -0.000758
-0.002881 0.000166 -0.000732
-0.002855 0.00018 -0.000703
-0.002829 0.000194 -0.000675
-0.002802 0.000208 -0.000647
-0.002773 0.000223 -0.000618
-0.002737 0.000242 -0.000588
-0.002697 0.000262 -0.000558
-0.00265 0.000286 -0.000527
-0.0026 0.000311 -0.000495
-0.00255 0.000336 -0.000463
-0.002445 0.000388 -0.000399
-0.002426 0.000399 -0.000372
-0.002417 0.000405 -0.000346
-0.002414 0.000408 -0.000321
-0.002415 0.000409 -0.000296
-0.002419 0.000408 -0.000272
-0.002425 0.000407 -0.000248
-0.002437 0.000403 -0.000224
-0.002453 0.000397 -0.000202
-0.002478 0.000387 -0.00018
-0.002594 0.000335 -0.000146
-0.002654 0.000309 -0.000129
-0.002708 0.000285 -0.000112
-0.002088 -3.2e-05 -0.000202
-0.002868 0.000216 -3.4e-05
-0.002903 0.000201 -1.4e-05
-0.002937 0.000187 6e-06
-0.002968 0.000174 2.7e-05
-0.002991 0.000165 4.9e-05
-0.002999 0.000163 7.3e-05
-0.003001 0.000163 9.7e-05
-0.003002 0.000165 0.000122
-0.003001 0.000167 0.000147
-0.002274 0.000743 -0.000978
-0.002247 0.000751 -0.000993
-0.002584 0.000611 -0.000981
-0.002329 0.000729 -0.001353
-0.002238 0.000589 -0.001789
-0.001815 0.000459 -0.002289
-0.002484 0.000563 -0.001675
-0.002882 0.000132 -0.000831
-0.002888 0.000131 -0.000807
-0.002891 0.000131 -0.000783
-0.002892 0.000132 -0.000758
-0.00288 0.000139 -0.000731
-0.002855 0.000153 -0.000703
-0.002828 0.000167 -0.000675
-0.002801 0.000181 -0.000646
-0.002772 0.000196 -0.000618
-0.002737 0.000215 -0.000588
-0.002696 0.000235 -0.000558
-0.002648 0.000259 -0.000526
-0.002599 0.000284 -0.000495
-0.002548 0.00031 -0.000463
-0.002486 0.00034 -0.00043
-0.002445 0.000361 -0.000399
-0.002426 0.000372 -0.000372
-0.002417 0.000378 -0.000346
-0.002414 0.00038 -0.000321
-0.002415 0.000381 -0.000296
-0.002419 0.000381 -0.000272
-0.002425 0.00038 -0.000248
-0.002436 0.000376 -0.000224
-0.002453 0.00037 -0.000202
-0.002478 0.00036 -0.00018
-0.002085 -3.2e-05 -0.000226
-0.002594 0.000308 -0.000146
-0.002653 0.000282 -0.000129
-0.002707 0.000259 -0.000112
-0.002833 0.000204 -5.4e-05
-0.002867 0.000189 -3.4e-05
-0.0029 0.000176 -1.3e-05
-0.002935 0.000161 7e-06
-0.002967 0.000148 2.7e-05
-0.002989 0.000138 4.9e-05
-0.002997 0.000136 7.3e-05
-0.003 0.000137 9.7e-05
-0.003 0.000138 0.000122
-0.00218 0.00076 -0.001098
-0.002873 0.000591 -0.000867
-0.00178 0.000557 -0.002411
-0.002759 0.00065 -0.000951
-0.002759 0.000678 -0.000951
-0.002883 0.000682 -0.000791
-0.002878 0.000107 -0.000831
-0.002883 0.000106 -0.000807
-0.002887 0.000106 -0.000782
-0.002887 0.000107 -0.000757
-0.002879 0.000113 -0.000731
-0.002855 0.000125 -0.000703
-0.002828 0.00014 -0.000675
-0.002802 0.000154 -0.000646
-0.002772 0.000169 -0.000618
-0.002738 0.000187 -0.000588
-0.002697 0.000208 -0.000558
-0.00265 0.000231 -0.000526
-0.002599 0.000257 -0.000495
-0.002548 0.000282 -0.000463
-0.002486 0.000313 -0.00043
-0.002445 0.000334 -0.000399
-0.002426 0.000344 -0.000372
-0.002417 0.00035 -0.000346
-0.002414 0.000353 -0.000321
-0.002415 0.000354 -0.000296
-0.002419 0.000354 -0.000272
-0.002426 0.000353 -0.000248
-0.002436 0.000349 -0.000224
-0.002453 0.000343 -0.000202
-0.002478 0.000333 -0.00018
-0.002596 0.000281 -0.000146
-0.002654 0.000255 -0.000129
-0.002706 0.000232 -0.000111
-0.002831 0.000178 -5.4e-05
-0.002869 0.000161 -3.4e-05
-0.002902 0.000148 -1.4e-05
-0.002937 0.000132 6e-06
-0.002967 0.00012 2.7e-05
-0.002986 0.000113 5e-05
-0.002993 0.000111 7.4e-05
-0.002996 0.000111 9.8e-05
-0.002997 0.000113 0.000123
-0.002082 -3.3e-05 -0.000251
-0.002488 0.000526 -0.001639
-0.002388 0.000689 -0.001433
-0.002631 0.0007 -0.000975
-0.00272 0.000692 -0.000961
-0.002718 0.00072 -0.00096
-0.002871 8.3e-05 -0.00083
-0.002876 8.2e-05 -0.000806
-0.00288 8.2e-05 -0.000781
-0.00288 8.3e-05 -0.000756
-0.002875 8.7e-05 -0.000731
-0.002856 9.8e-05 -0.000703
-0.002828 0.000113 -0.000675
-0.002801 0.000127 -0.000646
-0.002773 0.000141 -0.000618
-0.002738 0.00016 -0.000588
-0.002697 0.00018 -0.000558
-0.002649 0.000204 -0.000526
-0.002599 0.00023 -0.000495
-0.002548 0.000255 -0.000463
-0.002486 0.000286 -0.00043
-0.002445 0.000307 -0.000399
-0.002426 0.000317 -0.000372
-0.002417 0.000323 -0.000346
-0.002414 0.000326 -0.000321
-0.002415 0.000327 -0.000296
-0.002419 0.000327 -0.000272
-0.002426 0.000325 -0.000248
-0.002436 0.000322 -0.000224
-0.002453 0.000316 -0.000202
-0.002478 0.000306 -0.00018
-0.002596 0.000253 -0.000146
-0.002654 0.000227 -0.000129
-0.002707 0.000204 -0.000112
-0.002759 0.000181 -9.4e-05
-0.002794 0.000166 -7.4e-05
-0.002832 0.00015 -5.4e-05
-0.002868 0.000135 -3.4e-05
-0.002906 0.000118 -1.4e-05
-0.002939 0.000105 6e-06
-0.002965 9.4e-05 2.8e-05
-0.00298 8.9e-05 5e-05
-0.002986 8.7e-05 7.4e-05
-0.002989 8.7e-05 9.9e-05
-0.00299 8.8e-05 0.000124
-0.002259 0.000694 -0.001268
-0.002429 0.000658 -0.001506
-0.001784 0.000706 -0.002115
-0.002463 0.000685 -0.001574
-0.002675 0.000737 -0.000968
-0.002474 0.000701 -0.001606
-0.002865 6e-05 -0.000804
-0.002869 6e-05 -0.00078
-0.00287 6.1e-05 -0.000755
-0.002868 6.4e-05 -0.00073
-0.002854 7.2e-05 -0.000703
-0.002828 8.5e-05 -0.000675
-0.002802 9.9e-05 -0.000646
-0.002773 0.000114 -0.000618
-0.002738 0.000133 -0.000588
-0.002698 0.000153 -0.000558
-0.002648 0.000178 -0.000526
-0.0026 0.000202 -0.000495
-0.002548 0.000228 -0.000463
-0.002487 0.000259 -0.00043
-0.002445 0.00028 -0.000399
-0.002426 0.00029 -0.000372
-0.002417 0.000296 -0.000346
-0.002413 0.000299 -0.000321
-0.002415 0.0003 -0.000296
-0.002419 0.0003 -0.000272
-0.002426 0.000298 -0.000248
-0.002436 0.000295 -0.000224
-0.002453 0.000289 -0.000202
-0.002478 0.000278 -0.00018
-0.002524 0.000258 -0.000161
-0.002594 0.000227 -0.000146
-0.002655 0.0002 -0.000129
-0.002708 0.000176 -0.000112
-0.002752 0.000157 -9.3e-05
-0.002793 0.00014 -7.3e-05
-0.002831 0.000123 -5.4e-05
-0.00287 0.000107 -3.4e-05
-0.002907 9.1e-05 -1.4e-05
-0.002937 7.8e-05 6e-06
-0.00296 6.9e-05 2.8e-05
-0.002971 6.5e-05 5.2e-05
-0.002977 6.4e-05 7.6e-05
-0.002979 6.5e-05 0.0001
-0.00298 6.6e-05 0.000125
-0.002179 0.00075 -0.001152
-0.002476 0.000603 -0.001688
-0.002472 0.000507 -0.001697
-0.002889 0.000652 -0.000793
-0.002798 0.000663 -0.000942
-0.002844 0.000677 -0.000908
-0.002851 4e-05 -0.000802
-0.002855 3.9e-05 -0.000778
-0.002857 4e-05 -0.000753
-0.002856 4.2e-05 -0.000728
-0.002848 4.7e-05 -0.000702
-0.002828 5.8e-05 -0.000675
-0.002801 7.3e-05 -0.000646
-0.002772 8.8e-05 -0.000618
-0.002737 0.000106 -0.000588
-0.002697 0.000126 -0.000558
-0.002547 0.000201 -0.000463
-0.002487 0.000231 -0.00043
-0.002445 0.000253 -0.000399
-0.002426 0.000263 -0.000372
-0.002417 0.000269 -0.000346
-0.002413 0.000272 -0.00032
-0.002415 0.000273 -0.000296
-0.002419 0.000272 -0.000272
-0.002426 0.000271 -0.000248
-0.002436 0.000268 -0.000224
-0.002453 0.000261 -0.000201
-0.002478 0.000251 -0.00018
-0.002525 0.000231 -0.000162
-0.002594 0.0002 -0.000146
-0.002654 0.000173 -0.000129
-0.002711 0.000148 -0.000112
-0.002752 0.00013 -9.3e-05
-0.002793 0.000113 -7.3e-05
-0.002831 9.6e-05 -5.4e-05
-0.002874 7.8e-05 -3.5e-05
-0.002904 6.5e-05 -1.4e-05
-0.002933 5.3e-05 7e-06
-0.002951 4.6e-05 2.9e-05
-0.002959 4.4e-05 5.3e-05
-0.002964 4.3e-05 7.8e-05
-0.002966 4.4e-05 0.000102
-0.002968 4.5e-05 0.000127
-0.002967 4.6e-05 0.000152
-0.002327 0.000649 -0.001352
-0.002388 0.000717 -0.001433
-0.002484 0.000631 -0.001665
-0.002475 0.000631 -0.001687
-0.002582 0.00072 -0.00098
-0.002472 0.000561 -0.001697
-0.002759 0.000705 -0.000951
-0.002283 0.000517 -0.001796
-0.002837 2.1e-05 -0.000775
-0.002839 2.1e-05 -0.000751
-0.002839 2.3e-05 -0.000726
-0.002835 2.6e-05 -0.0007
-0.002823 3.4e-05 -0.000674
-0.002799 4.6e-05 -0.000646
-0.002772 6.1e-05 -0.000617
-0.002738 7.8e-05 -0.000588
-0.002697 9.9e-05 -0.000558
-0.002079 -3.3e-05 -0.000275
-0.002546 0.000174 -0.000463
-0.002486 0.000204 -0.00043
-0.002444 0.000226 -0.000399
-0.002426 0.000236 -0.000372
-0.002417 0.000242 -0.000346
-0.002413 0.000245 -0.00032
-0.002415 0.000246 -0.000296
-0.002419 0.000245 -0.000272
-0.002426 0.000244 -0.000248
-0.002436 0.00024 -0.000224
-0.002453 0.000234 -0.000202
-0.002478 0.000224 -0.00018
-0.002528 0.000202 -0.000162
-0.002595 0.000172 -0.000146
-0.002711 0.000121 -0.000112
-0.002754 0.000102 -9.3e-05
-0.002793 8.5e-05 -7.3e-05
-0.002831 6.9e-05 -5.4e-05
-0.002868 5.3e-05 -3.4e-05
-0.002899 4e-05 -1.4e-05
-0.002923 3e-05 8e-06
-0.002949 2.5e-05 0.000104
-0.00295 2.6e-05 0.000129
-0.002951 2.7e-05 0.000154
-0.00295 2.9e-05 0.000179
-0.002295 0.00067 -0.001311
-0.002391 0.000643 -0.001791
-0.00241 0.0007 -0.00147
-0.002446 0.000563 -0.001539
-0.002463 0.00055 -0.001573
-0.002477 0.000538 -0.001606
-0.002487 0.000635 -0.001639
-0.001758 0.000742 -0.002028
-0.002474 0.000691 -0.00166
-0.002478 0.000694 -0.001635
-0.002797 0.00069 -0.000941
-0.002429 0.000712 -0.001506
-0.002813 9e-06 -0.000698
-0.002807 1.3e-05 -0.000672
-0.002792 2.2e-05 -0.000645
-0.002769 3.5e-05 -0.000617
-0.002695 7.3e-05 -0.000557
-0.002651 9.5e-05 -0.000527
-0.002546 0.000147 -0.000463
-0.002485 0.000178 -0.00043
-0.002444 0.000198 -0.000399
-0.002426 0.000209 -0.000372
-0.002417 0.000215 -0.000346
-0.002413 0.000218 -0.00032
-0.002415 0.000219 -0.000296
-0.002419 0.000218 -0.000272
-0.002426 0.000217 -0.000248
-0.002436 0.000213 -0.000224
-0.002453 0.000207 -0.000201
-0.002478 0.000197 -0.00018
-0.002527 0.000175 -0.000162
-0.002596 0.000145 -0.000146
-0.002711 9.4e-05 -0.000112
-0.002753 7.5e-05 -9.3e-05
-0.002793 5.8e-05 -7.3e-05
-0.002831 4.2e-05 -5.4e-05
-0.002862 2.9e-05 -3.3e-05
-0.002888 1.8e-05 -1.2e-05
-0.002921 9e-06 8.3e-05
-0.002925 9e-06 0.000108
-0.002927 1e-05 0.000132
-0.002928 1.1e-05 0.000157
-0.002928 1.3e-05 0.000182
-0.001512 0.000654 -0.002408
-0.0024 0.000716 -0.00098
-0.002328 0.000747 -0.000975
-0.000996 0.00067 -0.002566
-0.002751 2e-06 -0.000838
-0.002757 1e-06 -0.000814
-0.002761 1e-06 -0.00079
-0.002447 0.000725 -0.00154
-0.002429 0.000685 -0.001506
-0.002718 0.000639 -0.00096
-0.002759 0.000569 -0.000951
-0.002866 0.000535 -0.000891
-0.002856 0.000535 -0.000913
-0.002834 0.000541 -0.000931
-0.002732 2.7e-05 -0.000587
-0.002694 4.6e-05 -0.000557
-0.002649 6.9e-05 -0.000526
-0.002598 9.4e-05 -0.000495
-0.002546 0.000121 -0.000463
-0.002486 0.00015 -0.00043
-0.002444 0.000171 -0.000399
-0.002426 0.000182 -0.000372
-0.002416 0.000188 -0.000346
-0.002413 0.000191 -0.00032
-0.002415 0.000191 -0.000296
-0.002419 0.000191 -0.000272
-0.002426 0.00019 -0.000248
-0.002436 0.000186 -0.000224
-0.002453 0.00018 -0.000201
-0.002479 0.000169 -0.00018
-0.002526 0.000149 -0.000162
-0.002595 0.000118 -0.000146
-0.002656 9.1e-05 -0.000129
-0.002709 6.7e-05 -0.000112
-0.002753 4.8e-05 -9.3e-05
-0.002791 3.2e-05 -7.3e-05
-0.002825 1.7e-05 -5.4e-05
-0.002849 7e-06 -3.1e-05
-0.002862 3e-06 -8e-06
-0.002886 1e-06 0.000113
-0.002889 0.0 0.000137
-0.002892 0.0 0.000162
-0.002892 2e-06 0.000187
-0.002892 3e-06 0.000212
-0.002675 0.000601 -0.000968
-0.002631 0.000619 -0.000975
-0.002413 0.000613 -0.001776
-0.002303 0.000755 -0.000991
-0.002407 0.000671 -0.001771
-0.002696 -1e-06 -0.000856
-0.0027 -1e-06 -0.000831
-0.002702 -0.0 -0.000807
-0.002705 -0.0 -0.000782
-0.002708 -0.0 -0.000758
-0.002718 0.000666 -0.00096
-0.002388 0.000635 -0.001433
-0.002798 0.000554 -0.000942
-0.002328 0.000676 -0.001352
-0.002725 1e-06 -0.000611
-0.002715 7e-06 -0.000585
-0.00269 2.1e-05 -0.000557
-0.002649 4.2e-05 -0.000526
-0.002599 6.7e-05 -0.000495
-0.002544 9.4e-05 -0.000462
-0.002485 0.000124 -0.000429
-0.002443 0.000145 -0.000399
-0.002425 0.000155 -0.000372
-0.002416 0.000161 -0.000346
-0.002413 0.000163 -0.00032
-0.002415 0.000164 -0.000296
-0.002419 0.000164 -0.000271
-0.002425 0.000163 -0.000248
-0.002436 0.000159 -0.000224
-0.002453 0.000153 -0.000201
-0.002479 0.000142 -0.00018
-0.002596 9e-05 -0.000146
-0.002656 6.3e-05 -0.000129
-0.002707 4.1e-05 -0.000111
-0.002749 2.3e-05 -9.2e-05
-0.002781 9e-06 -7.3e-05
-0.002809 -2e-06 -2.6e-05
-0.002813 -1e-06 -1e-06
-0.002833 -1e-06 0.000145
-0.002837 -1e-06 0.000169
-0.002839 -0.0 0.000194
-0.00284 0.0 0.000219
-0.002359 0.000655 -0.001393
-0.002789 0.000722 -0.000938
-0.000997 0.000659 -0.002522
-0.002463 0.000577 -0.001573
-0.002411 0.000641 -0.001775
-0.00264 -2e-06 -0.000848
-0.002644 -2e-06 -0.000824
-0.002648 -3e-06 -0.0008
-0.002652 -3e-06 -0.000775
-0.002655 -3e-06 -0.000751
-0.002657 -2e-06 -0.000726
-0.002873 0.000564 -0.000867
-0.002663 0.0 -0.000652
-0.002669 -1e-06 -0.000628
-0.002674 -2e-06 -0.000604
-0.002675 -1e-06 -0.000579
-0.00267 3e-06 -0.000554
-0.002647 1.6e-05 -0.000526
-0.002598 4e-05 -0.000494
-0.002545 6.6e-05 -0.000462
-0.002483 9.7e-05 -0.000429
-0.002443 0.000117 -0.000399
-0.002425 0.000128 -0.000372
-0.002416 0.000134 -0.000346
-0.002413 0.000136 -0.00032
-0.002414 0.000137 -0.000296
-0.002418 0.000137 -0.000271
-0.002425 0.000136 -0.000248
-0.002436 0.000132 -0.000224
-0.002453 0.000126 -0.000201
-0.002478 0.000115 -0.00018
-0.002075 -3.3e-05 -0.000299
-0.002703 1.6e-05 -0.000111
-0.002732 4e-06 -9e-05
-0.002745 -1e-06 -6.7e-05
-0.002071 -3.2e-05 -0.000324
-0.00277 -2e-06 0.000104
-0.002773 -1e-06 0.000128
-0.002782 -1e-06 0.000202
-0.002786 -1e-06 0.000226
-0.002753 0.000735 -0.000949
-0.002466 0.000733 -0.001603
-0.002719 0.000612 -0.00096
-0.002675 0.000629 -0.000968
-0.002328 0.000703 -0.001353
-0.002589 -2e-06 -0.000792
-0.002593 -2e-06 -0.000767
-0.002596 -2e-06 -0.000743
-0.002601 -3e-06 -0.000719
-0.002605 -3e-06 -0.000694
-0.002609 -3e-06 -0.00067
-0.002612 -3e-06 -0.000646
-0.002616 -4e-06 -0.000621
-0.00262 -4e-06 -0.000597
-0.002625 -3e-06 -0.000548
-0.002621 0.0 -0.000522
-0.002597 1.3e-05 -0.000494
-0.002546 3.9e-05 -0.000463
-0.002482 7e-05 -0.000429
-0.002443 9.1e-05 -0.000399
-0.002425 0.0001 -0.000372
-0.002416 0.000106 -0.000345
-0.002413 0.000109 -0.00032
-0.002414 0.00011 -0.000296
-0.002418 0.00011 -0.000271
-0.002425 0.000108 -0.000248
-0.002436 0.000105 -0.000224
-0.002453 9.8e-05 -0.000201
-0.002478 8.8e-05 -0.00018
-0.002599 3.4e-05 -0.000147
-0.002653 1e-05 -0.000129
-0.002679 -0.0 -0.000108
-0.00269 -4e-06 -8.4e-05
-0.002694 -4e-06 -6e-05
-0.002696 -3e-06 -3.5e-05
-0.002068 -3.2e-05 -0.000348
-0.002064 -3.2e-05 -0.000372
-0.00206 -3.2e-05 -0.000397
-0.002056 -3.1e-05 -0.000421
-0.002052 -3.1e-05 -0.000445
-0.002712 -3e-06 0.000112
-0.002716 -2e-06 0.000136
-0.002727 -2e-06 0.000209
-0.00273 -2e-06 0.000233
-0.002733 -2e-06 0.000258
-0.002048 -3.1e-05 -0.00047
-0.002326 0.000501 -0.001799
-0.002512 -4e-06 -0.000955
-0.002043 -3e-05 -0.000494
-0.002478 0.000591 -0.001607
-0.002388 0.000662 -0.001433
-0.002383 0.000742 -0.001026
-0.002268 0.000744 -0.001272
-0.002539 -2e-06 -0.000735
-0.002541 -2e-06 -0.00071
-0.002545 -2e-06 -0.000686
-0.002548 -2e-06 -0.000662
-0.002553 -3e-06 -0.000637
-0.002558 -3e-06 -0.000613
-0.00256 -3e-06 -0.000589
-0.002038 -2.9e-05 -0.000518
-0.002569 -4e-06 -0.00054
-0.002573 -4e-06 -0.000516
-0.002571 -2e-06 -0.000491
-0.002549 1e-05 -0.000463
-0.002442 6.4e-05 -0.000399
-0.002425 7.3e-05 -0.000372
-0.002415 7.9e-05 -0.000345
-0.002412 8.2e-05 -0.00032
-0.002414 8.3e-05 -0.000295
-0.002418 8.3e-05 -0.000271
-0.002425 8.1e-05 -0.000248
-0.002435 7.8e-05 -0.000224
-0.002452 7.1e-05 -0.000201
-0.002477 6.1e-05 -0.00018
-0.002622 -2e-06 -0.000125
-0.002628 -3e-06 -0.000101
-0.002631 -3e-06 -7.6e-05
-0.002634 -3e-06 -5.2e-05
-0.002638 -3e-06 -2.7e-05
-0.002035 -2.9e-05 -0.000542
-0.00267 -3e-06 0.000217
-0.002675 -3e-06 0.000241
-0.002679 -3e-06 0.000265
-0.002326 0.000528 -0.001799
-0.002452 -3e-06 -0.000947
-0.002457 -4e-06 -0.000923
-0.002469 -4e-06 -0.00085
-0.002472 -5e-06 -0.000825
-0.002477 -5e-06 -0.000801
-0.002483 -3e-06 -0.000727
-0.002486 -3e-06 -0.000703
-0.00249 -3e-06 -0.000679
-0.002495 -4e-06 -0.000654
-0.002498 -4e-06 -0.00063
-0.002518 -4e-06 -0.000484
-0.00252 -3e-06 -0.000459
-0.002443 3.6e-05 -0.000399
-0.002424 4.6e-05 -0.000371
-0.002415 5.3e-05 -0.000345
-0.002412 5.5e-05 -0.00032
-0.002413 5.6e-05 -0.000295
-0.002418 5.6e-05 -0.000271
-0.002425 5.4e-05 -0.000248
-0.002434 5.1e-05 -0.000224
-0.002452 4.4e-05 -0.000201
-0.002477 3.4e-05 -0.00018
-0.00257 -4e-06 -9.3e-05
-0.002574 -4e-06 -6.9e-05
-0.002578 -4e-06 -4.4e-05
-0.002579 -3e-06 -2e-05
-0.002799 0.000527 -0.000942
-0.002605 -5e-06 0.000126
-0.002607 -5e-06 0.000151
-0.002614 -3e-06 0.000224
-0.002618 -4e-06 0.000249
-0.002619 -3e-06 0.000273
-0.002385 -2e-06 -0.000988
-0.002397 -6e-06 -0.000964
-0.002405 -3e-06 -0.000866
-0.002409 -3e-06 -0.000842
-0.002413 -4e-06 -0.000817
-0.002415 -3e-06 -0.000793
-0.002418 -4e-06 -0.000768
-0.00241 0.000591 -0.00147
-0.002086 0.000707 -0.001758
-0.002205 0.000763 -0.001028
-0.00263 0.000592 -0.000975
-0.002184 0.000763 -0.001073
-0.002532 0.000632 -0.000985
-0.002445 -5e-06 -0.000598
-0.002449 -5e-06 -0.000574
-0.002453 -5e-06 -0.000549
-0.002456 -6e-06 -0.000525
-0.002461 -6e-06 -0.000501
-0.002329 0.000634 -0.001803
-0.002471 -8e-06 -0.000452
-0.002468 -4e-06 -0.000427
-0.002445 8e-06 -0.000399
-0.002423 2e-05 -0.000371
-0.002414 2.6e-05 -0.000345
-0.002411 2.8e-05 -0.00032
-0.002413 2.9e-05 -0.000295
-0.002417 2.9e-05 -0.000271
-0.002425 2.8e-05 -0.000248
-0.002452 1.7e-05 -0.000201
-0.002216 0.000721 -0.001222
-0.00253 -5e-06 1.2e-05
-0.002532 -5e-06 3.7e-05
-0.002545 -5e-06 0.000134
-0.002546 -4e-06 0.000159
-0.002866 0.000713 -0.00081
-0.002429 0.000577 -0.001505
-0.002336 -6e-06 -0.000981
-0.002341 -7e-06 -0.000957
-0.00234 -5e-06 -0.000932
-0.002345 -5e-06 -0.000908
-0.001795 0.000662 -0.002157
-0.002283 0.000626 -0.001795
-0.002873 0.000537 -0.000867
-0.002364 -5e-06 -0.000761
-0.002371 -6e-06 -0.000737
-0.002373 -6e-06 -0.000713
-0.002223 0.000759 -0.001009
-0.002387 -5e-06 -0.00059
-0.002392 -6e-06 -0.000566
-0.002396 -6e-06 -0.000542
-0.002398 -5e-06 -0.000517
-0.0024 -4e-06 -0.000492
-0.002404 -5e-06 -0.000468
-0.002407 -5e-06 -0.000444
-0.002411 -5e-06 -0.000419
-0.002414 -5e-06 -0.000395
-0.00241 0.0 -0.000345
-0.00241 2e-06 -0.00032
-0.002409 5e-06 -0.000295
-0.002415 3e-06 -0.000271
-0.002421 1e-06 -0.000247
-0.002431 -2e-06 -0.000223
-0.002221 0.000745 -0.001224
-0.002475 -7e-06 1.9e-05
-0.002477 -6e-06 4.4e-05
-0.00248 -6e-06 6.8e-05
-0.002259 0.000721 -0.001268
-0.002296 0.000697 -0.001311
-0.002287 -1e-05 -0.000974
-0.002285 -7e-06 -0.000949
-0.002285 -6e-06 -0.000924
-0.002287 -5e-06 -0.0009
-0.002286 -3e-06 -0.000875
-0.002438 0.000726 -0.001698
-0.002447 0.00059 -0.001539
-0.002488 0.000553 -0.001639
-0.002477 0.000564 -0.001606
-0.002304 -4e-06 -0.000753
-0.002309 -4e-06 -0.000729
-0.002313 -5e-06 -0.000704
0.000666 -2.5e-05 0.002024
0.000643 -2.5e-05 0.002032
-0.002177 0.000756 -0.001124
-0.002531 0.000687 -0.000985
-0.002337 -7e-06 -0.000559
-0.002339 -6e-06 -0.000534
-0.002343 -6e-06 -0.00051
-0.002348 -8e-06 -0.000485
-0.002469 0.000726 -0.001631
-0.002355 -7e-06 -0.000437
-0.00236 -8e-06 -0.000412
-0.002363 -8e-06 -0.000388
-0.002367 -8e-06 -0.000364
-0.00237 -8e-06 -0.000339
-0.002377 -7e-06 -0.00029
-0.00238 -8e-06 -0.000266
-0.002382 -8e-06 -0.000241
-0.002389 -9e-06 -0.000217
-0.00247 0.000658 -0.000985
-0.002469 0.000713 -0.000984
-0.002718 0.000558 -0.00096
-0.002462 0.000724 -0.001655
-0.002456 0.000643 -0.001716
-0.002429 0.000631 -0.001505
-0.00217 -1e-05 0.000334
-0.002414 -5e-06 2.8e-05
-0.002416 -4e-06 5.2e-05
-0.00242 -5e-06 7.7e-05
-0.00217 -1e-05 0.000309
-0.002223 -5e-06 -0.000941
-0.002226 -5e-06 -0.000916
-0.002233 -7e-06 -0.000892
-0.002237 -7e-06 -0.000868
-0.002242 -8e-06 -0.000844
-0.002247 -9e-06 -0.00082
-0.00225 -9e-06 -0.000795
-0.002251 -8e-06 -0.000771
-0.002387 0.000608 -0.001433
-0.002197 0.000761 -0.001052
0.000619 -2.5e-05 0.002039
0.000596 -2.5e-05 0.002047
-0.002165 -1e-05 0.000285
-0.00228 -6e-06 -0.000526
-0.002285 -6e-06 -0.000502
-0.002289 -7e-06 -0.000477
-0.002293 -5e-06 -0.000428
-0.002294 -4e-06 -0.000404
-0.002299 -5e-06 -0.000379
-0.002304 -6e-06 -0.000355
-0.002307 -6e-06 -0.000331
-0.002316 -5e-06 -0.000257
-0.002319 -5e-06 -0.000233
-0.002164 -1.1e-05 0.00026
-0.002359 -8e-06 1e-05
-0.002362 -8e-06 3.5e-05
-0.002364 -7e-06 5.9e-05
-0.002162 -1.2e-05 0.000236
-0.00247 0.000686 -0.000984
-0.002718 0.000585 -0.00096
-0.002175 -4e-06 -0.000835
-0.00218 -5e-06 -0.000811
-0.002183 -4e-06 -0.000786
-0.002189 -6e-06 -0.000762
-0.002192 -6e-06 -0.000738
-0.002872 0.00072 -0.000759
-0.002367 0.000485 -0.001802
-0.002212 -5e-06 -0.000591
-0.002216 -6e-06 -0.000567
-0.002219 -6e-06 -0.000543
-0.002871 0.000716 -0.000785
-0.002228 -7e-06 -0.000494
-0.00223 -7e-06 -0.000469
-0.002238 -6e-06 -0.000421
-0.002241 -6e-06 -0.000396
-0.002245 -7e-06 -0.000372
-0.00225 -8e-06 -0.000348
-0.002254 -8e-06 -0.000323
-0.002256 -7e-06 -0.000299
-0.002154 -1.5e-05 0.000137
-0.002153 -1.5e-05 0.000113
-0.00215 -1.6e-05 8.8e-05
-0.002284 -7e-06 -7.9e-05
-0.002286 -5e-06 -5.4e-05
-0.002289 -5e-06 -3e-05
-0.002292 -5e-06 -5e-06
-0.002293 -4e-06 1.9e-05
-0.002296 -4e-06 4.4e-05
-0.002301 -5e-06 6.8e-05
-0.002321 -5e-06 0.000214
-0.002327 -6e-06 0.000238
-0.002333 -7e-06 0.000262
-0.00241 0.000618 -0.00147
-0.00243 0.000604 -0.001505
-0.002122 -6e-06 -0.000828
-0.002126 -6e-06 -0.000803
-0.002131 -7e-06 -0.000779
-0.002137 -8e-06 -0.000755
-0.002142 -9e-06 -0.000731
-0.002153 -1e-05 -0.000658
-0.002153 -8e-06 -0.000633
-0.00216 -8e-06 -0.000584
-0.002162 -8e-06 -0.00056
-0.002165 -8e-06 -0.000535
-0.002171 -9e-06 -0.000511
-0.002142 -1.8e-05 -1e-05
-0.00214 -1.9e-05 -3.5e-05
-0.00223 -8e-06 -7.2e-05
-0.002234 -9e-06 -4.7e-05
-0.002237 -8e-06 -2.3e-05
-0.002241 -8e-06 1e-06
-0.002261 -1e-05 0.000123
-0.002261 -9e-06 0.000148
-0.002138 -1.9e-05 -5.9e-05
-0.002265 -7e-06 0.000197
-0.002267 -7e-06 0.000222
-0.002269 -6e-06 0.000246
-0.002273 -6e-06 0.00027
-0.002136 -2e-05 -8.4e-05
-0.002133 -2e-05 -0.000108
-0.002065 -1.1e-05 -0.000895
-0.002065 -1e-05 -0.00087
-0.002067 -9e-06 -0.000845
-0.002071 -9e-06 -0.000821
-0.002074 -9e-06 -0.000796
-0.002075 -8e-06 -0.000772
-0.002079 -8e-06 -0.000747
-0.002084 -9e-06 -0.000723
-0.002086 -8e-06 -0.000699
-0.002089 -9e-06 -0.000674
-0.002095 -9e-06 -0.00065
-0.002098 -9e-06 -0.000625
-0.002444 0.000559 -0.001738
-0.00211 -1e-05 -0.000553
-0.002112 -1e-05 -0.000528
-0.002117 -1.1e-05 -0.000504
-0.00212 -1e-05 -0.000479
-0.002125 -1.1e-05 -0.000455
-0.002128 -1.1e-05 -0.000431
-0.002131 -1.1e-05 -0.000406
-0.002136 -1.2e-05 -0.000382
-0.002139 -1.2e-05 -0.000358
-0.002143 -1.2e-05 -0.000333
-0.002147 -1.2e-05 -0.000309
-0.00215 -1.2e-05 -0.000285
-0.002157 -1.2e-05 -0.000236
-0.00216 -1.2e-05 -0.000211
-0.002162 -1.1e-05 -0.000187
-0.002165 -1.1e-05 -0.000162
-0.002174 -1.2e-05 -8.9e-05
-0.002177 -1.1e-05 -6.5e-05
-0.002181 -1e-05 -4e-05
-0.002195 -9e-06 8.2e-05
-0.002197 -9e-06 0.000107
-0.0022 -9e-06 0.000131
-0.002203 -8e-06 0.000156
-0.002209 -8e-06 0.000205
-0.002214 -9e-06 0.000229
-0.002218 -9e-06 0.000253
-0.002221 -9e-06 0.000278
-0.002224 -9e-06 0.000302
-0.002487 0.000575 -0.001666
-0.002423 0.00067 -0.001753
-0.002007 -1e-05 -0.000862
-0.002011 -1e-05 -0.000838
-0.002014 -1e-05 -0.000813
-0.002021 -1.1e-05 -0.000789
-0.002026 -1.2e-05 -0.000765
-0.002032 -1.3e-05 -0.000741
-0.002036 -1.4e-05 -0.000717
-0.002041 -1.4e-05 -0.000692
-0.002046 -1.5e-05 -0.000668
-0.002049 -1.6e-05 -0.000644
-0.002815 0.000714 -0.000922
-0.002185 0.000742 -0.001181
-0.002759 0.000542 -0.000951
-0.002069 -1.8e-05 -0.000547
-0.002073 -1.9e-05 -0.000523
-0.002078 -1.9e-05 -0.000498
-0.002082 -2e-05 -0.000474
-0.002087 -2e-05 -0.00045
-0.00209 -2e-05 -0.000426
-0.002094 -2.1e-05 -0.000401
-0.002098 -2.1e-05 -0.000377
-0.002102 -2.1e-05 -0.000353
-0.002105 -2.1e-05 -0.000328
-0.002109 -2.1e-05 -0.000304
-0.002113 -2.1e-05 -0.000279
-0.002116 -2.1e-05 -0.000255
-0.002119 -2.1e-05 -0.000231
-0.002122 -2.1e-05 -0.000206
-0.002125 -2.1e-05 -0.000182
-0.002128 -2.1e-05 -0.000157
-0.00213 -2e-05 -0.000133
-0.002856 0.000508 -0.000913
-0.002866 0.000508 -0.000891
-0.002873 0.000509 -0.000867
-0.001779 0.000476 -0.00241
-0.001698 0.000583 -0.002466
-0.001783 0.000652 -0.002115
-0.002396 0.000559 -0.001794
-0.002414 0.000585 -0.001777
-0.002284 0.000652 -0.001797
-0.002387 0.000673 -0.001787
-0.002488 0.000499 -0.001639
-0.002477 0.00051 -0.001606
-0.002462 0.000522 -0.001573
-0.002446 0.000536 -0.00154
-0.002429 0.00055 -0.001505
-0.00241 0.000564 -0.00147
-0.002386 0.000581 -0.001432
-0.002358 0.000601 -0.001393
-0.002327 0.000622 -0.001352
-0.002296 0.000643 -0.001311
-0.002259 0.000667 -0.001268
-0.002217 0.000693 -0.001222
-0.002184 0.000716 -0.00118
-0.002173 0.000726 -0.001149
-0.002171 0.000732 -0.001121
-0.002175 0.000736 -0.001096
-0.002182 0.000737 -0.001072
-0.002193 0.000736 -0.00105
-0.002206 0.000735 -0.001029
-0.002223 0.000731 -0.001009
-0.002245 0.000725 -0.000992
-0.002274 0.000716 -0.000978
-0.002533 0.000604 -0.000985
-0.002583 0.000584 -0.000981
-0.00263 0.000565 -0.000975
-0.002675 0.000547 -0.000968
-0.002718 0.00053 -0.00096
-0.002759 0.000515 -0.000951
-0.002799 0.000499 -0.000942
-0.002834 0.000486 -0.000931
-0.002856 0.000481 -0.000913
-0.002866 0.000481 -0.000891
-0.002873 0.000482 -0.000867
-0.002397 0.000477 -0.001795
-0.001815 0.00048 -0.002375
-0.002367 0.00054 -0.001802
-0.002282 0.000599 -0.001795
-0.002395 0.000586 -0.001794
-0.002237 0.000671 -0.001789
-0.002453 0.000672 -0.001713
-0.002488 0.000472 -0.001639
-0.002477 0.000483 -0.001606
-0.002462 0.000495 -0.001573
-0.002446 0.000508 -0.00154
-0.002429 0.000522 -0.001505
-0.00241 0.000537 -0.00147
-0.002387 0.000554 -0.001432
-0.002358 0.000574 -0.001393
-0.002326 0.000595 -0.001352
-0.002296 0.000616 -0.001311
-0.002258 0.00064 -0.001268
-0.002216 0.000667 -0.001222
-0.002183 0.000689 -0.00118
-0.002173 0.000699 -0.001149
-0.002171 0.000705 -0.001121
-0.002175 0.000708 -0.001096
-0.002182 0.00071 -0.001072
-0.002193 0.000709 -0.00105
-0.002206 0.000708 -0.001029
-0.002223 0.000704 -0.001009
-0.002245 0.000698 -0.000992
-0.002274 0.000689 -0.000978
-0.002402 0.000634 -0.000981
-0.002471 0.000603 -0.000985
-0.002532 0.000577 -0.000985
-0.002584 0.000556 -0.000981
-0.00263 0.000538 -0.000975
-0.002674 0.00052 -0.000967
-0.002718 0.000503 -0.00096
-0.00276 0.000487 -0.000951
-0.002798 0.000473 -0.000941
-0.002834 0.000459 -0.000931
-0.002856 0.000453 -0.000913
-0.002866 0.000454 -0.000891
-0.002873 0.000455 -0.000867
-0.001708 0.000687 -0.001728
-0.000997 0.000694 -0.002432
-0.002326 0.000555 -0.001799
-0.002325 0.000583 -0.001799
-0.002189 0.000664 -0.00178
-0.00181 0.00069 -0.002232
-0.002488 0.000439 -0.001667
-0.002488 0.000445 -0.001639
-0.002476 0.000456 -0.001606
-0.002462 0.000468 -0.001573
-0.002446 0.000481 -0.001539
-0.002429 0.000495 -0.001505
-0.00241 0.00051 -0.00147
-0.002386 0.000527 -0.001432
-0.002358 0.000546 -0.001393
-0.002326 0.000568 -0.001352
-0.002295 0.000589 -0.001311
-0.002259 0.000613 -0.001268
-0.002213 0.000641 -0.001221
-0.002183 0.000661 -0.00118
-0.002172 0.000672 -0.001148
-0.00217 0.000678 -0.001121
-0.002175 0.000681 -0.001095
-0.002182 0.000682 -0.001072
-0.002193 0.000682 -0.00105
-0.002206 0.000681 -0.001028
-0.002222 0.000677 -0.001009
-0.002244 0.000671 -0.000992
-0.002273 0.000662 -0.000978
-0.002403 0.000606 -0.000981
-0.00247 0.000577 -0.000984
-0.002532 0.00055 -0.000985
-0.002583 0.000529 -0.000981
-0.00263 0.000511 -0.000974
-0.002675 0.000493 -0.000968
-0.002719 0.000475 -0.00096
-0.00276 0.00046 -0.000951
-0.002798 0.000445 -0.000941
-0.002834 0.000432 -0.000931
-0.002856 0.000426 -0.000913
-0.002866 0.000426 -0.000891
-0.002874 0.000428 -0.000867
-0.001687 0.000701 -0.00245
-0.00172 0.000703 -0.001932
-0.002282 0.000572 -0.001794
-0.002366 0.000567 -0.001802
-0.00177 0.000725 -0.002071
-0.002237 0.000698 -0.001789
-0.002489 0.000411 -0.001667
-0.002488 0.000418 -0.001639
-0.002476 0.000429 -0.001606
-0.002461 0.000441 -0.001573
-0.002445 0.000455 -0.001539
-0.002429 0.000468 -0.001505
-0.002409 0.000483 -0.00147
-0.002387 0.000499 -0.001433
-0.002357 0.00052 -0.001392
-0.002326 0.000541 -0.001352
-0.002294 0.000562 -0.00131
-0.002259 0.000585 -0.001268
-0.002214 0.000613 -0.001221
-0.002182 0.000635 -0.00118
-0.002172 0.000645 -0.001148
-0.00217 0.000651 -0.001121
-0.002174 0.000654 -0.001095
-0.002182 0.000655 -0.001072
-0.002193 0.000655 -0.00105
-0.002205 0.000654 -0.001028
-0.002222 0.00065 -0.001009
-0.002244 0.000644 -0.000992
-0.002273 0.000634 -0.000978
-0.002325 0.000613 -0.000974
-0.002533 0.000523 -0.000985
-0.002583 0.000502 -0.00098
-0.00263 0.000483 -0.000974
-0.002674 0.000466 -0.000967
-0.002719 0.000448 -0.00096
-0.00276 0.000433 -0.000951
-0.002798 0.000418 -0.000941
-0.002834 0.000405 -0.000931
-0.002856 0.000399 -0.000913
-0.002866 0.000399 -0.000891
-0.002873 0.000401 -0.000867
-0.002396 0.000504 -0.001795
-0.001784 0.000625 -0.002115
-0.002139 0.00063 -0.001771
-0.002139 0.000657 -0.00177
-0.002457 0.000615 -0.001717
-0.00219 0.000717 -0.001781
-0.002489 0.000384 -0.001667
-0.002488 0.00039 -0.001639
-0.002475 0.000402 -0.001606
-0.002462 0.000414 -0.001574
-0.002445 0.000427 -0.001539
-0.002429 0.000441 -0.001505
-0.00241 0.000456 -0.00147
-0.002386 0.000473 -0.001432
-0.002357 0.000493 -0.001392
-0.002326 0.000513 -0.001352
-0.002294 0.000535 -0.00131
-0.002259 0.000558 -0.001268
-0.002217 0.000585 -0.001222
-0.002182 0.000607 -0.00118
-0.002171 0.000618 -0.001148
-0.00217 0.000624 -0.00112
-0.002174 0.000627 -0.001095
-0.002182 0.000628 -0.001072
-0.002193 0.000628 -0.00105
-0.002205 0.000626 -0.001028
-0.002222 0.000623 -0.001009
-0.002244 0.000617 -0.000992
-0.002273 0.000607 -0.000977
-0.002326 0.000586 -0.000974
-0.002532 0.000496 -0.000985
-0.002582 0.000476 -0.00098
-0.00263 0.000456 -0.000974
-0.002674 0.000439 -0.000967
-0.002719 0.000421 -0.00096
-0.002759 0.000406 -0.000951
-0.002798 0.000391 -0.000942
-0.002835 0.000378 -0.000931
-0.002856 0.000372 -0.000913
-0.002866 0.000372 -0.000891
-0.002873 0.000373 -0.000867
-0.002457 0.000506 -0.001717
-0.001755 0.000662 -0.002026
-0.002086 0.000652 -0.001758
-0.002086 0.00068 -0.001758
-0.001803 0.000675 -0.002195
-0.001812 0.000717 -0.002232
-0.002489 0.000357 -0.001667
-0.002488 0.000363 -0.001639
-0.002474 0.000375 -0.001606
-0.002461 0.000387 -0.001573
-0.002446 0.0004 -0.00154
-0.002429 0.000414 -0.001505
-0.00241 0.000428 -0.00147
-0.002385 0.000446 -0.001432
-0.002357 0.000466 -0.001392
-0.002326 0.000486 -0.001352
-0.002294 0.000508 -0.00131
-0.002258 0.000531 -0.001267
-0.002215 0.000559 -0.001221
-0.002182 0.00058 -0.00118
-0.002172 0.000591 -0.001148
-0.00217 0.000597 -0.00112
-0.002173 0.0006 -0.001095
-0.002182 0.000601 -0.001072
-0.002192 0.000601 -0.001049
-0.002205 0.000599 -0.001028
-0.002222 0.000596 -0.001009
-0.002244 0.00059 -0.000992
-0.002274 0.00058 -0.000978
-0.002325 0.000559 -0.000974
-0.002402 0.000525 -0.000981
-0.002533 0.000468 -0.000985
-0.002582 0.000448 -0.00098
-0.00263 0.000429 -0.000974
-0.002674 0.000412 -0.000967
-0.002718 0.000394 -0.00096
-0.002759 0.000379 -0.000951
-0.002798 0.000364 -0.000942
-0.002835 0.00035 -0.000931
-0.002856 0.000345 -0.000913
-0.002866 0.000345 -0.000891
-0.002873 0.000346 -0.000867
-0.001807 0.000527 -0.002231
-0.001807 0.000582 -0.002231
-0.001721 0.000729 -0.001933
-0.001808 0.000636 -0.002231
-0.002429 0.000613 -0.001758
-0.001815 0.000425 -0.002376
-0.002489 0.00033 -0.001667
-0.002488 0.000336 -0.001639
-0.002475 0.000348 -0.001606
-0.002461 0.00036 -0.001573
-0.002446 0.000372 -0.00154
-0.002429 0.000386 -0.001505
-0.00241 0.000401 -0.00147
-0.002386 0.000419 -0.001432
-0.002356 0.000439 -0.001392
-0.002326 0.000459 -0.001351
-0.002295 0.00048 -0.001311
-0.002258 0.000504 -0.001267
-0.002215 0.000531 -0.001221
-0.002183 0.000553 -0.00118
-0.002172 0.000564 -0.001148
-0.002169 0.00057 -0.00112
-0.002173 0.000573 -0.001095
