-0.00207 9.3e-05 0.001264
-0.002058 9.4e-05 0.001285
-0.002047 9.4e-05 0.001308
-0.00204 9.2e-05 0.001332
-0.002038 8.7e-05 0.001358
-0.002042 8e-05 0.001387
-0.002054 6.9e-05 0.00142
-0.002086 4.7e-05 0.001461
-0.002123 2.3e-05 0.001506
-0.002464 6.4e-05 0.000415
-0.002435 7.4e-05 0.000428
-0.00241 8.1e-05 0.000444
-0.002392 8.5e-05 0.000463
-0.002379 8.7e-05 0.000484
-0.002369 8.6e-05 0.000507
-0.00294 0.000711 0.000274
-0.002997 0.00064 0.000134
0.000639 -2e-05 0.002022
-0.002792 0.000584 0.000352
-0.002745 0.000618 0.000967
-0.00272 0.000631 0.000939
-0.002979 0.000532 0.000255
-0.002379 0.000711 0.000489
-0.002641 0.000619 0.000852
-0.002669 0.000605 0.000881
-0.002768 0.000552 0.000994
-0.002993 0.000527 0.000233
-0.002387 3e-06 0.000895
-0.002378 3e-06 0.000918
-0.001815 -2.7e-05 0.001038
-0.002313 4e-06 0.001051
-0.002302 4e-06 0.001073
-0.002085 6.3e-05 0.001244
-0.00207 6.6e-05 0.001264
-0.002058 6.7e-05 0.001285
-0.002047 6.7e-05 0.001308
-0.00204 6.5e-05 0.001332
-0.002038 6e-05 0.001358
-0.002042 5.3e-05 0.001387
-0.002055 4.1e-05 0.00142
-0.002091 1.7e-05 0.001464
-0.002463 3.7e-05 0.000415
-0.002435 4.7e-05 0.000428
-0.00241 5.4e-05 0.000444
-0.002392 5.8e-05 0.000463
-0.002378 6e-05 0.000484
-0.002369 5.9e-05 0.000507
-0.002959 0.000704 0.000252
-0.002695 0.000699 0.00091
-0.00272 0.000686 0.000939
-0.002993 0.0005 0.000233
-0.002419 2e-06 0.000693
-0.002404 4e-06 0.000713
-0.001827 -2.8e-05 0.001016
-0.002694 0.000618 0.00091
-0.002997 0.000527 0.000208
-0.002333 4e-06 0.00087
-0.002531 0.000649 0.000761
-0.002301 4e-06 0.000937
-0.00229 5e-06 0.000959
-0.001838 -2.9e-05 0.000994
-0.00227 4e-06 0.001004
-0.00226 4e-06 0.001026
-0.002249 4e-06 0.001048
-0.002239 4e-06 0.001071
-0.002229 3e-06 0.001094
-0.002104 3.1e-05 0.001225
-0.002084 3.6e-05 0.001244
-0.002069 3.9e-05 0.001264
-0.002047 4e-05 0.001308
-0.00204 3.8e-05 0.001332
-0.002038 3.3e-05 0.001358
-0.002047 1.7e-05 0.001381
-0.002053 4e-06 0.001474
-0.00274 0.000572 -6.7e-05
-0.002434 2e-05 0.000428
-0.00241 2.7e-05 0.000444
-0.002392 3.1e-05 0.000463
-0.002378 3.3e-05 0.000484
-0.002368 3.2e-05 0.000506
-0.002362 3e-05 0.000531
-0.003001 0.000504 0.00011
-0.002997 0.000445 0.000208
-0.002954 0.000536 5.3e-05
-0.003 0.000447 0.000159
-0.00237 2e-06 0.00067
-0.002358 1e-06 0.000692
-0.001849 -2.9e-05 0.000972
-0.002721 0.00055 0.000938
-0.002327 1e-06 0.000759
-0.00186 -2.9e-05 0.000949
-0.002305 1e-06 0.000803
-0.002293 2e-06 0.000825
-0.00187 -2.9e-05 0.000927
-0.002484 0.000673 0.000729
-0.002253 2e-06 0.000914
-0.002243 1e-06 0.000937
-0.002222 2e-06 0.000982
-0.002211 2e-06 0.001004
-0.002201 2e-06 0.001026
-0.002189 3e-06 0.001048
-0.00218 2e-06 0.001071
-0.00217 2e-06 0.001093
-0.002101 6e-06 0.001224
-0.002084 9e-06 0.001243
-0.00207 1.1e-05 0.001264
-0.002047 1.2e-05 0.001308
-0.002039 1.1e-05 0.001331
-0.002035 8e-06 0.001356
-0.002003 3e-06 0.00145
-0.001992 3e-06 0.001472
-0.001881 -2.9e-05 0.000905
-0.002738 0.000608 0.000369
-0.002417 2e-06 0.00042
-0.002404 3e-06 0.000441
-0.002388 6e-06 0.000461
-0.002376 7e-06 0.000483
-0.002366 6e-06 0.000506
-0.002359 5e-06 0.000529
-0.002353 3e-06 0.000553
-0.002381 0.000778 -0.000292
-0.003 0.000502 0.000159
-0.002312 3e-06 0.000643
-0.002299 4e-06 0.000665
-0.002279 4e-06 0.000709
-0.002268 3e-06 0.000731
-0.002247 4e-06 0.000776
-0.002236 5e-06 0.000798
-0.002227 4e-06 0.000821
-0.002768 0.000579 0.000995
-0.002668 0.000632 0.000881
-0.002183 4e-06 0.000909
-0.002975 0.0007 0.000205
-0.002978 0.0007 0.00018
-0.002154 4e-06 0.000977
-0.002143 4e-06 0.000999
-0.002134 4e-06 0.001022
-0.002122 4e-06 0.001044
-0.002113 4e-06 0.001067
-0.002102 4e-06 0.001089
-0.002093 4e-06 0.001112
-0.002082 4e-06 0.001134
-0.00205 5e-06 0.001201
-0.002043 3e-06 0.001225
-0.002011 3e-06 0.001291
-0.002679 0.000634 0.000384
-0.002925 0.000713 2.9e-05
-0.002349 4e-06 0.000416
-0.002338 4e-06 0.000438
-0.002328 4e-06 0.000461
-0.002319 4e-06 0.000483
-0.002309 3e-06 0.000506
-0.002296 5e-06 0.000527
-0.001891 -2.9e-05 0.000883
-0.002267 4e-06 0.000595
-0.002258 3e-06 0.000618
-0.002876 0.000494 0.000315
-0.002837 0.000511 0.000334
-0.00223 2e-06 0.000686
-0.00222 2e-06 0.000709
-0.001901 -2.9e-05 0.00086
-0.0022 1e-06 0.000754
-0.002191 0.0 0.000777
-0.002182 -0.0 0.0008
-0.002172 -0.0 0.000823
-0.002161 -0.0 0.000845
-0.002151 -0.0 0.000867
-0.002131 -1e-06 0.000912
-0.002118 1e-06 0.000933
-0.002089 1e-06 0.001001
-0.00207 -1e-06 0.001047
-0.002058 -0.0 0.001069
-0.002048 -1e-06 0.001091
-0.002038 -0.0 0.001113
-0.002027 -0.0 0.001136
-0.001911 -2.9e-05 0.000838
-0.001921 -2.9e-05 0.000815
-0.001971 2e-06 0.001245
-0.00196 3e-06 0.001267
-0.001949 3e-06 0.00129
-0.001938 3e-06 0.001312
-0.001926 3e-06 0.001333
-0.001917 2e-06 0.001356
-0.001875 3e-06 0.001445
-0.001862 5e-06 0.001466
-0.001853 4e-06 0.001489
-0.001843 4e-06 0.001512
-0.002307 3e-06 0.00037
-0.002299 2e-06 0.000393
-0.002574 0.000627 0.000792
-0.002282 1e-06 0.000439
-0.002273 -0.0 0.000462
-0.002264 -0.0 0.000485
-0.002253 0.0 0.000507
-0.002231 1e-06 0.000551
-0.00222 0.0 0.000574
-0.002211 -0.0 0.000596
-0.002201 -0.0 0.000619
-0.00219 0.0 0.000641
-0.002132 4e-06 0.00075
-0.002124 2e-06 0.000773
-0.002112 3e-06 0.000795
-0.002101 4e-06 0.000817
-0.002093 3e-06 0.00084
-0.002083 2e-06 0.000863
-0.002072 3e-06 0.000885
-0.00206 3e-06 0.000906
-0.002009 3e-06 0.001019
-0.002 3e-06 0.001041
-0.001991 2e-06 0.001064
-0.001982 1e-06 0.001087
-0.001931 -2.9e-05 0.000792
-0.001922 0.0 0.001223
-0.001912 0.0 0.001245
-0.001902 -0.0 0.001268
-0.001891 0.0 0.00129
-0.00188 1e-06 0.001312
-0.00187 1e-06 0.001334
-0.00186 0.0 0.001357
-0.001849 0.0 0.001379
-0.001841 -1e-06 0.001402
-0.00183 -0.0 0.001424
-0.001819 -0.0 0.001446
-0.001806 1e-06 0.001468
-0.001795 2e-06 0.00149
-0.001941 -2.8e-05 0.00077
-0.002259 1e-06 0.000347
-0.002249 1e-06 0.00037
-0.002442 0.000749 0.000697
-0.003 0.000612 0.000134
-0.002739 0.000635 0.000369
-0.002187 1e-06 0.000504
-0.002173 3e-06 0.000524
-0.002162 3e-06 0.000547
-0.002152 3e-06 0.000569
-0.002143 2e-06 0.000592
-0.002134 2e-06 0.000615
-0.002544 0.000667 0.000414
-0.002948 0.000518 0.000276
-0.002947 0.000724 5.1e-05
-0.002093 2e-06 0.000705
-0.002083 1e-06 0.000727
-0.002072 2e-06 0.000749
-0.002062 2e-06 0.000772
-0.002052 1e-06 0.000794
-0.002042 1e-06 0.000817
-0.002033 1e-06 0.00084
-0.002023 1e-06 0.000862
-0.002012 1e-06 0.000884
-0.002001 1e-06 0.000906
-0.001991 -0.0 0.000929
-0.00196 0.0 0.000996
-0.00195 1e-06 0.001018
-0.001855 2e-06 0.001219
-0.001845 2e-06 0.001241
-0.001835 2e-06 0.001264
-0.001824 2e-06 0.001286
-0.001814 2e-06 0.001308
-0.001801 3e-06 0.00133
-0.001792 3e-06 0.001353
-0.001783 2e-06 0.001375
-0.001772 2e-06 0.001397
-0.001761 3e-06 0.00142
-0.001752 2e-06 0.001443
-0.001743 1e-06 0.001466
-0.00268 0.000661 0.000385
-0.002193 3e-06 0.000344
-0.002185 1e-06 0.000367
-0.002173 2e-06 0.000389
-0.002876 0.000657 0.000315
-0.002669 0.000659 0.000881
-0.002963 0.000714 7.9e-05
-0.002135 1e-06 0.00048
-0.002126 -0.0 0.000503
-0.002118 -2e-06 0.000526
-0.002108 -2e-06 0.000549
-0.002099 -2e-06 0.000572
-0.002089 -3e-06 0.000594
-0.002079 -3e-06 0.000617
-0.00207 -4e-06 0.00064
-0.002061 -4e-06 0.000663
-0.002051 -4e-06 0.000685
-0.002043 -5e-06 0.000708
-0.002033 -5e-06 0.000731
-0.002022 -5e-06 0.000753
-0.002012 -6e-06 0.000776
-0.002003 -6e-06 0.000799
-0.001994 -6e-06 0.000822
-0.001983 -6e-06 0.000844
-0.001973 -6e-06 0.000866
-0.001963 -6e-06 0.000889
-0.001953 -7e-06 0.000911
-0.001944 -7e-06 0.000934
-0.001933 -7e-06 0.000956
-0.001921 -6e-06 0.000978
-0.001857 -5e-06 0.001111
-0.001845 -5e-06 0.001133
-0.001835 -4e-06 0.001155
-0.001812 -3e-06 0.001199
-0.001801 -3e-06 0.001221
-0.001789 -2e-06 0.001243
-0.001777 -2e-06 0.001264
-0.001766 -1e-06 0.001286
-0.001755 -1e-06 0.001308
-0.001744 -0.0 0.00133
-0.001721 1e-06 0.001374
-0.00195 -2.8e-05 0.000747
-0.002609 0.000636 0.000822
-0.002617 0.000661 0.0004
-0.002694 0.000727 0.00091
-0.00214 -3e-06 0.000346
-0.002133 -4e-06 0.00037
-0.002838 0.000673 0.000334
-0.002694 0.000645 0.00091
-0.002107 -7e-06 0.00044
-0.002098 -8e-06 0.000463
-0.00209 -9e-06 0.000486
-0.002082 -1e-05 0.000509
-0.002072 -1e-05 0.000532
-0.002063 -1.1e-05 0.000555
-0.002054 -1.1e-05 0.000578
-0.002736 0.000488 -0.000563
-0.002036 -1.3e-05 0.000624
-0.002027 -1.4e-05 0.000647
-0.002018 -1.4e-05 0.00067
-0.002009 -1.5e-05 0.000693
-0.001999 -1.5e-05 0.000716
-0.00199 -1.6e-05 0.000738
-0.00198 -1.6e-05 0.000761
-0.00197 -1.6e-05 0.000783
-0.00196 -1.6e-05 0.000806
-0.00195 -1.7e-05 0.000829
-0.001941 -1.7e-05 0.000851
-0.00193 -1.7e-05 0.000874
-0.00192 -1.7e-05 0.000896
-0.001909 -1.7e-05 0.000918
-0.001899 -1.7e-05 0.000941
-0.001888 -1.7e-05 0.000963
-0.001878 -1.6e-05 0.000985
-0.001867 -1.6e-05 0.001007
-0.001856 -1.6e-05 0.001029
-0.001846 -1.6e-05 0.001052
-0.001834 -1.5e-05 0.001073
-0.001823 -1.5e-05 0.001095
-0.001812 -1.4e-05 0.001117
-0.0018 -1.4e-05 0.001139
-0.002393 0.000746 0.000665
-0.002371 0.000758 0.000637
-0.002774 0.000686 -0.000593
-0.002882 0.00052 -0.000707
-0.002766 0.000606 0.000996
-0.002369 0.000714 0.000512
-0.002746 0.000537 0.000966
-0.002999 0.000446 0.000184
-0.002997 0.000472 0.000208
-0.002369 0.000741 0.000512
-0.002794 0.000611 0.000352
-0.002532 0.000703 0.000761
-0.00264 0.000647 0.000852
-0.002788 0.000594 0.001024
-0.002915 0.000685 2.5e-05
-0.002006 -2.5e-05 0.00061
-0.001997 -2.5e-05 0.000633
-0.001987 -2.6e-05 0.000656
-0.001978 -2.6e-05 0.000679
-0.00197 -2.7e-05 0.000702
-0.00196 -2.8e-05 0.000724
-0.002391 0.000693 0.000665
-0.002531 0.000622 0.000761
-0.002574 0.0006 0.000792
-0.00261 0.000581 0.000823
-0.00264 0.000566 0.000852
-0.002669 0.00055 0.000881
-0.002697 0.000536 0.00091
-0.002721 0.000523 0.000938
-0.002746 0.00051 0.000966
-0.002483 0.000621 -0.001583
-0.002898 0.000593 -0.000734
-0.002851 0.000651 -0.000884
-0.002466 0.000665 -0.000956
-0.002241 0.000733 -0.000963
-0.002256 0.000701 -0.00124
-0.002433 0.000694 -0.000373
-0.002882 0.000575 -0.000707
-0.002143 0.000583 -0.001742
-0.002878 0.000686 -0.000707
-0.003001 0.000421 0.000134
-0.003 0.00042 0.000159
-0.002999 0.000419 0.000184
-0.002997 0.000418 0.000209
-0.002994 0.000418 0.000233
-0.002979 0.000423 0.000256
-0.002947 0.000437 0.000276
-0.002911 0.000452 0.000295
-0.002876 0.000467 0.000315
-0.002837 0.000483 0.000334
-0.002792 0.000503 0.000352
-0.002736 0.000527 0.000368
-0.002678 0.000553 0.000384
-0.002378 0.000684 0.000489
-0.002369 0.000687 0.000512
-0.002364 0.000688 0.000536
-0.00236 0.000688 0.00056
-0.00236 0.000686 0.000585
-0.002363 0.000683 0.000611
-0.002372 0.000676 0.000637
-0.002391 0.000666 0.000665
-0.002483 0.000619 0.000729
-0.002531 0.000595 0.000761
-0.002574 0.000573 0.000792
-0.002611 0.000554 0.000823
-0.002641 0.000538 0.000852
-0.002669 0.000523 0.000881
-0.002696 0.000508 0.00091
-0.002721 0.000495 0.000939
-0.002746 0.000482 0.000966
-0.002404 0.000688 -0.00027
-0.002899 0.000565 -0.000734
-0.00283 0.000548 -0.000902
-0.00289 0.000672 1e-05
-0.002691 0.000565 -0.000532
-0.002415 0.000705 -0.000346
-0.002831 0.000548 -0.000651
-0.002886 0.000567 -0.000819
-0.002832 0.000683 -0.000651
-0.003001 0.000394 0.000134
-0.003 0.000393 0.000159
-0.002999 0.000392 0.000184
-0.002997 0.000391 0.000209
-0.002993 0.000391 0.000233
-0.002979 0.000396 0.000256
-0.002947 0.000409 0.000276
-0.002911 0.000425 0.000295
-0.002876 0.000439 0.000315
-0.002836 0.000457 0.000334
-0.002792 0.000476 0.000352
-0.002736 0.0005 0.000368
-0.002676 0.000527 0.000384
-0.002614 0.000554 0.0004
-0.002369 0.00066 0.000512
-0.002363 0.000661 0.000536
-0.002359 0.000661 0.00056
-0.002359 0.000659 0.000585
-0.002363 0.000655 0.000611
-0.002372 0.000649 0.000637
-0.002391 0.000639 0.000665
-0.002483 0.000592 0.000729
-0.00253 0.000568 0.000761
-0.002574 0.000546 0.000792
-0.002612 0.000526 0.000823
-0.00264 0.000511 0.000852
-0.002669 0.000496 0.000881
-0.002696 0.000481 0.00091
-0.002722 0.000468 0.000938
-0.002747 0.000455 0.000966
-0.002408 0.000687 -0.000246
-0.002293 0.000704 -0.001283
-0.002736 0.000624 -0.000563
-0.002692 0.000646 -0.000533
-0.002402 0.000686 -0.000294
-0.002483 0.000593 -0.001583
-0.002219 0.000738 -0.000981
-0.002897 0.000621 -0.000734
-0.003001 0.000367 0.000134
-0.003 0.000365 0.000159
-0.002999 0.000364 0.000184
-0.002998 0.000363 0.000209
-0.002993 0.000364 0.000233
-0.002979 0.000369 0.000256
-0.002947 0.000382 0.000276
-0.002911 0.000397 0.000295
-0.002875 0.000412 0.000315
-0.002836 0.000429 0.000334
-0.002791 0.000449 0.000352
-0.002675 0.0005 0.000384
-0.002612 0.000528 0.000399
-0.002542 0.000559 0.000414
-0.002369 0.000633 0.000512
-0.002363 0.000634 0.000536
-0.002359 0.000634 0.00056
-0.002359 0.000632 0.000585
-0.002362 0.000628 0.000611
-0.002372 0.000622 0.000637
-0.002392 0.000611 0.000665
-0.002574 0.000519 0.000792
-0.002611 0.0005 0.000823
-0.00264 0.000484 0.000852
-0.002669 0.000469 0.000881
-0.002697 0.000454 0.00091
-0.002722 0.000441 0.000938
-0.002747 0.000428 0.000966
-0.002436 0.000722 -0.000349
-0.002594 0.000695 -0.00047
-0.002644 0.000671 -0.000501
-0.002415 0.000648 -0.001445
-0.002334 0.00075 -0.000951
-0.002871 0.000456 -0.000866
-0.00278 0.000528 -4.7e-05
-0.002856 0.000681 -0.00086
-0.002882 0.000629 -0.000707
-0.003001 0.000339 0.000134
-0.003 0.000338 0.000159
-0.002999 0.000337 0.000184
-0.002998 0.000336 0.000209
-0.002993 0.000337 0.000233
-0.002979 0.000342 0.000256
-0.002947 0.000355 0.000276
-0.00291 0.000371 0.000295
-0.002874 0.000386 0.000315
-0.002836 0.000402 0.000334
-0.002791 0.000422 0.000352
-0.002736 0.000446 0.000368
-0.002677 0.000472 0.000384
-0.002613 0.000501 0.0004
-0.002363 0.000606 0.000536
-0.002359 0.000607 0.00056
-0.002359 0.000605 0.000585
-0.002362 0.000601 0.000611
-0.002372 0.000595 0.000637
-0.002393 0.000583 0.000665
-0.002487 0.000536 0.000729
-0.002532 0.000513 0.000761
-0.002575 0.000491 0.000792
-0.00261 0.000473 0.000823
-0.00264 0.000457 0.000852
-0.002669 0.000441 0.000881
-0.002696 0.000427 0.00091
-0.002722 0.000414 0.000939
-0.002747 0.0004 0.000966
-0.002922 0.000549 3.3e-05
-0.002579 0.000725 -0.00012
-0.00264 0.000698 -0.000103
-0.00289 0.000481 1.3e-05
-0.002453 0.000727 -0.001516
-0.002998 0.000436 9.7e-05
-0.002424 0.000682 -0.000198
-0.00274 0.000545 -6.7e-05
-0.002494 0.000631 -0.001642
-0.002894 0.000618 -0.000784
-0.003001 0.000312 0.000134
-0.003 0.000311 0.000159
-0.002999 0.00031 0.000184
-0.002997 0.000309 0.000209
-0.002993 0.000309 0.000233
-0.002979 0.000315 0.000256
-0.002947 0.000328 0.000276
-0.002911 0.000343 0.000295
-0.002874 0.000359 0.000315
-0.002836 0.000375 0.000334
-0.00279 0.000395 0.000352
-0.002734 0.000419 0.000368
-0.002677 0.000445 0.000384
-0.002612 0.000474 0.000399
-0.002363 0.000579 0.000536
-0.002359 0.00058 0.00056
-0.002359 0.000577 0.000585
-0.002363 0.000574 0.000611
-0.002372 0.000568 0.000637
-0.002392 0.000556 0.000665
-0.002532 0.000486 0.000761
-0.002574 0.000464 0.000792
-0.002611 0.000445 0.000823
-0.00264 0.00043 0.000852
-0.00267 0.000414 0.000882
-0.002696 0.0004 0.00091
-0.002722 0.000386 0.000939
-0.002747 0.000373 0.000966
-0.002781 0.000582 -4.7e-05
-0.002896 0.000509 -0.000784
-0.002694 0.000674 -8.5e-05
-0.002424 0.000737 -0.000198
-0.002402 0.000714 -0.000294
-0.002802 0.000563 -0.000622
-0.002779 0.000718 -4.7e-05
-0.002297 0.000729 -0.001285
-0.003001 0.000285 0.000135
-0.003 0.000284 0.000159
-0.002999 0.000283 0.000184
-0.002997 0.000282 0.000209
-0.002993 0.000282 0.000233
-0.002978 0.000288 0.000256
-0.002947 0.0003 0.000276
-0.002912 0.000315 0.000295
-0.002875 0.000331 0.000315
-0.002835 0.000348 0.000334
-0.002791 0.000367 0.000352
-0.002735 0.000392 0.000368
-0.002676 0.000418 0.000384
-0.002612 0.000447 0.000399
-0.002542 0.000478 0.000414
-0.002363 0.000552 0.000536
-0.002359 0.000552 0.00056
-0.002359 0.00055 0.000585
-0.002363 0.000547 0.000611
-0.002372 0.000541 0.000637
-0.002392 0.00053 0.000665
-0.002487 0.000481 0.000729
-0.002532 0.000458 0.000761
-0.002575 0.000437 0.000793
-0.00261 0.000418 0.000823
-0.00264 0.000402 0.000852
-0.00267 0.000387 0.000882
-0.002696 0.000373 0.00091
-0.002722 0.000359 0.000939
-0.002746 0.000346 0.000966
-0.002771 0.000334 0.000993
-0.002998 0.000464 9.7e-05
-0.002476 0.000742 -0.00096
-0.002738 0.000655 -6.6e-05
-0.002465 0.000693 -0.000154
-0.002406 0.000711 -0.00032
-0.002858 0.000588 -0.000679
-0.002894 0.000647 -0.000759
-0.003 0.00026 0.00011
-0.003001 0.000258 0.000134
-0.003 0.000257 0.000159
-0.002999 0.000256 0.000184
-0.002997 0.000255 0.000209
-0.002993 0.000255 0.000233
-0.002978 0.00026 0.000256
-0.002947 0.000273 0.000276
-0.002912 0.000288 0.000295
-0.002875 0.000304 0.000315
-0.002835 0.000321 0.000334
-0.002791 0.00034 0.000352
-0.002675 0.000391 0.000384
-0.002612 0.000419 0.0004
-0.002363 0.000525 0.000536
-0.002358 0.000525 0.00056
-0.002359 0.000523 0.000585
-0.002363 0.00052 0.000611
-0.002372 0.000513 0.000637
-0.002392 0.000502 0.000665
-0.002486 0.000455 0.000729
-0.002532 0.000431 0.000761
-0.002573 0.00041 0.000792
-0.00261 0.000391 0.000823
-0.00264 0.000375 0.000852
-0.002669 0.00036 0.000882
-0.002695 0.000346 0.00091
-0.002722 0.000332 0.000939
-0.002747 0.000319 0.000966
-0.00277 0.000307 0.000993
-0.002857 0.000425 -0.000679
-0.002772 0.000497 -0.000593
-0.00278 0.000636 -4.7e-05
-0.002983 0.000578 7.4e-05
-0.001653 0.000577 -0.002443
-0.002465 0.000721 -0.000154
-0.002889 0.000565 -0.000808
-0.002891 0.000647 -0.000783
-0.003 0.000233 0.00011
-0.003001 0.000231 0.000134
-0.003 0.00023 0.000159
-0.002999 0.000229 0.000184
-0.002997 0.000228 0.000209
-0.002993 0.000228 0.000233
-0.002978 0.000233 0.000256
-0.002946 0.000247 0.000276
-0.002911 0.000261 0.000295
-0.002875 0.000277 0.000315
-0.002835 0.000294 0.000334
-0.002792 0.000312 0.000352
-0.002676 0.000364 0.000384
-0.002613 0.000392 0.0004
-0.002368 0.000497 0.000512
-0.002362 0.000498 0.000536
-0.002358 0.000498 0.00056
-0.002359 0.000496 0.000585
-0.002363 0.000492 0.000611
-0.002373 0.000486 0.000637
-0.002393 0.000475 0.000665
-0.002486 0.000427 0.000729
-0.002533 0.000404 0.000761
-0.002574 0.000383 0.000792
-0.00261 0.000364 0.000823
-0.00264 0.000348 0.000852
-0.00267 0.000332 0.000882
-0.002695 0.000319 0.00091
-0.002722 0.000305 0.000939
-0.002747 0.000292 0.000966
-0.002773 0.000524 -0.000593
-0.002358 0.000687 -0.001366
-0.002645 0.000697 -0.000501
-0.002819 0.000647 -2.8e-05
-0.002404 0.00074 -0.000295
-0.002772 0.00047 -0.000593
-0.002438 0.000644 -0.001733
-0.00227 0.000723 -0.000949
-0.002886 0.000595 -0.000819
-0.003 0.000206 0.00011
-0.003001 0.000204 0.000135
-0.003 0.000202 0.000159
-0.002999 0.000201 0.000184
-0.002997 0.000201 0.000209
-0.002992 0.000201 0.000233
-0.002977 0.000206 0.000255
-0.002946 0.000219 0.000276
-0.002912 0.000234 0.000295
-0.002875 0.00025 0.000315
-0.002836 0.000266 0.000334
-0.002793 0.000285 0.000352
-0.002368 0.00047 0.000512
-0.002362 0.000471 0.000536
-0.002358 0.000471 0.00056
-0.002359 0.000469 0.000585
-0.002363 0.000465 0.000611
-0.002373 0.000459 0.000637
-0.002393 0.000448 0.000665
-0.002573 0.000356 0.000792
-0.002609 0.000337 0.000823
-0.00264 0.000321 0.000852
-0.002669 0.000305 0.000882
-0.002695 0.000292 0.00091
-0.002723 0.000277 0.000939
-0.002747 0.000265 0.000966
-0.002736 0.000543 -0.000563
-0.002426 0.000478 -0.001755
-0.002596 0.000722 -0.00047
-0.002692 0.000673 -0.000533
-0.002317 0.000677 -0.000943
-0.002594 0.000669 -0.00047
-0.002774 0.000578 -0.000593
-0.002858 0.000615 -0.000679
-0.002886 0.00068 -0.000733
-0.002999 0.000179 0.00011
-0.003001 0.000177 0.000135
-0.003 0.000175 0.000159
-0.002999 0.000174 0.000184
-0.002996 0.000174 0.000208
-0.00299 0.000175 0.000233
-0.002977 0.00018 0.000255
-0.002947 0.000192 0.000276
-0.002911 0.000207 0.000295
-0.002875 0.000222 0.000315
-0.002834 0.00024 0.000333
-0.002792 0.000258 0.000352
-0.002014 -2.5e-05 0.000584
-0.002677 0.000309 0.000384
-0.002613 0.000337 0.0004
-0.00254 0.00037 0.000414
-0.002368 0.000443 0.000512
-0.002362 0.000444 0.000536
-0.002358 0.000444 0.00056
-0.002359 0.000442 0.000585
-0.002363 0.000438 0.000611
-0.002373 0.000432 0.000637
-0.002393 0.00042 0.000665
-0.002019 -2.5e-05 0.00056
-0.002486 0.000373 0.000729
-0.002534 0.000349 0.000762
-0.002572 0.000329 0.000792
-0.002609 0.00031 0.000823
-0.002641 0.000293 0.000852
-0.002669 0.000278 0.000881
-0.002696 0.000264 0.00091
-0.002723 0.00025 0.000939
-0.002748 0.000237 0.000966
-0.002405 0.000683 -0.00032
-0.002983 0.000551 7.4e-05
-0.002923 0.000603 3.1e-05
-0.002955 0.00059 5.2e-05
-0.00251 0.000647 -0.000135
-0.00248 0.000648 -0.001672
-0.002883 0.000547 -0.000707
-0.002831 0.000656 -0.000651
-0.002887 0.000678 -0.000758
-0.002996 0.000153 0.000109
-0.002999 0.00015 0.000134
-0.002999 0.000149 0.000159
-0.002997 0.000148 0.000184
-0.002994 0.000148 0.000208
-0.002988 0.000149 0.000232
-0.002976 0.000153 0.000255
-0.002946 0.000165 0.000276
-0.002912 0.00018 0.000295
-0.002874 0.000196 0.000315
-0.002834 0.000213 0.000334
-0.002792 0.000231 0.000352
-0.002677 0.000282 0.000385
-0.002613 0.00031 0.0004
-0.002541 0.000342 0.000414
-0.002024 -2.6e-05 0.000535
-0.002368 0.000415 0.000512
-0.002362 0.000417 0.000536
-0.002359 0.000417 0.00056
-0.002359 0.000415 0.000585
-0.002363 0.000411 0.000611
-0.002373 0.000404 0.000637
-0.002393 0.000393 0.000665
-0.002487 0.000345 0.00073
-0.002533 0.000322 0.000761
-0.002574 0.000301 0.000792
-0.00261 0.000282 0.000823
-0.002641 0.000266 0.000852
-0.002669 0.000251 0.000882
-0.002696 0.000237 0.00091
-0.002722 0.000223 0.000939
-0.002747 0.00021 0.000966
-0.00287 0.000565 -0.000866
-0.002626 0.000545 -0.000946
-0.00289 0.000617 1.2e-05
-0.002853 0.000633 -8e-06
-0.002739 0.0006 -6.7e-05
-0.002167 0.000712 -0.001092
-0.002831 0.000602 -0.000651
-0.002896 0.000591 -0.000784
-0.002735 0.000733 -0.000563
-0.002992 0.000128 0.000109
-0.002995 0.000125 0.000134
-0.002995 0.000123 0.000159
-0.002993 0.000123 0.000183
-0.00299 0.000123 0.000208
-0.002984 0.000124 0.000232
-0.002973 0.000127 0.000255
-0.002946 0.000138 0.000276
-0.002912 0.000152 0.000295
-0.002875 0.000168 0.000315
-0.002835 0.000185 0.000334
-0.002675 0.000255 0.000384
-0.002612 0.000284 0.0004
-0.002544 0.000314 0.000414
-0.002368 0.000388 0.000512
-0.002362 0.000389 0.000536
-0.002359 0.000389 0.000561
-0.002359 0.000387 0.000585
-0.002363 0.000384 0.000611
-0.002373 0.000377 0.000638
-0.002393 0.000366 0.000665
-0.002487 0.000318 0.00073
-0.002532 0.000295 0.000761
-0.002574 0.000274 0.000793
-0.002609 0.000256 0.000823
-0.00264 0.000239 0.000852
-0.002669 0.000224 0.000882
-0.002696 0.00021 0.000911
-0.002722 0.000196 0.000939
-0.002747 0.000183 0.000966
-0.002369 0.000575 -0.001772
-0.001831 0.00051 -0.002356
-0.002736 0.000651 -0.000563
-0.002774 0.000632 -0.000593
-0.002692 0.000619 -0.000532
-0.002181 0.000695 -0.001152
-0.002858 0.000533 -0.000679
-0.00289 0.000644 1e-05
-0.002415 0.000675 -0.001445
-0.002986 0.000104 0.000108
-0.002988 0.000101 0.000133
-0.002988 9.9e-05 0.000158
-0.002986 9.9e-05 0.000182
-0.002983 9.9e-05 0.000207
-0.002978 9.9e-05 0.000231
-0.002968 0.000102 0.000254
-0.002946 0.000111 0.000276
-0.002912 0.000125 0.000295
-0.002834 0.000159 0.000333
-0.002794 0.000176 0.000352
-0.002739 0.0002 0.000369
-0.002677 0.000227 0.000385
-0.002613 0.000256 0.0004
-0.002368 0.000361 0.000512
-0.002362 0.000362 0.000536
-0.002359 0.000362 0.000561
-0.002359 0.00036 0.000585
-0.002363 0.000357 0.000611
-0.002373 0.00035 0.000638
-0.002393 0.000339 0.000665
-0.002431 0.000319 0.000696
-0.002486 0.000291 0.000729
-0.002532 0.000268 0.000761
-0.002609 0.000229 0.000823
-0.002641 0.000212 0.000852
-0.002669 0.000197 0.000882
-0.002695 0.000183 0.000911
-0.002722 0.000169 0.000939
-0.002746 0.000156 0.000966
-0.002803 0.000481 -0.000622
-0.002954 0.000563 5.2e-05
-0.002803 0.000617 -0.000622
-0.002896 0.000536 -0.000784
-0.00247 0.000578 -0.00155
-0.002899 0.000429 -0.000734
-0.002479 0.000704 -0.001582
-0.002855 0.000523 -8e-06
-0.002614 0.00074 -0.000472
-0.002888 0.00062 -0.000808
-0.002977 8.1e-05 0.000106
-0.002979 7.8e-05 0.000131
-0.002979 7.7e-05 0.000156
-0.002977 7.6e-05 0.000181
-0.002974 7.6e-05 0.000205
-0.002969 7.6e-05 0.000229
-0.00296 7.9e-05 0.000253
-0.002943 8.5e-05 0.000275
-0.002912 9.8e-05 0.000296
-0.002874 0.000114 0.000315
-0.002834 0.000131 0.000334
-0.002793 0.000149 0.000352
-0.002738 0.000173 0.000369
-0.002675 0.000201 0.000384
-0.002029 -2.6e-05 0.000511
-0.002368 0.000334 0.000512
-0.002363 0.000335 0.000536
-0.002359 0.000335 0.000561
-0.002359 0.000333 0.000585
-0.002363 0.000329 0.000611
-0.002373 0.000323 0.000638
-0.002393 0.000312 0.000666
-0.00243 0.000293 0.000696
-0.002487 0.000264 0.00073
-0.002574 0.00022 0.000793
-0.002609 0.000201 0.000823
-0.002641 0.000185 0.000852
-0.002669 0.00017 0.000882
-0.002696 0.000155 0.000911
-0.002722 0.000142 0.000939
-0.002746 0.000129 0.000967
-0.00277 0.000116 0.000994
-0.002579 0.00067 -0.00012
-0.002998 0.000546 9.7e-05
-0.002831 0.000575 -0.000651
-0.002857 0.000561 -0.000679
-0.002461 0.000736 -0.000377
-0.002998 0.000491 9.7e-05
-0.002645 0.000724 -0.000501
-0.002437 0.000659 -0.001482
-0.002456 0.000534 -0.001716
-0.002966 5.7e-05 0.00013
-0.002966 5.6e-05 0.000154
-0.002964 5.5e-05 0.000179
-0.002961 5.4e-05 0.000203
-0.002956 5.5e-05 0.000228
-0.002949 5.7e-05 0.000251
-0.002936 6.1e-05 0.000274
-0.00291 7.2e-05 0.000295
-0.002874 8.7e-05 0.000315
-0.002833 0.000105 0.000333
-0.002793 0.000122 0.000352
-0.002737 0.000147 0.000369
-0.002675 0.000174 0.000384
-0.002613 0.000201 0.0004
-0.002368 0.000307 0.000512
-0.002363 0.000308 0.000536
-0.002359 0.000308 0.000561
-0.002359 0.000306 0.000585
-0.002363 0.000302 0.000611
-0.002373 0.000296 0.000638
-0.002392 0.000285 0.000665
-0.002487 0.000237 0.00073
-0.002532 0.000214 0.000761
-0.002573 0.000193 0.000793
-0.002608 0.000175 0.000823
-0.002641 0.000158 0.000853
-0.002669 0.000142 0.000882
-0.002697 0.000128 0.000911
-0.002721 0.000114 0.000939
-0.002746 0.000102 0.000967
-0.002769 8.9e-05 0.000995
-0.002858 0.000506 -0.000679
-0.002923 0.000576 3.2e-05
-0.002793 0.000616 -0.000913
-0.002773 0.000605 -0.000593
-0.002922 0.000495 3.3e-05
-0.002803 0.000454 -0.000622
-0.002954 0.000509 5.3e-05
-0.002889 0.000592 -0.000808
-0.002858 0.000642 -0.000679
-0.002804 0.00067 -0.000622
-0.002774 0.000713 -0.000593
-0.002893 0.000649 -0.000734
-0.002947 3.6e-05 0.000176
-0.002945 3.5e-05 0.000201
-0.00294 3.6e-05 0.000225
-0.002933 3.7e-05 0.000249
-0.002922 4e-05 0.000272
-0.002903 4.8e-05 0.000294
-0.002872 6.1e-05 0.000314
-0.002033 -2.7e-05 0.000487
-0.002674 0.000147 0.000384
-0.002615 0.000173 0.0004
-0.002369 0.000279 0.000512
-0.002363 0.00028 0.000536
-0.002359 0.00028 0.000561
-0.002359 0.000279 0.000585
-0.002363 0.000275 0.000611
-0.002373 0.000268 0.000638
-0.002392 0.000258 0.000665
-0.002487 0.00021 0.00073
-0.002532 0.000186 0.000761
-0.002576 0.000164 0.000793
-0.002609 0.000147 0.000823
-0.002642 0.00013 0.000853
-0.002669 0.000115 0.000882
-0.002696 0.000101 0.000911
-0.002721 8.8e-05 0.000939
-0.002745 7.5e-05 0.000968
-0.002998 0.000518 9.7e-05
-0.002818 0.00062 -2.8e-05
-0.002436 0.000632 -0.001482
-0.002497 0.000554 -0.001615
-0.002854 0.000578 -8e-06
-0.002983 0.000497 7.4e-05
-0.002831 0.000629 -0.000651
-0.002328 0.000708 -0.001326
-0.0029 0.00059 -0.00076
-0.002804 0.000643 -0.000622
-0.002695 0.000728 -8.6e-05
-0.002692 0.000701 -0.000533
-0.002818 0.000729 -2.8e-05
-0.002922 1.9e-05 0.000197
-0.002917 1.9e-05 0.000222
-0.002912 2e-05 0.000246
-0.002903 2.2e-05 0.000269
-0.002889 2.7e-05 0.000292
-0.002864 3.7e-05 0.000313
-0.002833 5e-05 0.000333
-0.002791 6.9e-05 0.000352
-0.002738 9.2e-05 0.000369
-0.00261 0.000149 0.000399
-0.002037 -2.7e-05 0.000463
-0.002369 0.000252 0.000512
-0.002363 0.000253 0.000536
-0.002359 0.000253 0.000561
-0.002359 0.000252 0.000585
-0.002363 0.000248 0.000611
-0.002373 0.000241 0.000638
-0.002393 0.00023 0.000666
-0.002486 0.000183 0.00073
-0.002534 0.000159 0.000762
-0.002576 0.000137 0.000793
-0.002608 0.000121 0.000823
-0.00264 0.000103 0.000852
-0.002669 8.8e-05 0.000882
-0.002696 7.4e-05 0.000911
-0.002721 6e-05 0.000939
-0.002739 5e-05 0.000966
-0.00254 0.000614 -0.000437
-0.002853 0.000606 -7e-06
-0.00247 0.000562 -0.001696
-0.002889 0.000538 -0.000808
-0.002954 0.000481 5.3e-05
-0.001764 0.000612 -0.002001
-0.002781 0.000554 -4.7e-05
-0.002579 0.000643 -0.000119
-0.002219 0.000711 -0.000981
-0.00224 0.00057 -0.001759
-0.002901 0.000454 -0.00076
-0.002858 0.000479 -0.000679
-0.002885 0.000622 -0.000818
-0.002982 0.00047 7.4e-05
-0.002819 0.000674 -2.8e-05
-0.002883 1e-05 0.000192
-0.002878 1e-05 0.000216
-0.002874 1e-05 0.00024
-0.002871 1e-05 0.000264
-0.002863 1.2e-05 0.000288
-0.002848 1.8e-05 0.000311
-0.002822 2.8e-05 0.000332
-0.002787 4.3e-05 0.000351
-0.002739 6.4e-05 0.000369
-0.002042 -2.7e-05 0.000438
-0.002369 0.000225 0.000513
-0.002363 0.000226 0.000536
-0.002359 0.000226 0.000561
-0.002359 0.000224 0.000586
-0.002362 0.000221 0.000611
-0.002373 0.000214 0.000638
-0.002393 0.000203 0.000666
-0.002434 0.000182 0.000697
-0.002486 0.000156 0.000729
-0.002533 0.000132 0.000762
-0.002575 0.00011 0.000793
-0.002608 9.3e-05 0.000823
-0.00264 7.7e-05 0.000852
-0.002669 6.1e-05 0.000882
-0.002694 4.7e-05 0.00091
-0.002715 3.6e-05 0.000938
-0.002731 2.6e-05 0.000965
-0.002644 0.000562 -0.000501
-0.00289 0.00059 1.2e-05
-0.002899 0.000538 -0.000735
-0.002901 0.000535 -0.00076
-0.002595 0.000641 -0.00047
-0.00283 0.000521 -0.00065
-0.00285 1e-05 1.2e-05
-0.002851 8e-06 3.7e-05
-0.002847 8e-06 6.2e-05
-0.002819 0.000593 -2.8e-05
-0.002357 0.000579 -0.001366
-0.002029 0.00066 -0.00171
-0.00254 0.000695 -0.000437
-0.00282 0.000511 -2.8e-05
-0.002819 8e-06 0.000257
-0.002814 8e-06 0.000281
-0.002807 1e-05 0.000305
-0.002798 1.2e-05 0.000328
-0.002776 2.1e-05 0.00035
-0.002735 3.8e-05 0.000369
-0.00268 6.3e-05 0.000385
-0.002608 9.5e-05 0.000399
-0.002046 -2.8e-05 0.000414
-0.002369 0.000198 0.000513
-0.002363 0.000199 0.000537
-0.002359 0.000199 0.000561
-0.002359 0.000197 0.000586
-0.002362 0.000194 0.000611
-0.002373 0.000187 0.000638
-0.002393 0.000176 0.000666
-0.002433 0.000155 0.000697
-0.002485 0.000129 0.000729
-0.002532 0.000105 0.000761
-0.002577 8.2e-05 0.000793
-0.002608 6.6e-05 0.000823
-0.002639 4.9e-05 0.000852
-0.002666 3.5e-05 0.000881
-0.002686 2.4e-05 0.000909
-0.002691 0.000538 -0.000532
-0.001715 0.000586 -0.002448
-0.002496 0.000745 -0.000407
-0.002539 0.000723 -0.000437
-0.002643 0.000616 -0.000501
-0.002803 0.000535 -0.000622
-0.002798 7e-06 4e-06
-0.002794 7e-06 2.9e-05
-0.00279 8e-06 5.3e-05
-0.002864 0.000713 -0.000805
-0.002877 0.000679 -0.000806
-0.002781 0.000609 -4.7e-05
-0.002777 7e-06 0.000151
-0.002775 6e-06 0.000175
-0.00205 -2.8e-05 0.00039
-0.002054 -2.8e-05 0.000366
-0.002752 7e-06 0.000321
-0.002744 9e-06 0.000345
-0.002722 1.7e-05 0.000367
-0.002679 3.6e-05 0.000385
-0.002613 6.6e-05 0.0004
-0.002537 0.0001 0.000413
-0.002369 0.000171 0.000513
-0.002363 0.000172 0.000537
-0.002359 0.000172 0.000561
-0.002359 0.00017 0.000586
-0.002363 0.000166 0.000611
-0.002373 0.00016 0.000638
-0.002392 0.000149 0.000666
-0.002433 0.000128 0.000697
-0.002485 0.000102 0.000729
-0.002535 7.7e-05 0.000762
-0.002575 5.6e-05 0.000793
-0.002608 3.9e-05 0.000823
-0.002635 2.4e-05 0.000852
-0.002652 1.4e-05 0.000879
-0.002058 -2.8e-05 0.000341
-0.002736 0.000597 -0.000563
-0.002901 0.000508 -0.00076
-0.002738 0.000682 -6.7e-05
-0.002695 0.000701 -8.5e-05
-0.002922 0.000468 3.3e-05
-0.002414 0.000686 -0.000222
-0.002415 0.000677 -0.000346
-0.002593 0.000587 -0.000469
-0.00274 7e-06 -4e-06
-0.002739 6e-06 2e-05
-0.002736 6e-06 4.5e-05
-0.00273 7e-06 6.9e-05
-0.002725 8e-06 9.3e-05
-0.002723 7e-06 0.000118
-0.002718 8e-06 0.000142
-0.002714 8e-06 0.000166
-0.002818 0.000539 -2.8e-05
-0.002441 0.000703 -0.000176
-0.002426 0.00071 -0.000199
-0.002061 -2.8e-05 0.000317
-0.002694 7e-06 0.000313
-0.00269 7e-06 0.000337
-0.002686 7e-06 0.000361
-0.002666 1.5e-05 0.000383
-0.002534 7.4e-05 0.000413
-0.002065 -2.8e-05 0.000292
-0.002368 0.000144 0.000513
-0.002363 0.000145 0.000537
-0.002359 0.000145 0.000561
-0.002359 0.000143 0.000586
-0.002362 0.000139 0.000611
-0.002372 0.000133 0.000638
-0.002392 0.000122 0.000665
-0.002431 0.000102 0.000696
-0.002535 4.9e-05 0.000762
-0.002575 2.9e-05 0.000793
-0.002599 1.6e-05 0.000821
-0.002609 9e-06 0.000848
-0.00261 7e-06 0.000873
-0.002595 8e-06 0.00097
-0.002593 7e-06 0.000995
-0.00221 0.000729 -0.001192
-0.002899 0.000511 -0.000735
-0.00264 0.000725 -0.000103
-0.00278 0.000664 -4.7e-05
-0.002508 0.000702 -0.000135
-0.002442 0.000533 -0.001736
-0.002696 6e-06 -6.1e-05
-0.002692 5e-06 -3.7e-05
-0.002688 5e-06 -1.2e-05
-0.002685 4e-06 1.2e-05
-0.002681 5e-06 3.7e-05
-0.002677 5e-06 6.1e-05
-0.002673 5e-06 8.5e-05
-0.002671 5e-06 0.00011
-0.002665 5e-06 0.000134
-0.002663 5e-06 0.000158
-0.002869 0.000712 -0.00078
-0.002468 0.000746 -0.000154
-0.002509 0.000729 -0.000135
-0.002466 0.000742 -0.000982
-0.002638 6e-06 0.000304
-0.002636 5e-06 0.000329
-0.002633 5e-06 0.000353
-0.002629 5e-06 0.000377
-0.002069 -2.8e-05 0.000268
-0.002362 0.000118 0.000537
-0.002359 0.000118 0.000561
-0.002358 0.000116 0.000586
-0.002362 0.000112 0.000611
-0.002373 0.000106 0.000638
-0.002391 9.5e-05 0.000665
-0.00243 7.5e-05 0.000696
-0.002535 2.2e-05 0.000762
-0.002558 1e-05 0.00079
-0.002563 5e-06 0.000816
-0.002561 5e-06 0.000841
-0.002557 5e-06 0.000865
-0.002553 6e-06 0.000889
-0.002548 6e-06 0.000913
-0.002544 6e-06 0.000938
-0.002539 7e-06 0.000962
-0.002535 7e-06 0.000986
-0.002578 0.000617 -0.000119
-0.002529 0.000746 -0.000138
-0.002901 0.000563 -0.00076
-0.002626 0.000708 -0.000946
-0.002693 0.000647 -8.5e-05
-0.002072 -2.8e-05 0.000244
-0.002639 6e-06 -9.4e-05
-0.002636 5e-06 -7e-05
-0.002634 5e-06 -4.5e-05
-0.002629 5e-06 -2.1e-05
-0.002625 6e-06 3e-06
-0.002624 4e-06 2.8e-05
-0.00262 5e-06 5.2e-05
-0.002617 4e-06 7.7e-05
-0.002614 4e-06 0.000101
-0.002608 5e-06 0.000125
-0.002605 5e-06 0.00015
-0.002602 4e-06 0.000174
-0.002598 4e-06 0.000199
-0.002882 0.000467 -0.000706
-0.002899 0.000456 -0.000735
-0.002874 0.000713 -0.000731
-0.002585 4e-06 0.000296
-0.002582 4e-06 0.000321
-0.002578 4e-06 0.000345
-0.002571 4e-06 0.000394
-0.002362 9.1e-05 0.000536
-0.002359 9.1e-05 0.000561
-0.002358 8.9e-05 0.000586
-0.002361 8.5e-05 0.000611
-0.002372 7.9e-05 0.000638
-0.00239 6.8e-05 0.000665
-0.00249 1.8e-05 0.00073
-0.00251 7e-06 0.000758
-0.002508 6e-06 0.000783
-0.002505 6e-06 0.000807
-0.002502 6e-06 0.000832
-0.002497 6e-06 0.000856
-0.002493 6e-06 0.00088
-0.002488 7e-06 0.000904
-0.002487 6e-06 0.000929
-0.002482 5e-06 0.000978
-0.002476 6e-06 0.001002
-0.002441 0.000731 -0.000175
-0.002803 0.00059 -0.000622
-0.002737 0.000678 -0.000563
-0.002896 0.000563 -0.000784
-0.002739 0.000627 -6.7e-05
-0.002595 -1e-06 -0.000101
-0.002587 1e-06 -7.7e-05
-0.002582 2e-06 -5.3e-05
-0.002578 2e-06 -2.9e-05
-0.002573 3e-06 -5e-06
-0.00257 3e-06 2e-05
-0.002566 3e-06 4.4e-05
-0.002562 3e-06 6.8e-05
-0.002559 3e-06 9.3e-05
-0.002556 2e-06 0.000117
-0.002553 3e-06 0.000142
-0.002547 3e-06 0.000166
-0.002544 4e-06 0.00019
-0.00283 0.000439 -0.00065
-0.002873 0.000712 -0.000756
-0.002528 4e-06 0.000288
-0.002526 3e-06 0.000312
-0.002522 3e-06 0.000336
-0.002514 4e-06 0.000385
-0.002508 5e-06 0.000409
-0.002367 6.3e-05 0.000512
-0.002362 6.4e-05 0.000536
-0.002358 6.4e-05 0.000561
-0.002358 6.2e-05 0.000585
-0.002361 5.9e-05 0.000611
-0.002371 5.2e-05 0.000638
-0.002388 4.2e-05 0.000665
-0.002463 3e-06 0.000726
-0.002462 2e-06 0.000751
-0.002458 3e-06 0.000775
-0.002455 2e-06 0.0008
-0.002451 3e-06 0.000824
-0.002446 3e-06 0.000848
-0.002441 4e-06 0.000872
-0.002438 3e-06 0.000897
-0.002432 5e-06 0.000921
-0.002426 5e-06 0.000945
-0.002424 5e-06 0.000969
-0.002419 5e-06 0.000994
-0.002803 0.000508 -0.000622
-0.002484 0.000566 -0.001582
-0.002695 0.000727 -0.000533
-0.002774 0.000659 -0.000593
-0.00283 0.000494 -0.00065
-0.002529 5e-06 -0.000136
-0.002532 2e-06 -0.00011
-0.002524 4e-06 -8.7e-05
-0.002523 3e-06 -6.2e-05
-0.002519 3e-06 -3.8e-05
-0.002512 5e-06 -1.4e-05
-0.002508 5e-06 1e-05
-0.002502 6e-06 3.4e-05
-0.002499 5e-06 5.9e-05
-0.002496 3e-06 8.3e-05
-0.002638 0.000671 -0.000103
-0.00249 4e-06 0.000132
-0.002487 4e-06 0.000157
-0.002483 5e-06 0.000181
-0.002868 0.000717 -0.000706
-0.002475 5e-06 0.00023
-0.002471 5e-06 0.000254
-0.002468 5e-06 0.000279
-0.002463 5e-06 0.000303
-0.002458 4e-06 0.000352
-0.002456 4e-06 0.000376
-0.002453 3e-06 0.000401
-0.002361 3.7e-05 0.000536
-0.002357 3.7e-05 0.000561
-0.002357 3.5e-05 0.000585
-0.002361 3.1e-05 0.000611
-0.002371 2.5e-05 0.000638
-0.002394 1.2e-05 0.000666
-0.002404 4e-06 0.000717
-0.002399 5e-06 0.000741
-0.002394 5e-06 0.000766
-0.002391 5e-06 0.00079
-0.002385 6e-06 0.000814
-0.002382 6e-06 0.000839
-0.00238 5e-06 0.000863
-0.002374 3e-06 0.000937
-0.002372 2e-06 0.000962
-0.002371 1e-06 0.000986
-0.002417 0.00074 -0.000223
-0.002469 0.00066 -0.00155
-0.002739 0.000736 -6.7e-05
-0.002736 0.000705 -0.000563
-0.002882 0.000439 -0.000706
-0.002075 -2.8e-05 0.000219
-0.002478 8e-06 -0.00014
-0.002475 2e-06 -0.000119
-0.002467 4e-06 -9.5e-05
-0.002465 3e-06 -7.1e-05
-0.002462 3e-06 -4.6e-05
-0.00246 2e-06 -2.2e-05
-0.002458 1e-06 3e-06
-0.002455 1e-06 2.7e-05
-0.002451 1e-06 5.2e-05
-0.002448 1e-06 7.6e-05
-0.002438 2e-06 0.000124
-0.002436 1e-06 0.000149
-0.002431 2e-06 0.000173
-0.002427 2e-06 0.000198
-0.002426 1e-06 0.000222
-0.00242 2e-06 0.000246
-0.002417 2e-06 0.000271
-0.002413 2e-06 0.000295
-0.00241 2e-06 0.00032
-0.002406 1e-06 0.000344
-0.002401 2e-06 0.000368
-0.002398 2e-06 0.000393
-0.002395 2e-06 0.000417
-0.002358 9e-06 0.000561
-0.002357 8e-06 0.000586
-0.002357 8e-06 0.00061
-0.002362 2e-06 0.000636
-0.002353 1e-06 0.00071
-0.002349 1e-06 0.000734
-0.002344 2e-06 0.000758
-0.00234 2e-06 0.000782
-0.002336 2e-06 0.000807
-0.002331 3e-06 0.000831
-0.002325 4e-06 0.000855
-0.002323 3e-06 0.000879
-0.002078 -2.7e-05 0.000195
-0.002408 0.000741 -0.000246
-0.002404 0.000742 -0.00027
-0.002643 0.000589 -0.000501
-0.002593 0.000614 -0.000469
-0.002857 0.000452 -0.000679
-0.002169 0.000706 -0.00112
-0.00289 0.000562 1.2e-05
-0.002792 0.000698 -0.000912
-0.002294 0.000676 -0.001283
-0.002403 3e-06 -5.5e-05
-0.002401 3e-06 -3.1e-05
-0.002396 3e-06 -6e-06
-0.002392 3e-06 1.8e-05
-0.002389 3e-06 4.2e-05
-0.00244 0.000676 -0.000175
-0.002376 4e-06 0.000115
-0.002374 3e-06 0.00014
-0.002371 3e-06 0.000164
-0.002365 4e-06 0.000188
-0.002357 4e-06 0.000237
-0.002355 4e-06 0.000261
-0.002351 4e-06 0.000286
-0.002347 4e-06 0.00031
-0.002343 4e-06 0.000334
-0.002332 4e-06 0.000383
-0.002334 3e-06 0.000408
-0.002081 -2.7e-05 0.00017
-0.002306 3e-06 0.000603
-0.002303 3e-06 0.000627
-0.002269 3e-06 0.000846
-0.00227 1e-06 0.000871
-0.002266 1e-06 0.000896
-0.002257 0.0 0.000969
-0.002084 -2.6e-05 0.000146
0.000616 -2e-05 0.002029
0.000592 -2e-05 0.002036
0.000569 -2e-05 0.002043
-0.002432 0.000668 -0.000373
-0.002086 -2.6e-05 0.000121
-0.002344 3e-06 -6.4e-05
-0.002342 3e-06 -3.9e-05
-0.002338 3e-06 -1.5e-05
-0.002336 3e-06 9e-06
-0.002332 2e-06 3.4e-05
-0.00233 2e-06 5.8e-05
-0.002088 -2.5e-05 9.7e-05
-0.002323 2e-06 0.000107
-0.002323 0.0 0.000132
-0.002317 1e-06 0.000156
-0.002314 1e-06 0.00018
-0.002311 0.0 0.000205
-0.002308 0.0 0.000229
-0.002304 0.0 0.000254
-0.002301 -0.0 0.000278
-0.002298 -0.0 0.000303
-0.002294 -0.0 0.000327
-0.00229 0.0 0.000351
-0.002283 0.0 0.0004
-0.002279 0.0 0.000424
-0.002263 1e-06 0.000522
-0.002238 3e-06 0.000667
-0.002091 -2.5e-05 7.2e-05
-0.002093 -2.4e-05 4.8e-05
-0.002096 -2.4e-05 2.3e-05
-0.002209 4e-06 0.000837
-0.002206 4e-06 0.000862
-0.002203 4e-06 0.000886
-0.002195 4e-06 0.000935
-0.002192 3e-06 0.000959
-0.002881 0.000657 -0.000707
-0.002883 0.000678 -0.000782
0.000545 -1.9e-05 0.00205
-0.002921 0.000522 3.3e-05
0.000521 -1.9e-05 0.002057
0.000498 -1.9e-05 0.002064
0.000474 -1.8e-05 0.002071
-0.002693 0.00062 -8.5e-05
-0.0029 0.000402 -0.000735
-0.002295 -0.0 -7.2e-05
-0.002293 -1e-06 -4.7e-05
-0.002287 0.0 -2.3e-05
-0.002284 -0.0 2e-06
-0.002279 0.0 2.6e-05
-0.002277 -0.0 5e-05
-0.002818 0.000566 -2.8e-05
-0.00226 1e-06 0.000148
-0.002254 2e-06 0.000172
-0.002251 2e-06 0.000196
-0.002246 2e-06 0.00022
-0.002243 2e-06 0.000245
-0.00224 2e-06 0.000269
-0.002235 2e-06 0.000293
-0.002233 2e-06 0.000318
-0.00223 1e-06 0.000342
-0.00222 2e-06 0.000391
-0.002217 2e-06 0.000415
-0.002213 3e-06 0.000439
-0.002209 2e-06 0.000464
-0.002208 1e-06 0.000488
-0.002206 1e-06 0.000513
-0.002578 0.000673 -0.000952
-0.002186 -0.0 0.000659
-0.002182 -0.0 0.000684
-0.002178 0.0 0.000708
-0.002175 -0.0 0.000733
-0.002882 0.000412 -0.000706
-0.002157 -0.0 0.000854
-0.002151 1e-06 0.000878
-0.002146 1e-06 0.000903
-0.002136 3e-06 0.000951
-0.002954 0.000454 5.3e-05
-0.002773 0.000551 -0.000593
0.00045 -1.8e-05 0.002077
0.000427 -1.8e-05 0.002084
-0.002507 0.000675 -0.000135
-0.002224 2e-06 -3.2e-05
-0.00222 3e-06 -8e-06
-0.002779 0.000691 -4.7e-05
-0.001831 0.000629 -0.002316
-0.00289 0.000508 1.3e-05
-0.002855 0.00055 -8e-06
-0.00289 0.000535 1.3e-05
-0.002638 0.00059 -0.000103
-0.002198 0.0 0.000163
-0.002195 1e-06 0.000188
-0.002189 2e-06 0.000212
-0.002187 1e-06 0.000236
-0.002183 2e-06 0.00026
-0.002179 1e-06 0.000285
-0.002176 1e-06 0.000309
-0.002161 1e-06 0.000407
-0.002157 2e-06 0.000431
-0.002153 2e-06 0.000455
-0.002149 2e-06 0.00048
-0.002124 2e-06 0.00065
-0.00212 2e-06 0.000674
-0.002115 3e-06 0.000699
-0.002328 0.000599 -0.001326
-0.002694 0.000565 -8.5e-05
-0.002899 0.000484 -0.000735
-0.002205 1e-06 -0.000284
-0.002201 2e-06 -0.00026
-0.002196 2e-06 -0.000236
-0.002195 1e-06 -0.000211
-0.002829 0.000603 -0.000902
-0.002183 -0.0 -0.000113
-0.00218 -1e-06 -8.9e-05
-0.002578 0.000698 -0.000119
-0.002446 0.000715 -0.000375
-0.002805 0.000724 -0.000622
-0.002832 0.00071 -0.000651
-0.002854 0.000714 -8e-06
-0.00289 0.000698 1.1e-05
-0.002162 -4e-06 8.3e-05
-0.002159 -4e-06 0.000107
-0.002156 -5e-06 0.000132
-0.002153 -5e-06 0.000156
-0.00215 -5e-06 0.000181
-0.002146 -5e-06 0.000205
-0.002143 -5e-06 0.000229
-0.00214 -6e-06 0.000254
-0.002137 -6e-06 0.000278
-0.002134 -6e-06 0.000303
-0.002129 -6e-06 0.000327
-0.002126 -6e-06 0.000351
-0.002123 -6e-06 0.000376
-0.002119 -6e-06 0.0004
-0.002115 -6e-06 0.000425
-0.00208 -3e-06 0.000619
-0.002076 -3e-06 0.000643
-0.00269 0.000593 -0.000532
-0.002901 0.000481 -0.00076
-0.002154 -2e-06 -0.000292
-0.002152 -2e-06 -0.000267
-0.00215 -3e-06 -0.000243
-0.002149 -5e-06 -0.000218
-0.002882 0.000493 -0.000707
-0.002981 0.000443 7.4e-05
-0.002389 0.000639 -0.001407
-0.002143 -8e-06 -0.000119
-0.00214 -9e-06 -9.5e-05
-0.002138 -1e-05 -7e-05
-0.002887 0.000727 1.3e-05
-0.00286 0.000696 -0.000678
-0.002858 0.000669 -0.000679
-0.00213 -1.3e-05 2.8e-05
-0.002128 -1.3e-05 5.3e-05
-0.002124 -1.4e-05 7.7e-05
-0.002122 -1.4e-05 0.000102
-0.002119 -1.4e-05 0.000126
-0.002116 -1.5e-05 0.000151
-0.002113 -1.5e-05 0.000175
-0.00211 -1.5e-05 0.0002
-0.002107 -1.5e-05 0.000224
-0.002104 -1.6e-05 0.000249
-0.002101 -1.6e-05 0.000273
-0.002097 -1.6e-05 0.000297
-0.002094 -1.6e-05 0.000322
-0.00209 -1.6e-05 0.000346
-0.002085 -1.6e-05 0.00037
-0.002082 -1.6e-05 0.000395
-0.002078 -1.5e-05 0.000419
-0.002074 -1.5e-05 0.000443
-0.002069 -1.5e-05 0.000468
-0.002065 -1.5e-05 0.000492
-0.00206 -1.4e-05 0.000516
-0.002056 -1.4e-05 0.00054
-0.002052 -1.4e-05 0.000565
-0.002046 -1.3e-05 0.000589
-0.002737 0.000569 -0.000563
-0.001807 0.000638 -0.002135
-0.002415 0.000713 -0.000222
-0.002691 0.000511 -0.000532
-0.002643 0.000535 -0.000501
-0.002595 0.000559 -0.00047
-0.002432 0.000641 -0.000373
-0.002414 0.00065 -0.000346
-0.002405 0.000656 -0.00032
-0.002402 0.000659 -0.000294
-0.002403 0.00066 -0.00027
-0.002407 0.00066 -0.000245
-0.002414 0.000659 -0.000222
-0.002425 0.000655 -0.000198
-0.00244 0.00065 -0.000175
-0.002465 0.000639 -0.000154
-0.002578 0.000589 -0.000119
-0.002639 0.000562 -0.000103
-0.002694 0.000538 -8.5e-05
-0.00274 0.000518 -6.7e-05
-0.002781 0.0005 -4.7e-05
-0.00282 0.000483 -2.8e-05
-0.002856 0.000468 -8e-06
-0.002889 0.000454 1.3e-05
-0.002922 0.00044 3.3e-05
-0.002954 0.000427 5.4e-05
-0.002982 0.000416 7.4e-05
-0.002998 0.000409 9.7e-05
-0.003001 0.000409 0.000122
-0.002028 0.000715 -0.001708
-0.002713 0.000592 -0.000931
-0.00224 0.000679 -0.001759
-0.002793 0.000589 -0.000912
-0.002426 0.00056 -0.001755
-0.001821 0.000637 -0.002211
-0.002844 0.000682 -0.000881
-0.002902 0.000372 -0.00076
-0.0029 0.000375 -0.000735
-0.002882 0.000385 -0.000707
-0.002857 0.000398 -0.000679
-0.00283 0.000412 -0.00065
-0.002803 0.000427 -0.000622
-0.002772 0.000443 -0.000593
-0.002736 0.000461 -0.000563
-0.002691 0.000484 -0.000532
-0.002644 0.000507 -0.000501
-0.002594 0.000533 -0.000469
-0.002432 0.000613 -0.000373
-0.002414 0.000623 -0.000346
-0.002405 0.000629 -0.00032
-0.002402 0.000632 -0.000294
-0.002403 0.000633 -0.00027
-0.002407 0.000633 -0.000245
-0.002414 0.000632 -0.000222
-0.002424 0.000628 -0.000198
-0.00244 0.000622 -0.000175
-0.002466 0.000612 -0.000154
-0.002693 0.000511 -8.5e-05
-0.002741 0.00049 -6.7e-05
-0.002782 0.000473 -4.7e-05
-0.002819 0.000457 -2.8e-05
-0.002856 0.000441 -8e-06
-0.002889 0.000427 1.3e-05
-0.002922 0.000413 3.3e-05
-0.002953 0.0004 5.4e-05
-0.002982 0.000388 7.5e-05
-0.002998 0.000382 9.7e-05
-0.003001 0.000382 0.000122
-0.002579 0.000645 -0.000952
-0.002526 0.000667 -0.000955
-0.001826 0.00057 -0.002247
-0.002276 0.000745 -0.001249
-0.002579 0.0007 -0.000952
-0.002453 0.000673 -0.001516
-0.00178 0.000728 -0.002048
-0.002902 0.000345 -0.00076
-0.0029 0.000347 -0.000735
-0.002882 0.000358 -0.000706
-0.002857 0.000371 -0.000679
-0.00283 0.000385 -0.00065
-0.002803 0.000399 -0.000622
-0.002772 0.000415 -0.000593
-0.002735 0.000435 -0.000563
-0.002692 0.000456 -0.000532
-0.002642 0.000481 -0.000501
-0.002539 0.000533 -0.000437
-0.002476 0.000564 -0.000404
-0.002433 0.000586 -0.000373
-0.002414 0.000596 -0.000346
-0.002405 0.000602 -0.00032
-0.002402 0.000605 -0.000294
-0.002403 0.000606 -0.00027
-0.002407 0.000606 -0.000245
-0.002414 0.000604 -0.000222
-0.002424 0.000601 -0.000198
-0.00244 0.000595 -0.000175
-0.002466 0.000584 -0.000154
-0.002577 0.000535 -0.000119
-0.002641 0.000507 -0.000103
-0.002694 0.000484 -8.5e-05
-0.00274 0.000463 -6.7e-05
-0.002781 0.000446 -4.7e-05
-0.00282 0.000429 -2.8e-05
-0.002856 0.000414 -8e-06
-0.002889 0.0004 1.3e-05
-0.002922 0.000386 3.3e-05
-0.002953 0.000373 5.4e-05
-0.002983 0.000361 7.5e-05
-0.002998 0.000355 9.7e-05
-0.003001 0.000355 0.000122
-0.001829 0.000613 -0.002281
-0.002463 0.000694 -0.000954
-0.002448 0.000675 -0.001709
-0.002403 0.000742 -0.000981
-0.002754 0.000631 -0.000922
-0.002471 0.000535 -0.001696
-0.002193 0.000671 -0.001752
-0.002902 0.000318 -0.00076
-0.0029 0.00032 -0.000734
-0.002882 0.00033 -0.000706
-0.002857 0.000344 -0.000679
-0.00283 0.000358 -0.00065
-0.002802 0.000372 -0.000622
-0.002772 0.000388 -0.000593
-0.002735 0.000407 -0.000563
-0.002692 0.000429 -0.000532
-0.002642 0.000454 -0.000501
-0.002594 0.000478 -0.000469
-0.002539 0.000505 -0.000437
-0.002474 0.000538 -0.000403
-0.002433 0.000559 -0.000373
-0.002414 0.000569 -0.000346
-0.002405 0.000575 -0.00032
-0.002402 0.000578 -0.000294
-0.002403 0.000579 -0.00027
-0.002407 0.000579 -0.000245
-0.002414 0.000577 -0.000221
-0.002424 0.000574 -0.000198
-0.00244 0.000568 -0.000175
-0.002466 0.000557 -0.000154
-0.002512 0.000537 -0.000135
-0.002578 0.000508 -0.000119
-0.002641 0.00048 -0.000103
-0.002693 0.000457 -8.5e-05
-0.002741 0.000436 -6.7e-05
-0.002782 0.000418 -4.7e-05
-0.00282 0.000402 -2.8e-05
-0.002856 0.000387 -8e-06
-0.002889 0.000373 1.3e-05
-0.002923 0.000358 3.3e-05
-0.002953 0.000346 5.4e-05
-0.002983 0.000333 7.5e-05
-0.002998 0.000328 9.7e-05
-0.003001 0.000328 0.000122
-0.00217 0.000733 -0.001121
-0.002286 0.000661 -0.001766
-0.002671 0.000609 -0.000939
-0.002627 0.000626 -0.000946
-0.002425 0.000588 -0.001754
-0.001012 0.000681 -0.002456
-0.002359 0.000714 -0.001366
-0.002882 0.000651 -0.000817
-0.002902 0.00029 -0.00076
-0.0029 0.000293 -0.000734
-0.002883 0.000303 -0.000706
-0.002856 0.000317 -0.000678
-0.002831 0.00033 -0.00065
-0.002802 0.000345 -0.000622
