0.001121 0.000521 -0.002776
0.001178 6e-06 -0.002187
0.001156 2e-06 -0.002201
0.00113 5e-06 -0.002201
0.001106 7e-06 -0.002204
0.001082 7e-06 -0.002212
0.001059 6e-06 -0.00222
0.001035 6e-06 -0.002227
0.001012 5e-06 -0.002235
0.00112 0.00044 -0.002776
0.001924 0.000405 -0.002295
0.001205 0.000513 -0.002537
0.002533 0.000663 -0.001569
0.000894 4e-06 -0.002271
0.001171 0.000673 -0.002154
0.001207 0.000548 -0.002448
0.001298 0.00069 -0.002033
0.001512 0.000593 -0.002144
0.001461 0.00062 -0.002108
0.000706 -2.3e-05 -0.001959
0.000729 -2.3e-05 -0.001952
0.000753 -2.2e-05 -0.001944
0.000609 4e-06 -0.002349
0.000582 1e-05 -0.002345
0.000556 1.5e-05 -0.00234
0.00053 1.8e-05 -0.002341
0.000438 1.4e-05 -0.002376
0.000417 9e-06 -0.002392
0.000395 4e-06 -0.002408
0.000776 -2.2e-05 -0.001936
0.0008 -2.1e-05 -0.001929
8.5e-05 8e-06 -0.002487
6.2e-05 7e-06 -0.002497
0.0012 0.000471 -0.002577
0.001844 0.000393 -0.002307
0.00156 0.000569 -0.002175
0.001185 0.000511 -0.002693
0.001192 0.000523 -0.002657
0.001141 2e-06 -0.002147
0.001116 3e-06 -0.00215
0.001092 4e-06 -0.002155
0.001068 5e-06 -0.00216
0.001045 4e-06 -0.002168
0.001021 5e-06 -0.002174
0.000997 5e-06 -0.002179
0.002513 0.00064 -0.001253
0.001924 0.000568 -0.002295
0.001998 0.000696 -0.002149
0.002448 0.000658 -0.001167
0.001654 0.000686 -0.002233
0.002347 0.000727 -0.000763
0.001206 0.00063 -0.002446
0.001204 0.000651 -0.002395
0.001327 0.000683 -0.002031
0.001359 0.000673 -0.002037
0.001904 0.000377 -0.002309
0.001878 0.000382 -0.002315
0.000823 -2.1e-05 -0.001921
0.000569 6e-06 -0.002295
0.000545 6e-06 -0.002303
0.000521 7e-06 -0.002308
0.00112 0.000413 -0.002776
0.001198 0.000567 -0.002338
0.001251 0.000667 -0.002051
9.5e-05 4e-06 -0.002432
7.1e-05 5e-06 -0.002438
4.7e-05 6e-06 -0.002442
2.3e-05 6e-06 -0.002448
0.001951 0.000566 -0.002272
0.002123 0.000681 -0.001532
0.001147 6e-06 -0.002074
0.001123 5e-06 -0.002082
0.001098 7e-06 -0.002085
0.001772 0.000691 -0.002285
0.001609 0.000734 -0.002208
0.001028 6e-06 -0.002107
0.001004 6e-06 -0.002114
0.00098 6e-06 -0.00212
0.002551 0.000662 -0.001552
0.001213 0.00072 -0.00208
0.001561 0.000596 -0.002176
0.001904 0.000459 -0.002309
0.001898 0.000722 -0.001827
0.000344 -2.6e-05 0.002068
0.001903 0.000486 -0.002309
0.001197 0.000676 -0.002337
0.001404 0.000625 -0.002062
0.001998 0.000587 -0.002149
0.001966 0.000648 -0.002253
0.001998 0.000614 -0.002149
0.001186 0.000483 -0.002694
0.001206 0.000558 -0.002492
0.000625 5e-06 -0.002222
0.000601 5e-06 -0.002229
0.000577 5e-06 -0.002234
0.000554 5e-06 -0.002242
0.00053 5e-06 -0.002248
0.000506 5e-06 -0.002254
0.000482 5e-06 -0.002261
0.000292 6e-06 -0.002311
0.000268 7e-06 -0.002317
7.8e-05 7e-06 -0.00237
5.5e-05 6e-06 -0.002379
3.1e-05 6e-06 -0.002385
8e-06 5e-06 -0.002393
0.001808 0.000461 -0.002295
0.001231 0.000667 -0.002064
0.001205 0.000486 -0.002537
0.001155 5e-06 -0.002013
0.001132 4e-06 -0.002022
0.001904 0.000404 -0.002309
0.001878 0.000409 -0.002315
0.001192 0.000442 -0.002657
0.00257 0.000633 -0.001537
0.001773 0.000637 -0.002285
0.000991 2e-06 -0.002067
0.000968 2e-06 -0.002075
0.000944 1e-06 -0.002081
0.001172 0.000626 -0.002203
0.002004 0.000574 -0.002187
0.001878 0.000463 -0.002315
0.000801 3e-06 -0.002118
0.000777 2e-06 -0.002125
0.000753 2e-06 -0.002132
0.00073 2e-06 -0.002139
0.001962 0.000408 -0.002263
0.001178 0.000471 -0.002729
0.000634 2e-06 -0.002164
0.000611 3e-06 -0.00217
0.000587 2e-06 -0.002178
0.000563 2e-06 -0.002184
0.00054 2e-06 -0.002191
0.000493 2e-06 -0.002206
0.000468 2e-06 -0.00221
0.000445 2e-06 -0.002218
0.000421 3e-06 -0.002225
0.000279 2e-06 -0.002265
0.000256 2e-06 -0.002273
0.000232 2e-06 -0.002279
3.9e-05 6e-06 -0.002321
1.5e-05 6e-06 -0.002326
0.001844 0.000448 -0.002307
0.001189 2e-06 -0.00195
0.001165 2e-06 -0.001957
0.001141 3e-06 -0.001962
0.001117 3e-06 -0.001968
0.001094 3e-06 -0.001976
0.002401 0.000596 -0.001583
0.002126 0.000734 -0.001535
0.001809 0.000623 -0.002297
0.000974 4e-06 -0.002005
0.000951 4e-06 -0.002013
0.000926 4e-06 -0.002018
0.000903 4e-06 -0.002025
0.00088 3e-06 -0.002033
0.001252 0.000721 -0.002051
0.001274 0.00072 -0.00204
0.000785 3e-06 -0.002061
0.000761 4e-06 -0.002065
0.000737 3e-06 -0.002073
0.000714 3e-06 -0.00208
0.001608 0.000491 -0.002205
0.001653 0.000469 -0.002232
0.001696 0.00045 -0.002254
0.000618 3e-06 -0.002105
0.000594 4e-06 -0.002111
0.000571 4e-06 -0.002118
0.000547 3e-06 -0.002126
0.000476 3e-06 -0.002146
0.000452 4e-06 -0.002152
0.000429 3e-06 -0.002159
0.000404 4e-06 -0.002164
0.000381 4e-06 -0.00217
0.000357 4e-06 -0.002178
0.000334 3e-06 -0.002185
0.00031 3e-06 -0.002192
0.000262 4e-06 -0.002205
0.000238 4e-06 -0.002211
0.001207 0.00053 -0.002493
0.001173 3e-06 -0.001891
0.001149 3e-06 -0.001898
0.001125 4e-06 -0.001904
0.001904 0.000432 -0.002309
0.001511 0.000622 -0.002142
0.001143 0.000574 -0.002766
0.001878 0.000599 -0.002314
0.001198 0.000715 -0.002657
0.000937 1e-06 -0.001962
0.000913 1e-06 -0.00197
0.00089 0.0 -0.001977
0.000866 0.0 -0.001984
0.001203 0.000733 -0.002534
0.001924 0.000378 -0.002295
0.001207 0.000521 -0.002448
0.001864 0.00072 -0.002292
0.000748 -2e-06 -0.002021
0.000725 -2e-06 -0.002028
0.000701 -2e-06 -0.002034
0.000677 -2e-06 -0.002041
0.000654 -2e-06 -0.002048
0.00063 -3e-06 -0.002056
0.000606 -2e-06 -0.002062
0.000583 -2e-06 -0.002069
0.000559 -3e-06 -0.002076
0.000535 -3e-06 -0.002082
0.000511 -3e-06 -0.002089
0.000488 -2e-06 -0.002095
0.000464 -2e-06 -0.0021
0.00044 -2e-06 -0.002107
0.000416 -2e-06 -0.002114
0.000392 -2e-06 -0.002119
0.000368 -1e-06 -0.002125
0.000344 -0.0 -0.00213
0.00032 -0.0 -0.002137
0.000296 -0.0 -0.002143
0.001945 0.00059 -0.001936
0.001158 1e-06 -0.001839
0.001135 1e-06 -0.001847
0.002004 0.000519 -0.002187
0.001143 0.000411 -0.002766
0.001181 0.000656 -0.002123
0.001195 0.000662 -0.002099
0.001948 0.000649 -0.002269
0.001512 0.000729 -0.002145
0.001844 0.00061 -0.002308
0.001608 0.000708 -0.002206
0.001735 0.000651 -0.002271
0.002538 0.000703 -0.001292
0.000879 -8e-06 -0.001938
0.000856 -9e-06 -0.001946
0.000832 -9e-06 -0.001953
0.000808 -1e-05 -0.001961
0.000785 -1e-05 -0.001969
0.000762 -1.1e-05 -0.001977
0.000738 -1.1e-05 -0.001984
0.000714 -1.1e-05 -0.001991
0.000691 -1.2e-05 -0.001998
0.000668 -1.2e-05 -0.002006
0.000644 -1.2e-05 -0.002013
0.00062 -1.2e-05 -0.002019
0.000596 -1.2e-05 -0.002025
0.000572 -1.2e-05 -0.002032
0.000549 -1.2e-05 -0.002039
0.000525 -1.2e-05 -0.002045
0.000501 -1.2e-05 -0.002051
0.000477 -1.2e-05 -0.002058
0.000454 -1.2e-05 -0.002064
0.00043 -1.1e-05 -0.00207
0.000406 -1.1e-05 -0.002076
0.000382 -1.1e-05 -0.002083
0.000358 -1e-05 -0.002088
0.000334 -1e-05 -0.002094
0.00031 -1e-05 -0.002099
0.000286 -9e-06 -0.002105
0.002362 0.00061 -0.001582
0.000939 -1.3e-05 0.001908
0.00146 0.000703 -0.002106
0.001991 0.000629 -0.002109
0.001164 0.000411 -0.002753
0.001171 0.000646 -0.002155
0.001212 0.000666 -0.00208
0.001359 0.000646 -0.002037
0.001608 0.000518 -0.002206
0.001653 0.000497 -0.002232
0.001461 0.000566 -0.002108
0.001403 0.000598 -0.002062
0.001359 0.000619 -0.002037
0.001327 0.000629 -0.002032
0.001298 0.000636 -0.002033
0.001274 0.000639 -0.00204
0.001251 0.00064 -0.00205
0.00123 0.00064 -0.002063
0.001211 0.000639 -0.002079
0.001195 0.000635 -0.002099
0.001181 0.000629 -0.002123
0.001171 0.000619 -0.002154
0.001187 0.000568 -0.002274
0.001198 0.000539 -0.002339
0.001204 0.000515 -0.002396
0.001207 0.000494 -0.002448
0.001206 0.000476 -0.002493
0.001204 0.000459 -0.002537
0.001201 0.000444 -0.002578
0.001197 0.000429 -0.002618
0.001192 0.000415 -0.002657
0.001186 0.000402 -0.002694
0.001178 0.00039 -0.002729
0.001164 0.000384 -0.002753
0.001143 0.000384 -0.002766
0.001121 0.000385 -0.002776
0.002472 0.000463 -0.001582
0.002507 0.000452 -0.00158
0.001991 0.000602 -0.002109
0.002473 0.000626 -0.001582
0.002746 0.000615 0.000155
0.001962 0.000354 -0.002263
0.001943 0.000352 -0.00228
0.001924 0.00035 -0.002296
0.001904 0.00035 -0.002309
0.001878 0.000354 -0.002315
0.001844 0.000366 -0.002307
0.001808 0.000379 -0.002296
0.001771 0.000393 -0.002283
0.001735 0.000407 -0.002271
0.001696 0.000423 -0.002255
0.001652 0.000443 -0.002231
0.001608 0.000464 -0.002206
0.00156 0.000487 -0.002176
0.001461 0.000538 -0.002109
0.001404 0.00057 -0.002063
0.001358 0.000592 -0.002036
0.001326 0.000602 -0.002031
0.001298 0.000608 -0.002033
0.001273 0.000612 -0.002039
0.001251 0.000613 -0.00205
0.00123 0.000613 -0.002063
0.001212 0.000611 -0.002079
0.001195 0.000608 -0.0021
0.001181 0.000601 -0.002123
0.00117 0.000592 -0.002154
0.001197 0.000513 -0.002338
0.001204 0.000488 -0.002396
0.001207 0.000467 -0.002447
0.001207 0.000449 -0.002494
0.001205 0.000432 -0.002537
0.0012 0.000417 -0.002577
0.001196 0.000402 -0.002618
0.001192 0.000388 -0.002657
0.001185 0.000375 -0.002694
0.001178 0.000363 -0.002729
0.001164 0.000356 -0.002753
0.001143 0.000356 -0.002766
0.00112 0.000358 -0.002776
0.00181 0.000727 -0.001648
0.001982 0.000618 -0.002068
0.002225 0.00072 -0.001558
0.001991 0.000684 -0.002109
0.001962 0.000327 -0.002263
0.001943 0.000325 -0.00228
0.001924 0.000323 -0.002295
0.001904 0.000323 -0.002309
0.001878 0.000327 -0.002315
0.001844 0.000338 -0.002307
0.001808 0.000352 -0.002295
0.001772 0.000365 -0.002284
0.001735 0.00038 -0.00227
0.001697 0.000395 -0.002255
0.001652 0.000416 -0.002231
0.001608 0.000437 -0.002206
0.00146 0.000512 -0.002107
0.001402 0.000545 -0.00206
0.001358 0.000565 -0.002036
0.001326 0.000575 -0.002031
0.001298 0.000581 -0.002032
0.001273 0.000585 -0.002039
0.001251 0.000586 -0.00205
0.00123 0.000586 -0.002063
0.001212 0.000584 -0.00208
0.001195 0.000581 -0.002099
0.00118 0.000574 -0.002123
0.00117 0.000565 -0.002153
0.001198 0.000485 -0.002339
0.001205 0.00046 -0.002397
0.001207 0.000439 -0.002448
0.001206 0.000422 -0.002493
0.001204 0.000405 -0.002537
0.001201 0.000389 -0.002578
0.001197 0.000375 -0.002618
0.001191 0.000361 -0.002656
0.001185 0.000347 -0.002694
0.001178 0.000335 -0.002729
0.001164 0.000329 -0.002753
0.001143 0.000329 -0.002766
0.00112 0.000331 -0.002776
0.001926 0.000667 -0.001885
0.001932 0.000567 -0.002288
0.002175 0.000714 -0.001545
0.001969 0.000619 -0.002255
0.001958 0.000735 -0.00198
0.001943 0.000298 -0.002279
0.001924 0.000296 -0.002295
0.001904 0.000296 -0.002309
0.001878 0.0003 -0.002314
0.001844 0.000311 -0.002307
0.001808 0.000325 -0.002295
0.001772 0.000338 -0.002284
0.001735 0.000353 -0.00227
0.001696 0.000368 -0.002255
0.001653 0.000388 -0.002232
0.001607 0.00041 -0.002205
0.001559 0.000434 -0.002174
0.001511 0.000458 -0.002143
0.001403 0.000517 -0.002061
0.001358 0.000538 -0.002036
0.001326 0.000548 -0.002031
0.001298 0.000554 -0.002032
0.001273 0.000558 -0.002039
0.001251 0.000559 -0.00205
0.00123 0.000559 -0.002063
0.001211 0.000557 -0.002079
0.001195 0.000554 -0.002099
0.00118 0.000547 -0.002123
0.00117 0.000538 -0.002153
0.001198 0.000458 -0.002339
0.001204 0.000434 -0.002395
0.001207 0.000412 -0.002448
0.001206 0.000395 -0.002492
0.001204 0.000378 -0.002536
0.001201 0.000362 -0.002578
0.001197 0.000347 -0.002618
0.001191 0.000333 -0.002657
0.001185 0.00032 -0.002694
0.001178 0.000308 -0.002729
0.001164 0.000302 -0.002753
0.001143 0.000302 -0.002766
0.00112 0.000304 -0.002776
0.002008 0.000706 -0.001495
0.002225 0.000665 -0.001558
0.002274 0.000645 -0.001568
0.002586 0.000586 -0.00137
0.002473 0.000599 -0.001582
0.001906 0.000654 -0.002298
0.001943 0.00027 -0.00228
0.001924 0.000269 -0.002296
0.001903 0.000269 -0.002309
0.001877 0.000273 -0.002314
0.001844 0.000284 -0.002307
0.001808 0.000297 -0.002296
0.001772 0.000311 -0.002284
0.001734 0.000326 -0.00227
0.001696 0.000341 -0.002254
0.001653 0.000361 -0.002232
0.001558 0.000408 -0.002172
0.00151 0.000431 -0.002142
0.001459 0.000459 -0.002105
0.001403 0.00049 -0.002062
0.001358 0.000511 -0.002036
0.001326 0.000521 -0.00203
0.001298 0.000527 -0.002032
0.001273 0.00053 -0.002039
0.001251 0.000531 -0.002051
0.00123 0.000531 -0.002064
0.001211 0.00053 -0.002079
0.001195 0.000526 -0.002099
0.00118 0.00052 -0.002123
0.00117 0.00051 -0.002154
0.001172 0.00049 -0.002204
0.001197 0.000431 -0.002338
0.001204 0.000406 -0.002396
0.001207 0.000385 -0.002448
0.001205 0.000368 -0.002492
0.001204 0.000351 -0.002536
0.001201 0.000335 -0.002578
0.001196 0.000321 -0.002617
0.001192 0.000306 -0.002657
0.001185 0.000293 -0.002693
0.001178 0.000281 -0.002729
0.001164 0.000275 -0.002753
0.001143 0.000275 -0.002766
0.00112 0.000277 -0.002776
0.001097 0.000279 -0.002786
0.00232 0.000545 -0.001577
0.002361 0.000529 -0.001581
0.002123 0.0006 -0.001532
0.002508 0.00056 -0.001581
0.002508 0.000587 -0.001581
0.0024 0.000678 -0.001583
0.001943 0.000243 -0.00228
0.001924 0.000242 -0.002296
0.001903 0.000242 -0.002309
0.001877 0.000246 -0.002314
0.001844 0.000257 -0.002307
0.001808 0.000271 -0.002295
0.001772 0.000284 -0.002284
0.001734 0.000299 -0.00227
0.001695 0.000315 -0.002254
0.001653 0.000333 -0.002232
0.001607 0.000356 -0.002204
0.001559 0.00038 -0.002174
0.00151 0.000404 -0.002142
0.00146 0.00043 -0.002107
0.001402 0.000463 -0.00206
0.001358 0.000484 -0.002035
0.001326 0.000494 -0.00203
0.001298 0.0005 -0.002032
0.001273 0.000503 -0.00204
0.001251 0.000504 -0.002051
0.00123 0.000504 -0.002063
0.001211 0.000503 -0.00208
0.001195 0.000499 -0.002099
0.00118 0.000493 -0.002123
0.001171 0.000483 -0.002154
0.001172 0.000463 -0.002204
0.001196 0.000405 -0.002336
0.001204 0.000379 -0.002395
0.001206 0.000359 -0.002446
0.001205 0.000341 -0.002492
0.001204 0.000323 -0.002537
0.0012 0.000308 -0.002577
0.001197 0.000293 -0.002618
0.001192 0.000279 -0.002657
0.001186 0.000266 -0.002694
0.001178 0.000254 -0.002729
0.001164 0.000248 -0.002753
0.001143 0.000248 -0.002766
0.001121 0.000249 -0.002776
0.001097 0.000251 -0.002786
0.001973 0.000526 -0.002027
0.002473 0.000572 -0.001582
0.002362 0.000637 -0.001582
0.001946 0.000726 -0.001936
0.001943 0.000216 -0.00228
0.001924 0.000215 -0.002295
0.001903 0.000215 -0.002308
0.001877 0.000219 -0.002313
0.001844 0.00023 -0.002307
0.001808 0.000243 -0.002295
0.001772 0.000257 -0.002283
0.001734 0.000272 -0.002269
0.001695 0.000287 -0.002254
0.001653 0.000306 -0.002233
0.001606 0.00033 -0.002203
0.001559 0.000352 -0.002174
0.001511 0.000377 -0.002143
0.00146 0.000404 -0.002107
0.001401 0.000437 -0.002059
0.001358 0.000457 -0.002036
0.001326 0.000467 -0.00203
0.001298 0.000473 -0.002032
0.001273 0.000476 -0.002039
0.001251 0.000477 -0.00205
0.00123 0.000477 -0.002064
0.001212 0.000475 -0.00208
0.001195 0.000472 -0.002099
0.00118 0.000466 -0.002123
0.001171 0.000456 -0.002154
0.001173 0.000436 -0.002204
0.001197 0.000377 -0.002338
0.001204 0.000352 -0.002396
0.001206 0.000331 -0.002446
0.001206 0.000313 -0.002492
0.001204 0.000296 -0.002536
0.0012 0.000281 -0.002577
0.001197 0.000266 -0.002618
0.001192 0.000252 -0.002657
0.001186 0.000238 -0.002694
0.001178 0.000226 -0.002729
0.001164 0.000221 -0.002752
0.001143 0.000221 -0.002766
0.00112 0.000222 -0.002776
0.001097 0.000224 -0.002786
0.002069 0.00065 -0.001517
0.002174 0.000606 -0.001545
0.00196 0.000544 -0.001982
0.002437 0.000584 -0.001583
0.002226 0.000692 -0.001558
0.002362 0.000692 -0.001582
0.001943 0.000189 -0.002279
0.001923 0.000188 -0.002295
0.001902 0.000188 -0.002308
0.001877 0.000192 -0.002313
0.001844 0.000203 -0.002306
0.001807 0.000216 -0.002295
0.001771 0.00023 -0.002283
0.001734 0.000244 -0.00227
0.001695 0.000261 -0.002253
0.001652 0.00028 -0.002231
0.001559 0.000325 -0.002174
0.00151 0.00035 -0.002142
0.001459 0.000377 -0.002105
0.001358 0.000429 -0.002036
0.001325 0.00044 -0.00203
0.001298 0.000446 -0.002032
0.001273 0.000449 -0.002039
0.001251 0.00045 -0.002051
0.001231 0.00045 -0.002064
0.001211 0.000448 -0.00208
0.001195 0.000445 -0.0021
0.00118 0.000439 -0.002123
0.001171 0.000429 -0.002154
0.001172 0.000409 -0.002204
0.001187 0.000377 -0.002274
0.001198 0.000348 -0.00234
0.001203 0.000325 -0.002395
0.001206 0.000304 -0.002447
0.001206 0.000286 -0.002492
0.001204 0.000269 -0.002537
0.0012 0.000254 -0.002577
0.001197 0.000238 -0.002619
0.001192 0.000224 -0.002657
0.001186 0.000211 -0.002695
0.001178 0.000199 -0.002729
0.001163 0.000194 -0.002752
0.001143 0.000194 -0.002766
0.00112 0.000195 -0.002776
0.001097 0.000197 -0.002786
0.002123 0.000627 -0.001532
0.00232 0.000627 -0.001577
0.00188 0.000744 -0.001777
0.001982 0.000645 -0.002068
0.001928 0.000651 -0.002285
0.001942 0.000162 -0.002279
0.001922 0.000162 -0.002293
0.001901 0.000162 -0.002306
0.001876 0.000165 -0.002313
0.001844 0.000176 -0.002307
0.001807 0.000189 -0.002295
0.001771 0.000203 -0.002283
0.001735 0.000217 -0.00227
0.001695 0.000233 -0.002254
0.001652 0.000253 -0.002231
0.001558 0.000299 -0.002173
0.00151 0.000323 -0.002142
0.001458 0.00035 -0.002105
0.001402 0.000382 -0.002061
0.001358 0.000402 -0.002036
0.001325 0.000413 -0.00203
0.001298 0.000418 -0.002032
0.001273 0.000422 -0.002039
0.001251 0.000423 -0.00205
0.001231 0.000422 -0.002064
0.001212 0.000421 -0.00208
0.001195 0.000417 -0.0021
0.00118 0.000412 -0.002123
0.001171 0.000401 -0.002155
0.001187 0.00035 -0.002274
0.001198 0.000321 -0.002339
0.001203 0.000298 -0.002395
0.001207 0.000277 -0.002447
0.001206 0.000259 -0.002493
0.001204 0.000242 -0.002537
0.0012 0.000227 -0.002577
0.001197 0.000211 -0.002619
0.001192 0.000197 -0.002657
0.001186 0.000184 -0.002694
0.001178 0.000172 -0.002729
0.001163 0.000168 -0.002751
0.001142 0.000167 -0.002764
0.00112 0.000168 -0.002775
0.001097 0.00017 -0.002785
0.002069 0.000678 -0.001516
0.002088 0.000748 -0.001534
0.001971 0.000662 -0.002025
0.001986 0.000619 -0.002237
0.002005 0.000656 -0.002186
0.002398 0.000734 -0.001581
0.001921 0.000136 -0.002291
0.0019 0.000136 -0.002303
0.001875 0.000139 -0.002311
0.001843 0.000149 -0.002307
0.001807 0.000162 -0.002295
0.001771 0.000176 -0.002283
0.001734 0.00019 -0.00227
0.001696 0.000206 -0.002254
0.001651 0.000226 -0.00223
0.001607 0.000247 -0.002205
0.001558 0.000272 -0.002173
0.00151 0.000296 -0.002141
0.001459 0.000323 -0.002105
0.001402 0.000354 -0.002061
0.001358 0.000375 -0.002036
0.001325 0.000385 -0.00203
0.001298 0.000391 -0.002032
0.001273 0.000394 -0.002039
0.001251 0.000396 -0.00205
0.001231 0.000395 -0.002064
0.001211 0.000394 -0.00208
0.001194 0.00039 -0.002099
0.00118 0.000385 -0.002123
0.001171 0.000374 -0.002155
0.001172 0.000354 -0.002204
0.001186 0.000323 -0.002274
0.001198 0.000294 -0.00234
0.001204 0.00027 -0.002396
0.001206 0.00025 -0.002446
0.001205 0.000232 -0.002492
0.001204 0.000215 -0.002537
0.0012 0.000199 -0.002578
0.001197 0.000184 -0.002619
0.001192 0.00017 -0.002658
0.001186 0.000157 -0.002694
0.001178 0.000146 -0.002728
0.001161 0.000142 -0.002748
0.00114 0.000141 -0.002762
0.001119 0.000142 -0.002773
0.001095 0.000144 -0.002783
0.001828 0.000719 -0.001565
0.002321 0.000653 -0.001577
0.00195 0.00062 -0.002272
0.002001 0.000669 -0.002149
0.002437 0.00072 -0.001583
0.002276 0.000747 -0.000811
0.001918 0.000111 -0.002286
0.001897 0.000112 -0.002299
0.001873 0.000114 -0.002308
0.001843 0.000122 -0.002306
0.001807 0.000135 -0.002294
0.001771 0.000149 -0.002283
0.001734 0.000163 -0.00227
0.001695 0.000179 -0.002254
0.001652 0.000199 -0.00223
0.001607 0.00022 -0.002204
0.001558 0.000245 -0.002172
0.001509 0.00027 -0.00214
0.001458 0.000296 -0.002105
0.001402 0.000327 -0.00206
0.001358 0.000348 -0.002036
0.001325 0.000359 -0.002029
0.001298 0.000364 -0.002032
0.001273 0.000367 -0.002039
0.001251 0.000368 -0.002051
0.00123 0.000368 -0.002064
0.001211 0.000367 -0.00208
0.001194 0.000363 -0.002099
0.00118 0.000357 -0.002123
0.001171 0.000347 -0.002154
0.001172 0.000327 -0.002204
0.001187 0.000295 -0.002275
0.001198 0.000267 -0.002339
0.001204 0.000243 -0.002397
0.001206 0.000223 -0.002447
0.001205 0.000205 -0.002492
0.001204 0.000187 -0.002537
0.001201 0.000172 -0.002579
0.001197 0.000157 -0.002619
0.001192 0.000143 -0.002658
0.001186 0.00013 -0.002694
0.001176 0.00012 -0.002726
0.001159 0.000117 -0.002744
0.001138 0.000116 -0.002758
0.001116 0.000117 -0.002769
0.002651 0.000712 -0.000745
0.002437 0.000611 -0.001583
0.002321 0.000707 -0.001578
0.00196 0.000679 -0.002247
0.001952 9e-05 -0.002249
0.001933 8.9e-05 -0.002265
0.001977 0.000679 -0.002229
0.001893 8.8e-05 -0.002292
0.00187 9e-05 -0.002302
0.001842 9.5e-05 -0.002305
0.001807 0.000108 -0.002294
0.001771 0.000121 -0.002283
0.001734 0.000136 -0.002269
0.001695 0.000151 -0.002254
0.001652 0.000172 -0.00223
0.001606 0.000193 -0.002204
0.001557 0.000218 -0.002171
0.001509 0.000242 -0.00214
0.001357 0.000321 -0.002035
0.001325 0.000331 -0.00203
0.001297 0.000337 -0.002031
0.001273 0.00034 -0.002039
0.001251 0.000341 -0.00205
0.00123 0.000341 -0.002064
0.001212 0.000339 -0.00208
0.001194 0.000336 -0.002099
0.00118 0.00033 -0.002122
0.001171 0.00032 -0.002155
0.001187 0.000268 -0.002276
0.001199 0.000239 -0.00234
0.001205 0.000215 -0.002398
0.001207 0.000195 -0.002447
0.001205 0.000178 -0.002492
0.001204 0.00016 -0.002537
0.001201 0.000144 -0.002579
0.001198 0.000129 -0.00262
0.001192 0.000116 -0.002658
0.001186 0.000103 -0.002694
0.001174 9.5e-05 -0.002721
0.001155 9.3e-05 -0.002738
0.001134 9.3e-05 -0.002751
0.001112 9.4e-05 -0.002762
0.001089 9.5e-05 -0.002772
0.002572 0.000469 -0.001539
0.001987 0.000591 -0.002238
0.002827 0.000703 -0.000706
0.002472 0.000708 -0.001581
0.001947 6.8e-05 -0.002239
0.001927 6.7e-05 -0.002255
0.002513 0.000721 -0.001253
0.002002 0.000686 -0.002183
0.001864 6.7e-05 -0.002293
0.001839 7.1e-05 -0.0023
0.001807 8.1e-05 -0.002294
0.001771 9.4e-05 -0.002283
0.001734 0.000109 -0.002269
0.001695 0.000124 -0.002254
0.001651 0.000145 -0.002229
0.001605 0.000167 -0.002202
0.001559 0.00019 -0.002173
0.001509 0.000215 -0.002139
0.001457 0.000243 -0.002103
0.001403 0.000272 -0.002062
0.001357 0.000294 -0.002035
0.001325 0.000304 -0.00203
0.001297 0.00031 -0.002032
0.001273 0.000313 -0.002039
0.001251 0.000314 -0.00205
0.00123 0.000314 -0.002064
0.001212 0.000312 -0.00208
0.001195 0.000309 -0.002099
0.00118 0.000303 -0.002122
0.001171 0.000292 -0.002155
0.001172 0.000272 -0.002205
0.001187 0.000241 -0.002275
0.001199 0.000212 -0.002341
0.001205 0.000188 -0.002397
0.001207 0.000168 -0.002447
0.001206 0.00015 -0.002493
0.001205 0.000133 -0.002538
0.001201 0.000117 -0.002579
0.001198 0.000102 -0.00262
0.001192 8.8e-05 -0.002658
0.001184 7.7e-05 -0.002692
0.001169 7.2e-05 -0.002714
0.001149 7.1e-05 -0.002729
0.001128 7.1e-05 -0.002742
0.001106 7.2e-05 -0.002753
0.001083 7.3e-05 -0.002763
0.001059 7.6e-05 -0.002772
0.001982 0.000509 -0.002069
0.002004 0.000601 -0.002187
0.001974 5.4e-05 -0.002192
0.001957 5e-05 -0.00221
0.001939 4.8e-05 -0.002227
0.00192 4.7e-05 -0.002242
0.002507 0.000669 -0.00158
0.002555 0.000632 -0.001556
0.002438 0.000665 -0.001584
0.001833 4.9e-05 -0.00229
0.001804 5.6e-05 -0.00229
0.00177 6.8e-05 -0.002281
0.001733 8.2e-05 -0.002269
0.001695 9.7e-05 -0.002254
0.001651 0.000118 -0.00223
0.001606 0.000139 -0.002204
0.001558 0.000163 -0.002173
0.001508 0.000189 -0.002139
0.001457 0.000216 -0.002102
0.001402 0.000246 -0.002061
0.001357 0.000267 -0.002035
0.001325 0.000277 -0.002029
0.001297 0.000283 -0.002032
0.001273 0.000286 -0.002039
0.001251 0.000287 -0.002051
0.00123 0.000287 -0.002064
0.001212 0.000285 -0.00208
0.001195 0.000282 -0.002099
0.00118 0.000276 -0.002123
0.001171 0.000265 -0.002155
0.001174 0.000244 -0.002207
0.001188 0.000213 -0.002276
0.001197 0.000186 -0.002338
0.001205 0.000161 -0.002398
0.001206 0.000141 -0.002447
0.001207 0.000122 -0.002495
0.001205 0.000105 -0.002538
0.001201 9e-05 -0.002579
0.001197 7.5e-05 -0.002619
0.001191 6.2e-05 -0.002656
0.001179 5.4e-05 -0.002684
0.001162 5e-05 -0.002703
0.001142 5e-05 -0.002717
0.00112 5e-05 -0.00273
0.001098 5.1e-05 -0.002741
0.001076 5.3e-05 -0.002751
0.001052 5.5e-05 -0.00276
0.002226 0.000638 -0.001558
0.002572 0.000578 -0.001539
0.001965 3.5e-05 -0.002176
0.001948 3.2e-05 -0.002194
0.001929 3e-05 -0.002211
0.001909 2.9e-05 -0.002226
0.001999 0.000641 -0.002149
0.002806 0.000572 -0.00071
0.002602 0.000556 -0.001487
0.002572 0.000605 -0.001538
0.001798 3.5e-05 -0.00228
0.001767 4.3e-05 -0.002276
0.001732 5.6e-05 -0.002267
0.001695 7.1e-05 -0.002253
0.00151 0.00016 -0.002141
0.001457 0.000188 -0.002103
0.001357 0.00024 -0.002035
0.001325 0.00025 -0.002029
0.001297 0.000256 -0.002032
0.001273 0.000259 -0.002039
0.001251 0.00026 -0.00205
0.00123 0.000259 -0.002064
0.001211 0.000258 -0.00208
0.001195 0.000254 -0.002099
0.00118 0.000248 -0.002123
0.00117 0.000238 -0.002154
0.001173 0.000218 -0.002205
0.001187 0.000187 -0.002275
0.001197 0.000159 -0.002339
0.001207 0.000113 -0.002448
0.001207 9.5e-05 -0.002495
0.001205 7.8e-05 -0.002538
0.001201 6.3e-05 -0.002579
0.001195 5e-05 -0.002616
0.001186 3.9e-05 -0.002648
0.001171 3.4e-05 -0.00267
0.001152 3.2e-05 -0.002688
0.001132 3.1e-05 -0.002702
0.001111 3.2e-05 -0.002714
0.001089 3.2e-05 -0.002726
0.001066 3.4e-05 -0.002736
0.001043 3.6e-05 -0.002745
0.001931 0.000734 -0.001492
0.002273 0.000618 -0.001568
0.001969 2.4e-05 -0.002136
0.001953 1.9e-05 -0.002155
0.001934 1.7e-05 -0.002171
0.001914 1.6e-05 -0.002187
0.001894 1.5e-05 -0.002201
0.001932 0.000486 -0.002288
0.001951 0.000484 -0.002272
0.002175 0.000659 -0.001545
0.002002 0.00051 -0.002219
0.001988 0.000509 -0.002239
0.002539 0.000469 -0.001575
0.001728 3.2e-05 -0.002261
0.001693 4.5e-05 -0.00225
0.001652 6.3e-05 -0.00223
0.001606 8.5e-05 -0.002203
0.00151 0.000133 -0.002142
0.001456 0.000162 -0.002102
0.001357 0.000213 -0.002034
0.001325 0.000223 -0.002029
0.001297 0.000228 -0.002032
0.001273 0.000232 -0.002039
0.001251 0.000233 -0.00205
0.00123 0.000232 -0.002064
0.001211 0.000231 -0.00208
0.001194 0.000227 -0.002099
0.00118 0.000221 -0.002123
0.001171 0.000211 -0.002155
0.001173 0.00019 -0.002206
0.001187 0.000159 -0.002275
0.001199 0.00013 -0.002342
0.001205 0.000106 -0.002398
0.001207 8.6e-05 -0.002449
0.001207 6.8e-05 -0.002494
0.001204 5.1e-05 -0.002538
0.001199 3.7e-05 -0.002576
0.00119 2.7e-05 -0.002608
0.001176 2.1e-05 -0.002632
0.001158 1.8e-05 -0.00265
0.001139 1.7e-05 -0.002665
0.001118 1.7e-05 -0.002679
0.001097 1.7e-05 -0.002691
0.001075 1.8e-05 -0.002703
0.001053 1.9e-05 -0.002714
0.00103 2.1e-05 -0.002724
0.001958 0.000727 -0.001483
0.002474 0.000653 -0.001582
0.00195 1.3e-05 -0.002104
0.00193 1.1e-05 -0.002119
0.00191 1e-05 -0.002133
0.001889 1e-05 -0.002146
0.001869 1e-05 -0.00216
0.001848 1e-05 -0.002174
0.001824 0.00068 -0.001694
0.001716 1.5e-05 -0.002242
0.001687 2.3e-05 -0.00224
0.001649 3.8e-05 -0.002227
0.001509 0.000106 -0.00214
0.001456 0.000135 -0.002101
0.001356 0.000186 -0.002033
0.001325 0.000196 -0.002029
0.001297 0.000201 -0.002032
0.001273 0.000205 -0.002039
0.001251 0.000206 -0.00205
0.00123 0.000205 -0.002064
0.001211 0.000204 -0.00208
0.001194 0.0002 -0.002099
0.00118 0.000194 -0.002123
0.001171 0.000183 -0.002156
0.001173 0.000163 -0.002206
0.001187 0.000132 -0.002276
0.001199 0.000103 -0.002342
0.001205 7.9e-05 -0.002398
0.001208 5.8e-05 -0.00245
0.001206 4.2e-05 -0.002493
0.001201 2.7e-05 -0.002532
0.001191 1.7e-05 -0.002562
0.001176 1.2e-05 -0.002585
0.001157 1e-05 -0.002601
0.001136 1e-05 -0.002615
0.001115 1e-05 -0.002627
0.001094 1e-05 -0.00264
0.001073 1e-05 -0.002653
0.001052 1e-05 -0.002666
0.001031 1.1e-05 -0.002679
0.001009 1.2e-05 -0.00269
0.001958 0.000699 -0.001483
0.001913 0.00074 -0.001841
0.001944 1e-05 -0.002048
0.001922 1e-05 -0.002059
0.001901 1e-05 -0.002072
0.001881 9e-06 -0.002086
0.001859 1e-05 -0.002097
0.001972 0.00058 -0.002026
0.001811 0.000737 -0.001616
0.001982 0.000536 -0.002068
0.00197 0.000483 -0.002256
0.001972 0.000553 -0.002026
0.001925 0.000722 -0.001884
0.00167 1.1e-05 -0.002213
0.001641 1.7e-05 -0.002214
0.001605 3.2e-05 -0.002201
0.001508 8.1e-05 -0.002138
0.001457 0.000106 -0.002103
0.001401 0.000138 -0.002059
0.001357 0.000159 -0.002034
0.001325 0.000169 -0.002029
0.001297 0.000174 -0.002032
0.001273 0.000177 -0.002039
0.001251 0.000178 -0.00205
0.00123 0.000178 -0.002063
0.001211 0.000177 -0.002079
0.001194 0.000173 -0.002099
0.00118 0.000167 -0.002123
0.001171 0.000156 -0.002156
0.001187 0.000105 -0.002276
0.001199 7.6e-05 -0.002342
0.001205 5.2e-05 -0.002398
0.001206 3.2e-05 -0.002447
0.0012 1.9e-05 -0.002483
0.001187 1.2e-05 -0.00251
0.001107 9e-06 -0.002567
0.001086 9e-06 -0.002581
0.001066 9e-06 -0.002594
0.001044 9e-06 -0.002606
0.001878 0.000746 -0.001511
0.001935 9e-06 -0.001986
0.001914 8e-06 -0.001999
0.001893 8e-06 -0.002012
0.002225 0.000611 -0.001558
0.001951 0.000511 -0.002272
0.00197 0.00051 -0.002256
0.002572 0.000496 -0.001539
0.00196 0.000598 -0.001982
0.001944 0.000673 -0.001935
0.001925 0.000695 -0.001884
0.002014 0.000729 -0.0015
0.00193 0.000714 -0.002254
0.001662 9e-06 -0.002154
0.001641 9e-06 -0.002166
0.001619 1e-05 -0.002178
0.001594 1.3e-05 -0.002185
0.001559 2.7e-05 -0.002174
0.001508 5.3e-05 -0.002138
0.0014 0.000112 -0.002057
0.001357 0.000132 -0.002034
0.001324 0.000142 -0.002029
0.001297 0.000147 -0.002031
0.001273 0.00015 -0.002039
0.00125 0.000151 -0.00205
0.00123 0.000151 -0.002063
0.001211 0.00015 -0.002079
0.001194 0.000146 -0.002099
0.00118 0.00014 -0.002123
0.001171 0.000129 -0.002155
0.001188 7.7e-05 -0.002276
0.0012 4.8e-05 -0.002343
0.001204 2.6e-05 -0.002397
0.001196 1.4e-05 -0.002431
0.001181 9e-06 -0.002453
0.001161 8e-06 -0.002467
0.001076 9e-06 -0.002518
0.001055 9e-06 -0.00253
0.001034 9e-06 -0.002543
0.001013 1e-05 -0.002556
0.001861 0.000746 -0.001529
0.001904 9e-06 -0.001937
0.001883 9e-06 -0.001949
0.001841 9e-06 -0.001974
0.001821 8e-06 -0.001988
0.001932 0.000513 -0.002288
0.001779 7e-06 -0.002015
0.001758 8e-06 -0.002028
0.001738 7e-06 -0.002042
0.001718 7e-06 -0.002056
0.001991 0.000575 -0.002109
0.002225 0.000583 -0.001558
0.001655 7e-06 -0.002096
0.001635 6e-06 -0.002109
0.001613 7e-06 -0.002122
0.001592 7e-06 -0.002135
0.001571 7e-06 -0.002147
0.00195 0.000712 -0.002238
0.001401 8.4e-05 -0.002058
0.001357 0.000104 -0.002034
0.001324 0.000114 -0.002029
0.001297 0.00012 -0.002031
0.001272 0.000123 -0.002039
0.00125 0.000124 -0.00205
0.00123 0.000124 -0.002063
0.001211 0.000123 -0.002079
0.001194 0.000119 -0.002099
0.00118 0.000113 -0.002123
0.001171 0.000102 -0.002155
0.001172 8.3e-05 -0.002204
0.001186 5.1e-05 -0.002274
0.001199 2.2e-05 -0.002341
0.001191 1e-05 -0.002375
0.001175 6e-06 -0.002396
0.001155 4e-06 -0.002412
0.001133 6e-06 -0.002422
0.001089 7e-06 -0.002445
0.001048 7e-06 -0.002472
0.001026 8e-06 -0.002483
0.001004 8e-06 -0.002495
0.000983 8e-06 -0.002508
0.000962 9e-06 -0.002521
0.000941 9e-06 -0.002533
0.00092 9e-06 -0.002546
0.000899 9e-06 -0.002559
0.002361 0.000502 -0.001581
0.0024 0.000488 -0.001583
0.002004 0.000465 -0.002187
0.002009 0.000678 -0.001495
0.001812 7e-06 -0.001928
0.001791 7e-06 -0.001941
0.001748 8e-06 -0.001965
0.001727 8e-06 -0.001978
0.001707 7e-06 -0.001993
0.001686 8e-06 -0.002004
0.001998 0.00056 -0.002149
0.002274 0.000563 -0.001569
0.002558 0.000467 -0.00156
0.001602 8e-06 -0.002057
0.001581 8e-06 -0.002069
0.00156 8e-06 -0.002083
0.00154 7e-06 -0.002096
0.001519 7e-06 -0.00211
0.002004 0.000492 -0.002187
0.001356 7.8e-05 -0.002033
0.001324 8.7e-05 -0.002029
0.001297 9.3e-05 -0.002031
0.001272 9.6e-05 -0.002038
0.00125 9.7e-05 -0.00205
0.00123 9.7e-05 -0.002063
0.001211 9.5e-05 -0.002079
0.001194 9.2e-05 -0.002099
0.00118 8.5e-05 -0.002123
0.001171 7.5e-05 -0.002155
0.001172 5.5e-05 -0.002204
0.001183 8e-06 -0.002315
0.001163 7e-06 -0.002331
0.001141 8e-06 -0.002342
0.00108 7e-06 -0.002383
0.001058 7e-06 -0.002395
0.000974 8e-06 -0.002446
0.000954 7e-06 -0.002461
0.000934 6e-06 -0.002476
0.000912 7e-06 -0.002486
0.000892 7e-06 -0.002501
0.000871 7e-06 -0.002514
0.00085 7e-06 -0.002527
0.000846 -2e-05 -0.001911
0.000867 -2.1e-05 -0.001899
0.002174 0.000633 -0.001545
0.001782 7e-06 -0.001879
0.001999 0.000533 -0.002149
0.0024 0.000542 -0.001583
0.00172 6e-06 -0.001919
0.001701 4e-06 -0.001935
0.001679 5e-06 -0.001946
0.001963 0.000751 -0.001488
0.001945 0.000618 -0.001936
0.001576 4e-06 -0.002014
0.001553 5e-06 -0.002025
0.001533 5e-06 -0.002038
0.001512 5e-06 -0.002051
0.00149 6e-06 -0.002063
0.002558 0.000522 -0.001559
0.002002 0.000483 -0.002219
0.001355 5.1e-05 -0.002032
0.001324 6.1e-05 -0.002028
0.001296 6.6e-05 -0.002031
0.001272 6.9e-05 -0.002038
0.00125 7e-05 -0.002049
0.00123 7e-05 -0.002063
0.00121 6.8e-05 -0.002079
0.001194 6.5e-05 -0.002098
0.001179 5.9e-05 -0.002123
0.00117 4.8e-05 -0.002154
0.000889 -2.2e-05 -0.001887
0.000967 6e-06 -0.002387
0.000945 6e-06 -0.0024
0.000881 7e-06 -0.002437
0.00086 8e-06 -0.002449
0.000838 8e-06 -0.002461
0.000819 7e-06 -0.002476
0.000798 8e-06 -0.002489
0.002539 0.00054 -0.001293
0.001988 0.000482 -0.002239
0.002482 0.000716 -0.00121
0.002508 0.000506 -0.001581
0.001774 6e-06 -0.001819
0.001753 5e-06 -0.001832
0.002341 0.000697 -0.00106
0.002871 0.000604 -0.000688
0.002558 0.00044 -0.00156
0.002437 0.000502 -0.001583
0.001812 0.000753 -0.00165
0.00091 -2.2e-05 -0.001875
0.001521 7e-06 -0.001972
0.001499 7e-06 -0.001984
0.00148 6e-06 -0.001999
0.002226 0.000556 -0.001558
0.001355 2.4e-05 -0.002032
0.001324 3.3e-05 -0.002028
0.001296 3.9e-05 -0.00203
0.001272 4.2e-05 -0.002038
0.00125 4.3e-05 -0.002049
0.001229 4.3e-05 -0.002063
0.00121 4.1e-05 -0.002079
0.001193 3.8e-05 -0.002098
0.001179 3.2e-05 -0.002122
0.001172 1.9e-05 -0.002158
0.001019 7e-06 -0.002284
0.000998 6e-06 -0.002298
0.000932 -2.3e-05 -0.001863
0.000872 6e-06 -0.002375
0.000854 5e-06 -0.002392
0.000832 6e-06 -0.002404
0.000791 5e-06 -0.002431
0.00077 4e-06 -0.002445
0.00183 2e-06 -0.001723
0.001805 6e-06 -0.00173
0.001783 7e-06 -0.001741
0.001762 7e-06 -0.001753
0.001741 7e-06 -0.001766
0.00172 7e-06 -0.001779
0.001699 7e-06 -0.001792
0.001822 0.000736 -0.001692
0.002539 0.000442 -0.001575
0.0024 0.000515 -0.001583
0.001951 0.000539 -0.002272
0.002473 0.000545 -0.001582
0.001556 4e-06 -0.001888
0.001535 4e-06 -0.001901
0.001515 4e-06 -0.001916
0.002123 0.000709 -0.001532
0.00207 0.000731 -0.001518
0.001346 5e-06 -0.002017
0.001321 8e-06 -0.002024
0.001296 1.2e-05 -0.00203
0.001272 1.5e-05 -0.002037
0.00125 1.6e-05 -0.002049
0.001229 1.6e-05 -0.002062
0.00121 1.4e-05 -0.002078
0.001193 1.1e-05 -0.002097
0.001177 7e-06 -0.002118
0.001161 2e-06 -0.00214
0.00099 5e-06 -0.002237
0.000968 6e-06 -0.00225
0.000947 6e-06 -0.002262
0.000926 5e-06 -0.002275
0.000863 6e-06 -0.002314
0.000841 7e-06 -0.002325
0.00082 7e-06 -0.002338
0.000799 7e-06 -0.002351
0.001799 3e-06 -0.001672
0.001777 4e-06 -0.001683
0.001756 3e-06 -0.001697
0.001737 2e-06 -0.001712
0.001693 4e-06 -0.001736
0.001673 4e-06 -0.001749
0.001981 0.000745 -0.0021
0.002275 0.000536 -0.00157
0.00232 0.000518 -0.001577
0.001982 0.0007 -0.002068
0.001544 6e-06 -0.001822
0.001523 6e-06 -0.001835
0.001501 7e-06 -0.001846
0.001481 6e-06 -0.001861
0.001926 0.00071 -0.001487
0.001932 0.00054 -0.002288
0.00196 0.000571 -0.001982
0.001375 7e-06 -0.001924
0.001355 7e-06 -0.001938
0.0024 0.000715 -0.001116
0.0024 0.00057 -0.001582
0.002437 0.000557 -0.001583
0.001251 6e-06 -0.002004
0.001231 5e-06 -0.002019
0.00121 6e-06 -0.002031
0.001189 5e-06 -0.002045
0.001168 5e-06 -0.002058
0.001084 6e-06 -0.002108
0.001063 6e-06 -0.002121
0.00098 6e-06 -0.002174
0.000959 5e-06 -0.002188
0.000939 5e-06 -0.002203
0.000918 5e-06 -0.002215
0.000897 5e-06 -0.002228
0.000877 4e-06 -0.002242
0.000855 4e-06 -0.002254
0.000793 4e-06 -0.002294
0.000772 4e-06 -0.002307
0.000751 5e-06 -0.002319
0.000729 5e-06 -0.002331
0.000707 6e-06 -0.002343
0.001982 0.000591 -0.002068
0.001959 0.000626 -0.001982
0.001723 5e-06 -0.001644
0.001703 5e-06 -0.001658
0.001681 6e-06 -0.001669
0.001818 0.000715 -0.001589
0.001639 6e-06 -0.001694
0.001619 6e-06 -0.001709
0.001982 0.000672 -0.002068
0.001903 0.000741 -0.001499
0.002274 0.000672 -0.001569
0.001971 0.000717 -0.002025
0.001514 6e-06 -0.001773
0.001493 5e-06 -0.001787
0.001473 5e-06 -0.001801
0.001911 0.000716 -0.00227
0.001932 0.000458 -0.002289
0.001899 0.000716 -0.001496
0.001389 5e-06 -0.001852
0.001368 5e-06 -0.001865
0.001348 5e-06 -0.001879
0.001326 5e-06 -0.001892
0.002539 0.000524 -0.001575
0.001991 0.000494 -0.002109
0.001824 0.000708 -0.001694
0.002362 0.000583 -0.001581
0.001223 4e-06 -0.001958
0.001201 4e-06 -0.001971
0.001181 5e-06 -0.001984
0.001096 5e-06 -0.002034
0.001076 5e-06 -0.002048
0.001054 5e-06 -0.00206
0.001033 5e-06 -0.002072
0.001012 5e-06 -0.002086
0.000949 5e-06 -0.002125
0.000928 5e-06 -0.002138
0.000906 6e-06 -0.002149
0.000885 6e-06 -0.002162
0.000864 7e-06 -0.002174
0.000842 7e-06 -0.002187
0.000822 6e-06 -0.002201
0.0008 7e-06 -0.002212
0.000781 6e-06 -0.002227
0.00076 6e-06 -0.002241
0.000738 7e-06 -0.002252
0.000718 6e-06 -0.002266
0.000697 6e-06 -0.00228
0.000677 5e-06 -0.002294
0.001971 0.000608 -0.002026
0.001693 5e-06 -0.001594
0.001672 5e-06 -0.001608
0.001652 4e-06 -0.001622
0.001631 4e-06 -0.001636
0.001611 4e-06 -0.00165
0.001959 0.000708 -0.001981
0.001971 0.00069 -0.002025
0.00197 0.000591 -0.002256
0.002274 0.000699 -0.001569
0.00232 0.000681 -0.001577
0.00196 0.000653 -0.001982
0.002002 0.000537 -0.002218
0.002175 0.000577 -0.001546
0.002175 0.000686 -0.001546
0.001951 0.000457 -0.002273
0.001362 2e-06 -0.001808
0.001341 2e-06 -0.001821
0.001319 3e-06 -0.001833
0.001298 3e-06 -0.001846
0.002949 0.000414 -0.000553
0.001866 0.000671 -0.001765
0.002274 0.000721 -0.00081
0.001194 3e-06 -0.001911
0.001131 3e-06 -0.00195
0.00111 3e-06 -0.001963
0.001089 3e-06 -0.001977
0.001069 2e-06 -0.001991
0.001048 2e-06 -0.002004
0.001027 2e-06 -0.002017
0.001006 2e-06 -0.00203
0.000985 2e-06 -0.002043
0.000923 1e-06 -0.002083
0.000903 1e-06 -0.002097
0.000882 1e-06 -0.00211
0.00086 3e-06 -0.002122
0.000839 1e-06 -0.002135
0.000817 3e-06 -0.002146
0.000795 4e-06 -0.002157
0.000774 4e-06 -0.002169
0.000752 5e-06 -0.002181
0.000731 5e-06 -0.002193
0.00071 4e-06 -0.002207
0.000688 6e-06 -0.002217
0.000667 6e-06 -0.002231
0.000645 7e-06 -0.002242
0.000953 -2.3e-05 -0.001851
0.002123 0.000654 -0.001533
0.001666 2e-06 -0.001551
0.001646 1e-06 -0.001565
0.001625 1e-06 -0.001579
0.001604 1e-06 -0.001591
0.001582 2e-06 -0.001603
0.001561 2e-06 -0.001615
0.001539 3e-06 -0.001627
0.001982 0.000727 -0.002068
0.002536 0.000634 -0.001573
0.002557 0.000577 -0.001559
0.002807 0.000653 -0.000711
0.002736 0.00057 -0.000731
0.001991 0.000548 -0.002109
0.001982 0.000563 -0.002069
0.001329 4e-06 -0.001756
0.001308 4e-06 -0.001769
0.001287 4e-06 -0.001781
0.001266 4e-06 -0.001795
0.001246 4e-06 -0.001808
0.002572 0.000523 -0.001539
0.001099 3e-06 -0.0019
0.001078 4e-06 -0.001911
0.001057 4e-06 -0.001925
0.001036 4e-06 -0.001938
0.001016 3e-06 -0.001952
0.000995 3e-06 -0.001965
0.000975 3e-06 -0.001979
0.000868 4e-06 -0.002041
0.000847 5e-06 -0.002053
0.000827 4e-06 -0.002068
0.000703 2e-06 -0.002149
0.000682 3e-06 -0.002161
0.000661 3e-06 -0.002174
0.000641 2e-06 -0.002189
0.001987 0.000536 -0.002239
0.001635 3e-06 -0.001501
0.001612 4e-06 -0.00151
0.001593 3e-06 -0.001526
0.001572 2e-06 -0.00154
0.001551 2e-06 -0.001553
0.00153 2e-06 -0.001566
0.001509 2e-06 -0.001579
0.00199 0.000711 -0.002109
0.002508 0.000641 -0.001581
0.001951 0.000593 -0.002272
0.002558 0.000549 -0.001559
0.002558 0.000495 -0.001559
0.002514 0.000739 -0.000761
0.002004 0.000546 -0.002187
0.001999 0.000478 -0.00215
0.001877 0.000719 -0.00151
0.001981 0.000713 -0.0022
0.001284 -2e-06 -0.001729
0.001263 -2e-06 -0.001743
0.001243 -2e-06 -0.001756
0.001222 -3e-06 -0.00177
0.001965 0.000713 -0.002218
0.001886 0.000722 -0.002279
0.001989 0.000719 -0.002174
0.001138 -3e-06 -0.001822
0.001117 -3e-06 -0.001835
0.001097 -3e-06 -0.001849
0.001076 -3e-06 -0.001861
0.001055 -3e-06 -0.001874
0.001033 -2e-06 -0.001886
0.001011 -2e-06 -0.001898
0.00099 -2e-06 -0.00191
0.000969 -2e-06 -0.001924
0.000948 -1e-06 -0.001936
0.000927 -1e-06 -0.001948
0.000841 0.0 -0.001997
0.000821 1e-06 -0.002011
0.000798 2e-06 -0.002022
0.000671 3e-06 -0.002097
0.00065 4e-06 -0.002109
0.000628 4e-06 -0.002122
0.001999 0.000506 -0.002149
0.002026 0.000749 -0.001511
0.002538 0.000578 -0.001574
0.001587 -1e-06 -0.001471
0.001567 -2e-06 -0.001485
0.001547 -3e-06 -0.001499
0.002602 0.000583 -0.001487
0.00199 0.000657 -0.002109
0.001931 0.000622 -0.002287
0.002651 0.000576 -0.000745
0.002557 0.000604 -0.001558
0.001932 0.000595 -0.002288
0.002539 0.000551 -0.001575
0.002539 0.000497 -0.001575
0.0024 0.000651 -0.001583
0.001346 -1e-05 -0.001642
0.001325 -1e-05 -0.001656
0.001305 -1.1e-05 -0.00167
0.001284 -1.1e-05 -0.001684
0.001264 -1.1e-05 -0.001697
0.001244 -1.2e-05 -0.001711
0.001223 -1.2e-05 -0.001725
0.001202 -1.2e-05 -0.001738
0.001182 -1.3e-05 -0.001752
0.001161 -1.3e-05 -0.001765
0.00114 -1.3e-05 -0.001778
0.001119 -1.3e-05 -0.00179
0.001098 -1.2e-05 -0.001803
0.001077 -1.2e-05 -0.001816
0.001056 -1.2e-05 -0.001829
0.001035 -1.2e-05 -0.001842
0.001013 -1.2e-05 -0.001854
0.000992 -1.2e-05 -0.001867
0.000971 -1.2e-05 -0.00188
0.00095 -1.1e-05 -0.001891
0.000928 -1.1e-05 -0.001904
0.000907 -1e-05 -0.001916
0.000885 -1e-05 -0.001928
0.000864 -9e-06 -0.00194
0.000842 -9e-06 -0.001952
0.00082 -8e-06 -0.001963
0.000799 -7e-06 -0.001975
0.000777 -6e-06 -0.001986
0.000755 -6e-06 -0.001998
0.001991 0.000521 -0.00211
0.002512 0.000695 -0.001252
0.00197 0.000537 -0.002256
0.001926 0.00064 -0.001885
0.00232 0.000599 -0.001577
0.002362 0.000556 -0.001581
0.002068 0.000624 -0.001516
0.001945 0.000645 -0.001935
0.002437 0.000475 -0.001583
0.00197 0.000455 -0.002256
0.002572 0.000442 -0.001539
0.00181 0.0007 -0.001648
0.001945 0.000563 -0.001936
0.002355 0.00075 -0.000766
0.00259 0.000557 -0.001508
0.001328 -2.1e-05 -0.001613
0.001308 -2.2e-05 -0.001628
0.001287 -2.2e-05 -0.001641
0.001267 -2.3e-05 -0.001655
0.001247 -2.3e-05 -0.001669
0.001226 -2.3e-05 -0.001683
0.001205 -2.4e-05 -0.001696
0.001185 -2.4e-05 -0.00171
0.001164 -2.5e-05 -0.001724
0.001144 -2.5e-05 -0.001737
0.001123 -2.5e-05 -0.00175
0.001102 -2.5e-05 -0.001763
0.001081 -2.4e-05 -0.001776
0.00106 -2.4e-05 -0.001788
0.001038 -2.4e-05 -0.001801
0.001017 -2.4e-05 -0.001814
0.000996 -2.4e-05 -0.001826
0.000975 -2.3e-05 -0.001839
0.002007 0.000652 -0.001494
0.001959 0.000672 -0.001484
0.001925 0.000683 -0.001487
0.001899 0.000689 -0.001497
0.001877 0.000692 -0.00151
0.001858 0.000694 -0.001526
0.001842 0.000693 -0.001545
0.001829 0.000692 -0.001565
0.001818 0.000688 -0.001589
0.001811 0.000682 -0.001616
0.001809 0.000673 -0.001647
0.000916 -1.4e-05 0.001917
0.001946 0.000536 -0.001936
0.001961 0.000516 -0.001983
0.001972 0.000498 -0.002027
0.001982 0.000482 -0.002068
0.001991 0.000466 -0.00211
0.001999 0.000451 -0.00215
0.002004 0.000437 -0.002188
0.002002 0.000429 -0.002219
0.001988 0.000427 -0.00224
0.00197 0.000428 -0.002256
0.001951 0.00043 -0.002273
0.002603 0.000595 -0.000749
0.002539 0.000621 -0.001293
0.002615 0.000614 -0.001438
0.002572 0.000414 -0.001539
0.002558 0.000413 -0.00156
0.002539 0.000415 -0.001575
0.002508 0.000424 -0.001581
0.002472 0.000436 -0.001582
0.002437 0.000448 -0.001583
0.0024 0.000461 -0.001583
0.002361 0.000475 -0.001581
0.00232 0.00049 -0.001577
0.002274 0.000509 -0.001569
0.002225 0.000529 -0.001558
0.002175 0.000551 -0.001546
0.002123 0.000573 -0.001532
0.00207 0.000596 -0.001517
0.001958 0.000645 -0.001484
0.001925 0.000655 -0.001487
0.001899 0.000662 -0.001497
0.001877 0.000665 -0.00151
0.001858 0.000667 -0.001526
0.001843 0.000666 -0.001545
0.001829 0.000664 -0.001566
0.001818 0.000661 -0.001589
0.001811 0.000655 -0.001616
0.001809 0.000646 -0.001648
0.000894 -1.5e-05 0.001927
0.00087 -1.5e-05 0.001935
0.001946 0.000508 -0.001937
0.00196 0.000489 -0.001983
0.001972 0.000471 -0.002026
0.001982 0.000455 -0.002068
0.001991 0.000439 -0.00211
0.001999 0.000424 -0.00215
0.002004 0.000411 -0.002187
0.002002 0.000401 -0.002219
0.001988 0.0004 -0.002239
0.00197 0.000401 -0.002256
0.00245 0.000575 -0.001168
0.002482 0.000662 -0.00121
0.002539 0.000675 -0.001293
0.002572 0.000387 -0.001539
0.002558 0.000386 -0.00156
0.002539 0.000388 -0.001575
0.002508 0.000397 -0.001581
0.002473 0.000409 -0.001582
0.002437 0.000421 -0.001583
0.0024 0.000434 -0.001583
0.002361 0.000448 -0.001581
0.00232 0.000463 -0.001577
0.002274 0.000482 -0.001568
0.002225 0.000502 -0.001558
0.002176 0.000523 -0.001547
0.002122 0.000546 -0.001532
0.002068 0.00057 -0.001516
0.002008 0.000597 -0.001495
0.001959 0.000618 -0.001484
0.001925 0.000628 -0.001487
0.001899 0.000635 -0.001497
0.001877 0.000638 -0.00151
0.001858 0.000639 -0.001526
0.001842 0.000639 -0.001545
0.001828 0.000637 -0.001565
0.001818 0.000634 -0.001589
0.00181 0.000628 -0.001616
0.00181 0.000618 -0.001648
0.001947 0.000481 -0.001937
0.00196 0.000462 -0.001983
0.001972 0.000444 -0.002026
0.001982 0.000428 -0.002069
0.001991 0.000412 -0.00211
0.001999 0.000397 -0.00215
0.002004 0.000384 -0.002187
0.002002 0.000374 -0.002219
0.001988 0.000373 -0.002239
0.00197 0.000374 -0.002256
0.002806 0.000545 -0.00071
0.002557 0.000722 -0.000754
0.002564 0.000657 -0.001332
0.002572 0.00036 -0.001539
0.002559 0.000358 -0.00156
0.002539 0.000361 -0.001575
0.002508 0.00037 -0.00158
0.002473 0.000381 -0.001582
0.002437 0.000394 -0.001583
0.002399 0.000407 -0.001582
0.002361 0.000421 -0.001581
0.00232 0.000436 -0.001577
0.002274 0.000455 -0.001569
0.002225 0.000475 -0.001558
0.002175 0.000496 -0.001546
0.002123 0.000519 -0.001532
0.002069 0.000542 -0.001517
0.002008 0.00057 -0.001495
0.001958 0.000591 -0.001483
0.001925 0.000601 -0.001487
0.001899 0.000607 -0.001496
0.001877 0.000611 -0.00151
0.001858 0.000612 -0.001526
0.001842 0.000612 -0.001545
0.001828 0.00061 -0.001565
0.001818 0.000606 -0.001589
0.001811 0.000601 -0.001616
0.00181 0.000591 -0.001648
0.001946 0.000454 -0.001937
0.00196 0.000435 -0.001982
0.001972 0.000417 -0.002026
0.001983 0.0004 -0.002069
0.001991 0.000385 -0.00211
0.001999 0.000369 -0.00215
0.002004 0.000356 -0.002187
0.002002 0.000347 -0.002219
0.001988 0.000346 -0.00224
0.00197 0.000347 -0.002256
0.002556 0.000614 -0.000754
0.00236 0.000741 -0.00107
0.002605 0.000625 -0.001406
0.002572 0.000333 -0.001539
0.002559 0.000331 -0.00156
0.002539 0.000334 -0.001575
0.002507 0.000343 -0.00158
0.002472 0.000355 -0.001582
0.002437 0.000366 -0.001583
0.002399 0.00038 -0.001582
0.00236 0.000394 -0.00158
0.00232 0.000409 -0.001577
0.002273 0.000428 -0.001568
0.002224 0.000448 -0.001557
0.002176 0.000469 -0.001547
0.002123 0.000491 -0.001532
0.002069 0.000515 -0.001517
0.002008 0.000543 -0.001495
0.001958 0.000564 -0.001483
0.001924 0.000574 -0.001486
0.001898 0.00058 -0.001496
0.001877 0.000584 -0.001509
0.001858 0.000585 -0.001526
0.001842 0.000585 -0.001545
0.001828 0.000583 -0.001565
0.001818 0.000579 -0.001589
0.001811 0.000574 -0.001616
0.00181 0.000564 -0.001648
0.001867 0.000508 -0.001766
0.001926 0.000449 -0.001886
0.001945 0.000427 -0.001936
0.00196 0.000408 -0.001982
0.001972 0.00039 -0.002026
0.001982 0.000373 -0.002069
0.001991 0.000358 -0.00211
0.001998 0.000343 -0.00215
0.002004 0.000329 -0.002187
0.002002 0.00032 -0.002219
0.001988 0.000318 -0.002239
0.00197 0.000319 -0.002256
0.001951 0.000321 -0.002273
0.002806 0.000599 -0.00071
0.002605 0.000571 -0.001406
0.002604 0.00073 -0.000749
0.002572 0.000306 -0.001539
0.002558 0.000304 -0.00156
0.002539 0.000306 -0.001575
0.002507 0.000316 -0.00158
0.002473 0.000327 -0.001582
0.002436 0.00034 -0.001583
0.002399 0.000353 -0.001582
0.002361 0.000367 -0.001581
0.00232 0.000381 -0.001578
0.002273 0.000401 -0.001568
0.002225 0.000421 -0.001558
0.002176 0.000441 -0.001547
0.002124 0.000464 -0.001533
0.002068 0.000488 -0.001516
0.002008 0.000516 -0.001495
0.001958 0.000537 -0.001483
0.001924 0.000547 -0.001486
0.001898 0.000553 -0.001496
0.001877 0.000557 -0.001509
0.001858 0.000558 -0.001526
0.001842 0.000557 -0.001545
0.001828 0.000556 -0.001566
0.001818 0.000552 -0.001589
0.001811 0.000546 -0.001616
0.001809 0.000537 -0.001648
0.001867 0.00048 -0.001766
0.001898 0.00045 -0.001827
0.001926 0.000423 -0.001885
0.001945 0.0004 -0.001935
0.00196 0.000381 -0.001982
0.001972 0.000363 -0.002026
0.001983 0.000346 -0.002069
0.001991 0.00033 -0.00211
0.001999 0.000315 -0.00215
0.002004 0.000302 -0.002187
0.002002 0.000293 -0.002219
0.001988 0.000291 -0.002239
0.00197 0.000292 -0.002256
0.001951 0.000294 -0.002273
0.002805 0.000518 -0.00071
0.00241 0.000699 -6.4e-05
0.002481 0.000689 -0.00121
0.002568 0.000671 -0.001525
0.002558 0.000277 -0.00156
0.002539 0.000279 -0.001575
