0.001797 -2.3e-05 -0.001046
0.002477 8e-06 -0.000553
0.002468 7e-06 -0.000575
0.002456 8e-06 -0.000597
0.002446 7e-06 -0.00062
0.002435 8e-06 -0.000641
0.002425 7e-06 -0.000664
0.002416 6e-06 -0.000687
0.002406 6e-06 -0.00071
0.002396 6e-06 -0.000732
0.002387 5e-06 -0.000755
0.002377 5e-06 -0.000778
0.002367 5e-06 -0.0008
0.002853 0.000543 -0.000512
0.002325 1.5e-05 -0.000835
0.002291 2.7e-05 -0.000846
0.002268 3.3e-05 -0.000862
0.002251 3.7e-05 -0.000881
0.002239 3.8e-05 -0.000903
0.002228 3.7e-05 -0.000925
0.00222 3.6e-05 -0.000949
0.002216 3.2e-05 -0.000974
0.002988 0.000467 0.000297
0.002231 1.4e-05 -0.001036
0.002241 4e-06 -0.001068
0.002233 2e-06 -0.001091
0.002221 3e-06 -0.001113
0.002209 3e-06 -0.001135
0.002198 4e-06 -0.001156
0.002188 3e-06 -0.001179
0.002155 4e-06 -0.001245
0.002076 6e-06 -0.001398
0.002065 7e-06 -0.00142
0.002052 5e-06 -0.001442
0.001809 -2.4e-05 -0.001024
0.002496 0.000661 0.000883
0.002916 0.00051 -0.000573
0.002639 0.000681 2.3e-05
0.002433 3e-06 -0.000532
0.002425 2e-06 -0.000555
0.002415 3e-06 -0.000577
0.002402 4e-06 -0.000599
0.002392 3e-06 -0.000621
0.002379 4e-06 -0.000642
0.002369 4e-06 -0.000665
0.002359 4e-06 -0.000687
0.002349 4e-06 -0.00071
0.0029 0.000707 -0.00057
0.002328 3e-06 -0.000754
0.002316 4e-06 -0.000776
0.002305 4e-06 -0.000798
0.002878 0.000704 -0.000741
0.002281 6e-06 -0.000841
0.002264 8e-06 -0.00086
0.002249 1.1e-05 -0.00088
0.002236 1.2e-05 -0.000901
0.002226 1.2e-05 -0.000924
0.002218 1e-05 -0.000947
0.002212 8e-06 -0.000972
0.002461 0.000679 0.000854
0.002185 5e-06 -0.001041
0.002176 5e-06 -0.001064
0.002165 4e-06 -0.001086
0.002155 4e-06 -0.001108
0.002143 5e-06 -0.00113
0.002134 4e-06 -0.001153
0.002121 5e-06 -0.001174
0.002028 4e-06 -0.001375
0.002016 5e-06 -0.001397
0.002006 4e-06 -0.00142
0.001977 3e-06 -0.001488
0.001966 3e-06 -0.00151
0.001956 3e-06 -0.001532
0.001821 -2.4e-05 -0.001002
0.002932 0.0005 -0.0006
0.002886 0.000526 -0.000543
0.002687 0.000629 -0.000385
0.002682 0.000663 4.1e-05
0.002592 0.000702 6e-06
0.002869 0.000585 0.000133
0.002333 6e-06 -0.000592
0.002322 6e-06 -0.000615
0.002311 6e-06 -0.000637
0.002922 0.000666 -0.000623
0.002853 0.000652 -0.000512
0.000799 5e-06 0.002036
0.002247 7e-06 -0.00077
0.002233 8e-06 -0.000791
0.001832 -2.4e-05 -0.00098
0.00217 8e-06 -0.000924
0.002162 6e-06 -0.000948
0.002826 0.000725 -0.000782
0.002859 0.000711 -0.000763
0.001843 -2.5e-05 -0.000958
0.002086 7e-06 -0.001103
0.002076 7e-06 -0.001125
0.002064 7e-06 -0.001147
0.002022 7e-06 -0.001236
0.002014 6e-06 -0.001259
0.001971 6e-06 -0.001348
0.001959 7e-06 -0.001369
0.001951 6e-06 -0.001393
0.001931 5e-06 -0.001438
0.001922 4e-06 -0.001461
0.001911 4e-06 -0.001483
0.001901 4e-06 -0.001505
0.002899 0.000698 -0.000694
0.002544 0.00075 -1.1e-05
0.002512 0.000721 -0.000306
0.002494 0.000717 -2.8e-05
0.001853 -2.5e-05 -0.000936
0.002288 7e-06 -0.000544
0.00228 6e-06 -0.000567
0.002269 6e-06 -0.000589
0.002901 0.000503 -0.000744
0.002886 0.00058 -0.000543
0.002928 0.000498 -0.000649
0.002817 0.000562 -0.000481
0.00293 0.000487 0.000414
0.002912 0.000698 -0.000622
0.002199 4e-06 -0.000747
0.00219 3e-06 -0.00077
0.002889 0.000701 -0.000718
0.001864 -2.5e-05 -0.000914
0.001875 -2.5e-05 -0.000892
0.001886 -2.5e-05 -0.00087
0.00291 0.000528 -0.000721
0.002922 0.000526 -0.000673
0.002106 3e-06 -0.000948
0.002096 3e-06 -0.00097
0.001896 -2.5e-05 -0.000847
0.001907 -2.5e-05 -0.000825
0.002021 3e-06 -0.001126
0.002011 3e-06 -0.001148
0.002 3e-06 -0.001171
0.001988 3e-06 -0.001192
0.001978 3e-06 -0.001215
0.001966 4e-06 -0.001236
0.001955 4e-06 -0.001258
0.001942 5e-06 -0.001279
0.001931 5e-06 -0.001301
0.001921 5e-06 -0.001324
0.001909 6e-06 -0.001346
0.001876 5e-06 -0.001412
0.001864 5e-06 -0.001433
0.001854 6e-06 -0.001456
0.001842 7e-06 -0.001477
0.001832 7e-06 -0.0015
0.002303 6e-06 -0.000387
0.002909 0.000697 -0.000646
0.002906 0.000697 -0.000671
0.002457 0.000733 -4.7e-05
0.00299 0.000468 0.000248
0.002244 3e-06 -0.000523
0.002235 2e-06 -0.000545
0.002223 3e-06 -0.000567
0.002911 0.0007 -0.000596
0.00217 3e-06 -0.000678
0.002157 4e-06 -0.000699
0.002147 4e-06 -0.000722
0.002136 4e-06 -0.000744
0.002126 3e-06 -0.000767
0.001917 -2.4e-05 -0.000803
0.001927 -2.4e-05 -0.00078
0.002927 0.000553 -0.000649
0.002049 5e-06 -0.000921
0.002036 6e-06 -0.000942
0.002027 5e-06 -0.000965
0.001957 3e-06 -0.001123
0.001943 5e-06 -0.001143
0.001932 5e-06 -0.001165
0.001903 3e-06 -0.001233
0.001893 3e-06 -0.001256
0.001883 3e-06 -0.001278
0.001864 2e-06 -0.001324
0.001854 1e-06 -0.001347
0.0018 2e-06 -0.001457
0.001788 3e-06 -0.001478
0.002256 3e-06 -0.000364
0.002244 3e-06 -0.000386
0.002229 6e-06 -0.000406
0.001937 -2.4e-05 -0.000757
0.002611 0.000747 3e-06
0.002154 5e-06 -0.000561
0.002144 6e-06 -0.000584
0.002134 5e-06 -0.000606
0.002123 5e-06 -0.000628
0.002114 5e-06 -0.000651
0.002102 5e-06 -0.000673
0.002091 6e-06 -0.000695
0.00208 6e-06 -0.000717
0.00207 5e-06 -0.00074
0.002059 6e-06 -0.000761
0.002051 5e-06 -0.000785
0.002038 4e-06 -0.000806
0.002329 0.000749 0.000689
0.0029 0.000585 -0.000744
0.00291 0.000583 -0.000721
0.001997 4e-06 -0.000896
0.001988 4e-06 -0.000919
0.001977 4e-06 -0.000941
0.001966 4e-06 -0.000963
0.001955 4e-06 -0.000985
0.001945 4e-06 -0.001007
0.001901 5e-06 -0.001095
0.00189 5e-06 -0.001118
0.001878 5e-06 -0.001139
0.001825 6e-06 -0.00125
0.001947 -2.3e-05 -0.000735
0.002804 0.000584 9.5e-05
0.002176 6e-06 -0.00038
0.002165 6e-06 -0.000402
0.002156 5e-06 -0.000425
0.002146 5e-06 -0.000448
0.002838 0.00057 0.000115
0.002765 0.000628 7.7e-05
0.002852 0.000598 -0.000512
0.002913 0.000647 -0.000572
0.002099 2e-06 -0.000562
0.002087 2e-06 -0.000584
0.002078 2e-06 -0.000607
0.002068 1e-06 -0.000629
0.002059 0.0 -0.000652
0.00205 -0.0 -0.000675
0.00204 -1e-06 -0.000698
0.002029 -1e-06 -0.00072
0.00202 -1e-06 -0.000743
0.00201 -2e-06 -0.000765
0.001999 -2e-06 -0.000787
0.00199 -2e-06 -0.00081
0.001979 -2e-06 -0.000832
0.001969 -2e-06 -0.000855
0.001958 -2e-06 -0.000877
0.001948 -3e-06 -0.0009
0.001938 -3e-06 -0.000922
0.001926 -2e-06 -0.000944
0.001915 -2e-06 -0.000966
0.001905 -2e-06 -0.000988
0.001894 -2e-06 -0.00101
0.001883 -2e-06 -0.001032
0.001872 -2e-06 -0.001054
0.00186 -2e-06 -0.001076
0.00185 -1e-06 -0.001098
0.001838 -1e-06 -0.00112
0.001689 5e-06 -0.001404
0.001677 5e-06 -0.001425
0.002528 0.000726 0.000912
0.0029 0.000558 -0.000744
0.002133 1e-06 -0.00036
0.002125 -0.0 -0.000383
0.002116 -1e-06 -0.000406
0.002106 -2e-06 -0.000429
0.00287 0.000638 0.000133
0.002767 0.000681 7.7e-05
0.002927 0.000638 -0.000599
0.002885 0.000689 -0.000542
0.002853 0.000706 -0.000512
0.002876 0.000527 0.000137
0.002044 -8e-06 -0.00059
0.002035 -8e-06 -0.000613
0.002024 -9e-06 -0.000636
0.002015 -9e-06 -0.000659
0.002006 -1e-05 -0.000681
0.001996 -1e-05 -0.000704
0.001986 -1.1e-05 -0.000726
0.001977 -1.1e-05 -0.000749
0.001966 -1.2e-05 -0.000772
0.001956 -1.2e-05 -0.000794
0.001946 -1.2e-05 -0.000817
0.001935 -1.2e-05 -0.000839
0.001925 -1.2e-05 -0.000861
0.001915 -1.3e-05 -0.000883
0.001904 -1.3e-05 -0.000906
0.001893 -1.3e-05 -0.000928
0.001883 -1.3e-05 -0.00095
0.001872 -1.3e-05 -0.000972
0.001862 -1.3e-05 -0.000995
0.00185 -1.2e-05 -0.001016
0.001838 -1.2e-05 -0.001038
0.001827 -1.1e-05 -0.00106
0.001816 -1.1e-05 -0.001082
0.001804 -1.1e-05 -0.001104
0.001793 -1e-05 -0.001126
0.001781 -1e-05 -0.001147
0.001647 -1e-06 -0.001383
0.001635 -1e-06 -0.001405
0.002991 0.000496 0.000248
0.00287 0.000611 0.000133
0.002932 0.000554 -0.0006
0.002915 0.000564 -0.000572
0.00291 0.000555 -0.000721
0.002922 0.000553 -0.000673
0.002879 0.000634 0.000138
0.002805 0.000665 9.5e-05
0.000776 4e-06 0.002045
0.002683 0.000717 4.1e-05
0.002922 0.000499 -0.000673
0.002681 0.000636 4.1e-05
0.002461 0.000706 0.000854
0.002793 0.000574 0.000472
0.002765 0.000601 7.7e-05
0.001985 -2.1e-05 -0.000644
0.001976 -2.2e-05 -0.000667
0.001966 -2.2e-05 -0.000689
0.001957 -2.3e-05 -0.000712
0.002689 0.000601 -0.000385
0.002736 0.000577 -0.000418
0.002779 0.000555 -0.00045
0.002818 0.000534 -0.000481
0.002853 0.000516 -0.000512
0.002886 0.000498 -0.000543
0.002916 0.000482 -0.000573
0.002932 0.000473 -0.0006
0.002932 0.000471 -0.000625
0.002928 0.000471 -0.000649
0.002922 0.000472 -0.000674
0.002916 0.000473 -0.000698
0.00291 0.000474 -0.000722
0.002901 0.000476 -0.000745
0.002294 0.000746 -0.000869
0.002263 0.000759 -0.000889
0.002375 0.000749 0.000794
0.00256 0.00071 0.00094
0.002869 0.00053 0.000133
0.002838 0.000543 0.000115
0.002804 0.000557 9.5e-05
0.002764 0.000574 7.7e-05
0.002722 0.000592 5.9e-05
0.002681 0.000609 4.1e-05
0.002538 0.000671 -1e-05
0.002493 0.000691 -2.8e-05
0.002458 0.000705 -4.7e-05
0.002439 0.000712 -6.9e-05
0.002427 0.000716 -9.2e-05
0.002987 0.000632 0.000272
0.002984 0.00063 0.000322
0.002986 0.000631 0.000297
0.002986 0.000634 0.000247
0.00298 0.000638 0.000222
0.002423 0.000757 -0.000218
0.002688 0.000574 -0.000385
0.002736 0.000549 -0.000418
0.00278 0.000527 -0.00045
0.002819 0.000507 -0.000482
0.002852 0.000489 -0.000512
0.002887 0.000471 -0.000543
0.002916 0.000455 -0.000573
0.002932 0.000445 -0.0006
0.002932 0.000443 -0.000625
0.002928 0.000444 -0.000649
0.002922 0.000445 -0.000674
0.002916 0.000445 -0.000698
0.00291 0.000446 -0.000722
0.002901 0.000449 -0.000745
0.002878 0.000457 -0.000764
0.002253 0.000736 -0.000887
0.002238 0.000741 -0.00091
0.002228 0.000744 -0.000933
0.00222 0.000746 -0.000957
0.002216 0.000746 -0.000981
0.002878 0.00058 0.000138
0.002592 0.000695 0.000966
0.002869 0.000503 0.000133
0.002838 0.000515 0.000114
0.002803 0.00053 9.5e-05
0.002764 0.000547 7.7e-05
0.002723 0.000564 5.9e-05
0.00268 0.000583 4.1e-05
0.002639 0.0006 2.3e-05
0.002591 0.000621 6e-06
0.00254 0.000643 -1.1e-05
0.002491 0.000664 -2.8e-05
0.002458 0.000678 -4.7e-05
0.002439 0.000685 -6.9e-05
0.002426 0.000689 -9.2e-05
0.002418 0.000691 -0.000116
0.002921 0.000695 0.000165
0.002957 0.000677 0.000194
0.002975 0.000667 0.000221
0.002929 0.000596 0.000414
0.00292 0.000533 0.000165
0.002689 0.000546 -0.000385
0.002737 0.000522 -0.000418
0.00278 0.000499 -0.00045
0.002818 0.00048 -0.000481
0.002853 0.000461 -0.000512
0.002887 0.000443 -0.000543
0.002916 0.000428 -0.000573
0.002932 0.000418 -0.0006
0.002933 0.000416 -0.000625
0.002927 0.000417 -0.000649
0.002922 0.000417 -0.000674
0.002916 0.000418 -0.000698
0.00291 0.000419 -0.000722
0.002901 0.000421 -0.000745
0.002877 0.00043 -0.000764
0.002228 0.000717 -0.000933
0.002221 0.000719 -0.000957
0.002217 0.000719 -0.000981
0.002201 0.000438 0.002052
0.002921 0.000614 0.000165
0.002868 0.000477 0.000133
0.002838 0.000488 0.000114
0.002804 0.000502 9.5e-05
0.002764 0.00052 7.7e-05
0.002722 0.000537 5.9e-05
0.00268 0.000555 4.1e-05
0.002637 0.000574 2.3e-05
0.00259 0.000594 6e-06
0.002539 0.000616 -1.1e-05
0.002489 0.000638 -2.7e-05
0.002458 0.000651 -4.7e-05
0.002438 0.000658 -6.9e-05
0.002426 0.000662 -9.2e-05
0.002418 0.000664 -0.000116
0.002414 0.000664 -0.00014
0.002956 0.000666 0.000393
0.00296 0.000637 0.000393
0.002739 0.000653 0.00049
0.002877 0.000553 0.000138
0.002689 0.000519 -0.000385
0.002738 0.000494 -0.000418
0.00278 0.000472 -0.00045
0.002818 0.000452 -0.000482
0.002853 0.000434 -0.000512
0.002887 0.000416 -0.000543
0.002917 0.0004 -0.000573
0.002933 0.000391 -0.0006
0.002932 0.000389 -0.000625
0.002928 0.000389 -0.00065
0.002922 0.00039 -0.000674
0.002916 0.000391 -0.000698
0.00291 0.000392 -0.000722
0.002901 0.000394 -0.000745
0.002878 0.000403 -0.000764
0.002985 0.000472 0.000222
0.00284 0.000635 0.000453
0.002868 0.000449 0.000133
0.002838 0.000461 0.000114
0.002804 0.000475 9.5e-05
0.002764 0.000492 7.7e-05
0.00272 0.000511 5.9e-05
0.00268 0.000528 4.1e-05
0.002636 0.000547 2.3e-05
0.002589 0.000567 6e-06
0.002539 0.000589 -1.1e-05
0.002489 0.000611 -2.7e-05
0.002458 0.000623 -4.7e-05
0.002438 0.000631 -6.9e-05
0.002426 0.000635 -9.2e-05
0.002418 0.000637 -0.000116
0.002414 0.000637 -0.00014
0.002928 0.000678 0.000414
0.002887 0.000642 0.000434
0.002499 0.000741 0.000883
0.002588 0.000614 0.000968
0.002688 0.000492 -0.000385
0.002737 0.000468 -0.000418
0.00278 0.000445 -0.00045
0.002819 0.000425 -0.000482
0.002852 0.000407 -0.000512
0.002886 0.00039 -0.000543
0.002916 0.000373 -0.000573
0.002933 0.000364 -0.0006
0.002932 0.000362 -0.000625
0.002927 0.000363 -0.000649
0.002922 0.000363 -0.000674
0.002916 0.000364 -0.000698
0.00291 0.000365 -0.000722
0.002901 0.000367 -0.000745
0.002877 0.000376 -0.000763
0.00247 0.000767 -0.000286
0.002899 0.00041 0.000152
0.002868 0.000422 0.000134
0.002838 0.000434 0.000114
0.002803 0.000449 9.5e-05
0.002764 0.000465 7.7e-05
0.00272 0.000484 5.9e-05
0.002679 0.000501 4.1e-05
0.002637 0.000519 2.3e-05
0.00259 0.00054 6e-06
0.002539 0.000562 -1.1e-05
0.002489 0.000584 -2.7e-05
0.002458 0.000597 -4.7e-05
0.002438 0.000604 -6.9e-05
0.002426 0.000608 -9.2e-05
0.002418 0.00061 -0.000116
0.002414 0.000609 -0.00014
0.00298 0.000659 0.000321
0.002988 0.000605 0.000248
0.002959 0.000567 0.000194
0.00256 0.000628 0.00094
0.00269 0.000464 -0.000385
0.002738 0.00044 -0.000418
0.002781 0.000417 -0.000451
0.002819 0.000398 -0.000482
0.002853 0.00038 -0.000512
0.002887 0.000362 -0.000543
0.002916 0.000346 -0.000573
0.002933 0.000337 -0.0006
0.002933 0.000335 -0.000625
0.002928 0.000335 -0.00065
0.002922 0.000336 -0.000674
0.002916 0.000337 -0.000698
0.00291 0.000338 -0.000722
0.002901 0.00034 -0.000745
0.002921 0.000587 0.000165
0.002898 0.000383 0.000153
0.002867 0.000395 0.000135
0.002838 0.000407 0.000114
0.002803 0.000421 9.5e-05
0.002763 0.000438 7.7e-05
0.002721 0.000456 5.9e-05
0.002679 0.000474 4.1e-05
0.002634 0.000493 2.3e-05
0.002589 0.000513 6e-06
0.002538 0.000535 -1.1e-05
0.002487 0.000557 -2.7e-05
0.002457 0.000569 -4.7e-05
0.002438 0.000577 -6.9e-05
0.002425 0.000581 -9.2e-05
0.002418 0.000583 -0.000116
0.002414 0.000582 -0.00014
0.002975 0.00066 0.000345
0.00261 0.000707 0.000514
0.002559 0.000683 0.00094
0.002422 0.000752 -0.000118
0.002689 0.000437 -0.000385
0.002738 0.000413 -0.000418
0.002781 0.00039 -0.000451
0.002818 0.000371 -0.000482
0.002853 0.000353 -0.000512
0.002886 0.000335 -0.000543
0.002916 0.000319 -0.000573
0.002933 0.000309 -0.0006
0.002933 0.000307 -0.000625
0.002928 0.000308 -0.00065
0.002923 0.000308 -0.000674
0.002918 0.000309 -0.000698
0.002911 0.00031 -0.000722
0.002901 0.000313 -0.000745
0.002496 0.000688 0.000883
0.002898 0.000356 0.000153
0.002867 0.000368 0.000135
0.002838 0.00038 0.000114
0.002802 0.000394 9.5e-05
0.002764 0.000411 7.7e-05
0.00272 0.000429 5.9e-05
0.002679 0.000447 4.1e-05
0.002634 0.000466 2.3e-05
0.002589 0.000486 6e-06
0.002538 0.000508 -1.1e-05
0.002487 0.00053 -2.7e-05
0.002457 0.000543 -4.7e-05
0.002438 0.00055 -6.9e-05
0.002425 0.000554 -9.2e-05
0.002418 0.000555 -0.000115
0.002414 0.000555 -0.00014
0.002968 0.000662 0.000369
0.002982 0.00061 0.000222
0.00253 0.000698 0.000912
0.002417 0.000756 -0.000144
0.00269 0.00041 -0.000385
0.002738 0.000385 -0.000418
0.00278 0.000363 -0.00045
0.002819 0.000343 -0.000482
0.002853 0.000325 -0.000512
0.002886 0.000308 -0.000543
0.002915 0.000292 -0.000573
0.002933 0.000282 -0.000601
0.002933 0.00028 -0.000626
0.002928 0.00028 -0.00065
0.002923 0.000281 -0.000674
0.002917 0.000282 -0.000698
0.002911 0.000283 -0.000722
0.002901 0.000285 -0.000745
0.00243 0.000747 -9.3e-05
0.002898 0.000328 0.000152
0.002868 0.00034 0.000134
0.002838 0.000352 0.000114
0.002802 0.000367 9.5e-05
0.002764 0.000383 7.7e-05
0.002722 0.000401 5.9e-05
0.002679 0.00042 4.1e-05
0.002634 0.000439 2.3e-05
0.002589 0.000459 6e-06
0.002536 0.000482 -1e-05
0.002487 0.000503 -2.7e-05
0.002456 0.000516 -4.7e-05
0.002438 0.000523 -6.9e-05
0.002425 0.000527 -9.2e-05
0.002418 0.000528 -0.000116
0.002414 0.000528 -0.00014
0.002887 0.000696 0.000434
0.002739 0.000707 0.000491
0.00299 0.000578 0.000248
0.002465 0.000732 0.000854
0.002529 0.000671 0.000912
0.002691 0.000382 -0.000386
0.002739 0.000358 -0.000419
0.002781 0.000336 -0.00045
0.002818 0.000317 -0.000482
0.002854 0.000298 -0.000512
0.002886 0.000281 -0.000543
0.002915 0.000265 -0.000573
0.002932 0.000255 -0.0006
0.002932 0.000253 -0.000625
0.002928 0.000253 -0.00065
0.002923 0.000254 -0.000674
0.002917 0.000255 -0.000698
0.002911 0.000256 -0.000722
0.002901 0.000258 -0.000745
0.002921 0.00056 0.000165
0.002898 0.000301 0.000152
0.002868 0.000313 0.000134
0.002837 0.000326 0.000115
0.002802 0.00034 9.5e-05
0.002763 0.000357 7.7e-05
0.002722 0.000374 5.9e-05
0.00268 0.000392 4.1e-05
0.002634 0.000412 2.3e-05
0.002588 0.000432 6e-06
0.002536 0.000454 -1e-05
0.002486 0.000476 -2.7e-05
0.002456 0.000489 -4.7e-05
0.002437 0.000496 -6.9e-05
0.002425 0.0005 -9.2e-05
0.002418 0.000501 -0.000116
0.002414 0.000501 -0.00014
0.002841 0.000716 0.000453
0.00256 0.000737 0.000941
0.002987 0.000549 0.000297
0.002513 0.000748 -0.000306
0.002561 0.000655 0.00094
0.002629 0.000386 -0.00035
0.002691 0.000355 -0.000386
0.002739 0.00033 -0.000419
0.002782 0.000309 -0.000451
0.002818 0.000289 -0.000482
0.002854 0.00027 -0.000513
0.002886 0.000254 -0.000543
0.002914 0.000238 -0.000573
0.002932 0.000228 -0.0006
0.002932 0.000226 -0.000625
0.002928 0.000226 -0.00065
0.002922 0.000227 -0.000674
0.002917 0.000228 -0.000698
0.00291 0.000229 -0.000722
0.002901 0.000231 -0.000745
0.002877 0.00024 -0.000763
0.002959 0.00054 0.000194
0.002898 0.000274 0.000153
0.002867 0.000286 0.000135
0.002838 0.000298 0.000114
0.002802 0.000313 9.5e-05
0.002763 0.00033 7.7e-05
0.002721 0.000347 5.9e-05
0.00268 0.000365 4.1e-05
0.002634 0.000385 2.3e-05
0.002588 0.000405 6e-06
0.002535 0.000428 -1e-05
0.002487 0.000449 -2.7e-05
0.002455 0.000462 -4.7e-05
0.002437 0.000469 -6.9e-05
0.002424 0.000473 -9.2e-05
0.002418 0.000474 -0.000116
0.002414 0.000473 -0.00014
0.002413 0.000472 -0.000165
0.002929 0.000623 0.000414
0.00299 0.00055 0.000248
0.00238 0.000693 0.000795
0.002691 0.000328 -0.000386
0.002739 0.000303 -0.000419
0.002782 0.000281 -0.000451
0.002819 0.000262 -0.000482
0.002854 0.000243 -0.000513
0.002887 0.000226 -0.000543
0.002915 0.000211 -0.000573
0.002931 0.000201 -0.0006
0.002931 0.000199 -0.000625
0.002928 0.000199 -0.00065
0.002922 0.0002 -0.000674
0.002917 0.000201 -0.000698
0.00291 0.000202 -0.000722
0.0029 0.000205 -0.000745
0.002877 0.000213 -0.000764
0.002558 0.000728 -0.000325
0.002897 0.000247 0.000154
0.002867 0.000259 0.000135
0.002838 0.000271 0.000114
0.002802 0.000286 9.5e-05
0.002764 0.000302 7.7e-05
0.002722 0.00032 5.9e-05
0.002679 0.000338 4.1e-05
0.002635 0.000357 2.3e-05
0.002588 0.000378 6e-06
0.002536 0.0004 -1e-05
0.002485 0.000422 -2.7e-05
0.002455 0.000435 -4.7e-05
0.002436 0.000442 -6.9e-05
0.002424 0.000445 -9.2e-05
0.002417 0.000447 -0.000116
0.002414 0.000446 -0.00014
0.002414 0.000445 -0.000165
0.002677 0.000735 0.000508
0.002985 0.000576 0.000322
0.002589 0.000668 0.000969
0.002615 0.000471 0.001346
0.002691 0.000301 -0.000386
0.00274 0.000276 -0.000419
0.002782 0.000254 -0.000451
0.002819 0.000235 -0.000482
0.002854 0.000216 -0.000513
0.002887 0.000199 -0.000543
0.002916 0.000183 -0.000573
0.00293 0.000175 -0.0006
0.00293 0.000173 -0.000625
0.002927 0.000172 -0.00065
0.002922 0.000173 -0.000674
0.002916 0.000174 -0.000698
0.002909 0.000175 -0.000722
0.002898 0.000178 -0.000745
0.002877 0.000186 -0.000764
0.002925 0.00021 0.000169
0.002896 0.00022 0.000155
0.002866 0.000232 0.000135
0.002837 0.000244 0.000114
0.002803 0.000258 9.5e-05
0.002765 0.000274 7.7e-05
0.002722 0.000293 5.9e-05
0.002678 0.000311 4.1e-05
0.002635 0.00033 2.3e-05
0.002587 0.000351 6e-06
0.002536 0.000373 -1e-05
0.002485 0.000395 -2.7e-05
0.002455 0.000408 -4.7e-05
0.002436 0.000414 -6.9e-05
0.002424 0.000418 -9.2e-05
0.002417 0.00042 -0.000116
0.002414 0.000419 -0.00014
0.002413 0.000417 -0.000165
0.002981 0.000603 0.000346
0.002984 0.000549 0.000322
0.00299 0.000467 0.000273
0.002664 0.000451 0.00134
0.002739 0.000249 -0.000419
0.002782 0.000227 -0.000451
0.002818 0.000208 -0.000482
0.002854 0.000189 -0.000513
0.002886 0.000172 -0.000543
0.002915 0.000157 -0.000573
0.002927 0.000149 -0.0006
0.002927 0.000147 -0.000625
0.002924 0.000146 -0.000649
0.00292 0.000147 -0.000673
0.002914 0.000148 -0.000697
0.002906 0.000149 -0.000721
0.002896 0.000152 -0.000744
0.002876 0.000159 -0.000764
0.002923 0.000183 0.000172
0.002895 0.000193 0.000155
0.002866 0.000205 0.000135
0.002837 0.000217 0.000114
0.002802 0.000231 9.5e-05
0.002764 0.000247 7.7e-05
0.002721 0.000266 5.9e-05
0.002679 0.000284 4.1e-05
0.002634 0.000303 2.3e-05
0.002587 0.000323 6e-06
0.002535 0.000346 -1e-05
0.002485 0.000368 -2.7e-05
0.002455 0.00038 -4.7e-05
0.002436 0.000388 -6.9e-05
0.002424 0.000391 -9.2e-05
0.002417 0.000393 -0.000116
0.002414 0.000392 -0.00014
0.002413 0.00039 -0.000165
0.002985 0.000603 0.000322
0.002989 0.000549 0.000273
0.001984 0.000711 0.001505
0.002692 0.000246 -0.000386
0.002741 0.000221 -0.000419
0.002782 0.0002 -0.000451
0.002819 0.00018 -0.000482
0.002854 0.000162 -0.000513
0.002886 0.000145 -0.000543
0.002913 0.00013 -0.000572
0.002923 0.000124 -0.000599
0.002923 0.000122 -0.000624
0.00292 0.000121 -0.000649
0.002916 0.000121 -0.000673
0.00291 0.000122 -0.000697
0.002902 0.000124 -0.00072
0.002892 0.000127 -0.000744
0.002874 0.000133 -0.000764
0.002921 0.000156 0.000175
0.002895 0.000166 0.000155
0.002867 0.000177 0.000134
0.002837 0.00019 0.000114
0.002803 0.000204 9.5e-05
0.002763 0.000221 7.7e-05
0.002721 0.000239 5.9e-05
0.002679 0.000257 4.1e-05
0.002635 0.000276 2.3e-05
0.002587 0.000296 6e-06
0.002536 0.000319 -1e-05
0.002485 0.000341 -2.7e-05
0.002454 0.000353 -4.7e-05
0.002436 0.00036 -6.9e-05
0.002424 0.000364 -9.2e-05
0.002417 0.000365 -0.000116
0.002414 0.000365 -0.00014
0.002413 0.000363 -0.000165
0.002583 0.000752 0.000968
0.002982 0.000575 0.000346
0.001976 0.000721 0.001474
0.002842 0.000553 0.000453
0.002629 0.00025 -0.000351
0.002691 0.000219 -0.000386
0.00274 0.000194 -0.000419
0.002781 0.000173 -0.000451
0.002818 0.000154 -0.000482
0.002855 0.000134 -0.000513
0.002886 0.000118 -0.000543
0.00291 0.000105 -0.000572
0.002917 9.9e-05 -0.000598
0.002916 9.8e-05 -0.000623
0.002913 9.7e-05 -0.000647
0.002909 9.7e-05 -0.000672
0.002903 9.9e-05 -0.000696
0.002895 0.0001 -0.000719
0.002885 0.000103 -0.000743
0.002869 0.000108 -0.000764
0.002921 0.000129 0.000175
0.002896 0.000139 0.000155
0.002866 0.000151 0.000135
0.002837 0.000162 0.000114
0.002804 0.000176 9.5e-05
0.002762 0.000194 7.7e-05
0.002723 0.000211 5.8e-05
0.002679 0.000229 4.1e-05
0.002634 0.000249 2.3e-05
0.002587 0.000269 6e-06
0.002535 0.000292 -1e-05
0.002486 0.000313 -2.7e-05
0.002454 0.000326 -4.7e-05
0.002436 0.000333 -6.9e-05
0.002424 0.000337 -9.2e-05
0.002417 0.000338 -0.000116
0.002414 0.000338 -0.00014
0.002413 0.000336 -0.000165
0.002962 0.000609 0.000393
0.002982 0.000548 0.000346
0.002965 0.000526 0.000394
0.002336 0.000721 0.00064
0.002988 0.000494 0.000297
0.002627 0.000224 -0.00035
0.002739 0.000168 -0.000419
0.002781 0.000146 -0.000451
0.002819 0.000126 -0.000482
0.002854 0.000107 -0.000513
0.002884 9.1e-05 -0.000543
0.002903 8e-05 -0.000571
0.002907 7.7e-05 -0.000596
0.002906 7.6e-05 -0.000621
0.002903 7.5e-05 -0.000646
0.002899 7.5e-05 -0.00067
0.002893 7.6e-05 -0.000694
0.002885 7.8e-05 -0.000718
0.002876 8e-05 -0.000741
0.002862 8.5e-05 -0.000763
0.00259 0.00058 0.000961
0.002897 0.000111 0.000153
0.002866 0.000124 0.000134
0.002838 0.000135 0.000114
0.002802 0.00015 9.5e-05
0.002764 0.000166 7.6e-05
0.002722 0.000184 5.9e-05
0.00268 0.000202 4e-05
0.002635 0.000221 2.3e-05
0.002588 0.000242 6e-06
0.002535 0.000265 -1e-05
0.002486 0.000286 -2.7e-05
0.002454 0.000299 -4.7e-05
0.002436 0.000306 -6.9e-05
0.002424 0.00031 -9.2e-05
0.002417 0.000311 -0.000116
0.002414 0.000311 -0.00014
0.002413 0.000309 -0.000165
0.002976 0.000604 0.00037
0.002984 0.000554 0.000222
0.002586 0.000588 0.000968
0.002985 0.000494 0.000322
0.002739 0.00014 -0.000419
0.002781 0.000119 -0.000451
0.002819 9.9e-05 -0.000482
0.002853 8.1e-05 -0.000513
0.00288 6.6e-05 -0.000542
0.002892 5.9e-05 -0.000569
0.002894 5.6e-05 -0.000594
0.002893 5.5e-05 -0.000619
0.00289 5.4e-05 -0.000644
0.002885 5.4e-05 -0.000668
0.002879 5.5e-05 -0.000692
0.002872 5.7e-05 -0.000716
0.002863 5.9e-05 -0.000739
0.002447 0.000738 -6.6e-05
0.00284 0.000689 0.000453
0.002866 9.7e-05 0.000133
0.002964 0.0007 0.00022
0.002432 0.000754 -0.000241
0.002766 0.000138 7.3e-05
0.002723 0.000157 5.5e-05
0.002679 0.000175 4.1e-05
0.002635 0.000194 2.3e-05
0.002587 0.000215 6e-06
0.002536 0.000237 -1e-05
0.002485 0.000259 -2.7e-05
0.002454 0.000272 -4.7e-05
0.002436 0.000279 -6.9e-05
0.002424 0.000282 -9.2e-05
0.002417 0.000284 -0.000116
0.002414 0.000283 -0.00014
0.002413 0.000282 -0.000165
0.002793 0.00071 0.000472
0.002989 0.000576 0.000273
0.002611 0.00068 0.000514
0.001999 0.000755 0.001378
0.002691 0.000138 -0.000386
0.002738 0.000113 -0.000419
0.002779 9.2e-05 -0.00045
0.002819 7.2e-05 -0.000482
0.00285 5.5e-05 -0.000512
0.00287 4.4e-05 -0.00054
0.002877 3.9e-05 -0.000567
0.002878 3.6e-05 -0.000592
0.002876 3.5e-05 -0.000616
0.002872 3.5e-05 -0.000641
0.002868 3.5e-05 -0.000665
0.002862 3.6e-05 -0.000689
0.002855 3.8e-05 -0.000713
0.002417 0.000759 -0.000193
0.002895 5.7e-05 0.000153
0.002865 7e-05 0.000134
0.002837 8.1e-05 0.000113
0.002708 0.000466 0.001306
0.002721 0.00013 5.9e-05
0.002679 0.000148 4.1e-05
0.002634 0.000167 2.3e-05
0.002587 0.000188 6e-06
0.002535 0.00021 -1e-05
0.002486 0.000232 -2.7e-05
0.002454 0.000245 -4.7e-05
0.002436 0.000252 -6.9e-05
0.002424 0.000255 -9.2e-05
0.002417 0.000257 -0.000116
0.002414 0.000256 -0.00014
0.002413 0.000255 -0.000165
0.002981 0.000663 0.000247
0.00284 0.000662 0.000453
0.002888 0.000587 0.000434
0.00289 0.000477 0.000434
0.002694 0.000109 -0.000386
0.002737 8.7e-05 -0.000419
0.00278 6.5e-05 -0.000451
0.002814 4.7e-05 -0.000481
0.002839 3.3e-05 -0.00051
0.002851 2.6e-05 -0.000537
0.002854 2.2e-05 -0.000563
0.002854 2.1e-05 -0.000588
0.002851 2e-05 -0.000612
0.002847 2e-05 -0.000637
0.002843 2e-05 -0.000661
0.002838 2e-05 -0.000685
0.002931 0.000459 0.000414
0.002885 3.4e-05 0.000155
0.002862 4.4e-05 0.000135
0.002835 5.5e-05 0.000115
0.002801 6.9e-05 9.5e-05
0.002763 8.5e-05 7.7e-05
0.002723 0.000102 5.8e-05
0.002678 0.000121 4.1e-05
0.002634 0.00014 2.3e-05
0.002587 0.000161 6e-06
0.002534 0.000184 -1e-05
0.002486 0.000204 -2.7e-05
0.002455 0.000217 -4.7e-05
0.002436 0.000225 -6.9e-05
0.002424 0.000228 -9.2e-05
0.002417 0.00023 -0.000116
0.002414 0.000229 -0.00014
0.002413 0.000227 -0.000165
0.002983 0.000661 0.000272
0.00288 0.000688 0.000138
0.002964 0.000554 0.000394
0.002374 0.000723 0.000794
0.002633 0.000112 -0.000351
0.002693 8.2e-05 -0.000386
0.002735 6.1e-05 -0.000418
0.002776 4e-05 -0.00045
0.002803 2.5e-05 -0.000479
0.002816 1.7e-05 -0.000507
0.002819 1.3e-05 -0.000532
0.002818 1.2e-05 -0.000557
0.002815 1.2e-05 -0.000581
0.002811 1.2e-05 -0.000606
0.002806 1.2e-05 -0.00063
0.002802 1.2e-05 -0.000654
0.002798 1.2e-05 -0.000678
0.002982 0.000494 0.000346
0.002964 0.000581 0.000394
0.00285 2.2e-05 0.000137
0.002828 3.1e-05 0.000116
0.002798 4.3e-05 9.6e-05
0.002764 5.7e-05 7.6e-05
0.00272 7.6e-05 5.9e-05
0.00268 9.3e-05 4e-05
0.002634 0.000113 2.3e-05
0.002534 0.000157 -1e-05
0.002485 0.000178 -2.7e-05
0.002455 0.00019 -4.7e-05
0.002436 0.000197 -6.9e-05
0.002424 0.000201 -9.2e-05
0.002417 0.000203 -0.000116
0.002414 0.000202 -0.00014
0.002413 0.0002 -0.000165
0.002738 0.000734 0.000491
0.002987 0.000576 0.000297
0.002495 0.000716 0.000883
0.002354 0.000733 0.000767
0.002732 3.5e-05 -0.000418
0.002761 2e-05 -0.000447
0.002775 1.1e-05 -0.000475
0.002772 1e-05 -0.000499
0.002769 1e-05 -0.000524
0.002762 1.1e-05 -0.000548
0.002758 1.1e-05 -0.000572
0.002756 1e-05 -0.000597
0.002751 1.1e-05 -0.000621
0.002747 1.1e-05 -0.000645
0.002587 0.000641 0.000968
0.002977 0.000576 0.00037
0.002814 1.2e-05 0.000143
0.002806 1.4e-05 0.000119
0.002787 2.1e-05 9.8e-05
0.002759 3.2e-05 7.7e-05
0.002721 4.8e-05 5.9e-05
0.002679 6.6e-05 4.1e-05
0.002632 8.7e-05 2.3e-05
0.002584 0.000108 6e-06
0.002487 0.00015 -2.7e-05
0.002455 0.000163 -4.7e-05
0.002436 0.00017 -6.9e-05
0.002424 0.000174 -9.2e-05
0.002417 0.000175 -0.000116
0.002414 0.000175 -0.00014
0.002916 0.000725 0.000165
0.002989 0.000604 0.000273
0.002879 0.000607 0.000138
0.002447 0.000749 -0.000264
0.002689 3e-05 -0.000386
0.002715 1.6e-05 -0.000415
0.002723 1e-05 -0.000441
0.002695 1e-05 -0.000611
0.002684 1e-05 -0.000684
0.002681 9e-06 -0.000709
0.002676 9e-06 -0.000733
0.001992 -2.1e-05 -0.00062
0.002965 0.000499 0.000394
0.002739 0.00068 0.000491
0.002965 0.000472 0.000394
0.002978 0.000467 0.00037
0.002472 0.000739 -0.000286
0.002739 1.4e-05 8e-05
0.002716 2.4e-05 5.9e-05
0.00268 3.9e-05 4e-05
0.002634 5.9e-05 2.3e-05
0.002582 8.2e-05 7e-06
0.001998 -2.1e-05 -0.000596
0.002484 0.000124 -2.7e-05
0.002455 0.000136 -4.7e-05
0.002436 0.000143 -6.9e-05
0.002424 0.000147 -9.2e-05
0.002417 0.000148 -0.000116
0.002414 0.000148 -0.00014
0.002795 0.000736 0.000473
0.002987 0.000603 0.000297
0.002978 0.000549 0.00037
0.002416 0.000758 -0.000169
0.002631 3.2e-05 -0.000351
0.002665 1.4e-05 -0.000382
0.002671 9e-06 -0.000408
0.00267 8e-06 -0.000432
0.002664 9e-06 -0.000456
0.002658 1e-05 -0.00048
0.002628 9e-06 -0.000675
0.002623 9e-06 -0.000699
0.00262 9e-06 -0.000724
0.002004 -2.2e-05 -0.000572
0.002792 0.000656 0.000472
0.002561 0.000727 0.00052
0.002982 0.000467 0.000346
0.002674 0.000695 0.001318
0.002692 9e-06 8.8e-05
0.002687 1e-05 6.4e-05
0.00267 1.6e-05 4.2e-05
0.002636 3.1e-05 2.3e-05
0.002584 5.3e-05 6e-06
0.002485 9.6e-05 -2.7e-05
0.002454 0.000109 -4.7e-05
0.002436 0.000116 -6.9e-05
0.002424 0.000119 -9.2e-05
0.002417 0.000121 -0.000116
0.002414 0.000121 -0.00014
0.002948 0.000709 0.000193
0.002792 0.000683 0.000472
0.002929 0.000569 0.000414
0.00299 0.000495 0.000273
0.00261 1.5e-05 -0.000348
0.002616 1e-05 -0.000374
0.002613 1e-05 -0.000398
0.002604 1e-05 -0.000446
0.0026 1e-05 -0.000471
0.002598 9e-06 -0.000495
0.002567 1e-05 -0.000665
0.002564 1e-05 -0.00069
0.002561 9e-06 -0.000714
0.002009 -2.3e-05 -0.000548
0.002642 1e-05 0.000147
0.002637 1e-05 0.000122
0.002635 1e-05 9.8e-05
0.00263 1e-05 7.4e-05
0.002629 8e-06 4.9e-05
0.00262 1.1e-05 2.5e-05
0.002484 7e-05 -2.7e-05
0.002454 8.2e-05 -4.7e-05
0.002436 8.9e-05 -6.9e-05
0.002424 9.3e-05 -9.2e-05
0.002417 9.4e-05 -0.000116
0.002413 9.4e-05 -0.00014
0.002412 9.2e-05 -0.000165
0.002973 0.000633 0.00037
0.002793 0.000628 0.000472
0.002559 0.000701 -0.000325
0.002953 0.000726 0.000318
0.002568 7e-06 -0.000341
0.002562 8e-06 -0.000365
0.002559 8e-06 -0.000389
0.002555 8e-06 -0.000413
0.002553 7e-06 -0.000438
0.002014 -2.3e-05 -0.000524
0.002019 -2.4e-05 -0.000499
0.002486 9e-06 -0.000826
0.002024 -2.4e-05 -0.000475
0.002028 -2.5e-05 -0.000451
0.002033 -2.5e-05 -0.000427
0.002592 7e-06 0.000155
0.002586 8e-06 0.000131
0.002582 7e-06 0.000107
0.002578 7e-06 8.2e-05
0.002574 7e-06 5.8e-05
0.002038 -2.5e-05 -0.000403
0.002482 4.4e-05 -2.7e-05
0.002453 5.5e-05 -4.7e-05
0.002435 6.2e-05 -6.9e-05
0.002423 6.6e-05 -9.2e-05
0.002416 6.7e-05 -0.000116
0.002413 6.7e-05 -0.00014
0.002412 6.5e-05 -0.000165
0.002979 0.000631 0.000346
0.00292 0.000642 0.000165
0.002587 0.000723 0.000969
0.002985 0.000467 0.000322
0.00251 8e-06 -0.000331
0.002504 8e-06 -0.000355
0.0025 9e-06 -0.000379
0.002496 8e-06 -0.000404
0.002493 8e-06 -0.000428
0.002488 8e-06 -0.000452
0.002485 8e-06 -0.000477
0.002482 8e-06 -0.000501
0.002476 9e-06 -0.000525
0.00243 8e-06 -0.000817
0.002419 1.1e-05 -0.00084
0.002525 9e-06 0.000141
0.002522 8e-06 0.000116
0.002519 8e-06 9.2e-05
0.002332 0.000749 0.000665
0.00289 0.000504 0.000434
0.00251 7e-06 1.9e-05
0.002507 6e-06 -6e-06
0.002484 1.5e-05 -2.7e-05
0.002453 2.8e-05 -4.7e-05
0.002434 3.5e-05 -6.9e-05
0.002423 3.9e-05 -9.2e-05
0.002415 4e-05 -0.000116
0.002412 4e-05 -0.00014
0.002411 3.8e-05 -0.000165
0.002984 0.000582 0.000222
0.002959 0.000622 0.000194
0.002879 0.000661 0.000138
0.002042 -2.6e-05 -0.000378
0.002471 1e-06 -0.0003
0.002463 3e-06 -0.000323
0.002458 3e-06 -0.000347
0.002448 4e-06 -0.000396
0.002446 3e-06 -0.00042
0.002443 2e-06 -0.000445
0.002438 3e-06 -0.000469
0.002435 3e-06 -0.000493
0.002432 3e-06 -0.000518
0.002426 3e-06 -0.000542
0.002376 6e-06 -0.000808
0.00237 7e-06 -0.000832
0.002046 -2.6e-05 -0.000354
0.00205 -2.6e-05 -0.00033
0.002054 -2.6e-05 -0.000306
0.002946 0.000698 0.000391
0.002472 5e-06 0.000125
0.002469 4e-06 0.0001
0.002338 0.000748 0.000641
0.00246 5e-06 5.2e-05
0.00246 3e-06 2.7e-05
0.002457 4e-06 2e-06
0.00245 4e-06 -2.1e-05
0.002443 6e-06 -4.5e-05
0.002431 9e-06 -6.8e-05
0.002421 1.3e-05 -9.1e-05
0.002415 1.3e-05 -0.000116
0.002411 1.3e-05 -0.00014
0.002888 0.000532 0.000434
0.002987 0.000522 0.000297
0.002978 0.000522 0.00037
0.002982 0.000521 0.000346
0.002407 4e-06 -0.000289
0.002401 4e-06 -0.000313
0.002396 5e-06 -0.000337
0.002971 0.000691 0.00032
0.002378 5e-06 -0.000434
0.002371 8e-06 -0.000458
0.002369 6e-06 -0.000483
0.002368 5e-06 -0.000507
0.002365 5e-06 -0.000532
0.00236 5e-06 -0.000556
0.002356 5e-06 -0.00058
0.002342 4e-06 -0.000678
0.00234 4e-06 -0.000702
0.002335 4e-06 -0.000727
0.00232 7e-06 -0.000823
0.002058 -2.6e-05 -0.000281
0.000636 4e-06 0.002091
0.000612 4e-06 0.002098
0.002062 -2.5e-05 -0.000257
0.002065 -2.5e-05 -0.000232
0.002068 -2.5e-05 -0.000208
0.002371 7e-06 -0.000108
0.002365 7e-06 -0.000132
0.002793 0.000602 0.000472
0.00234 8e-06 -0.000278
0.002338 7e-06 -0.000302
0.002333 7e-06 -0.000327
0.002966 0.000692 0.000344
0.002973 0.000691 0.000296
0.002316 8e-06 -0.000424
0.002314 7e-06 -0.000448
0.002311 7e-06 -0.000473
0.002302 9e-06 -0.000496
0.0023 8e-06 -0.000521
0.002296 8e-06 -0.000545
0.002285 7e-06 -0.000618
0.002281 7e-06 -0.000643
0.002278 7e-06 -0.000667
0.002273 8e-06 -0.000691
0.002268 8e-06 -0.000715
0.002267 7e-06 -0.00074
0.002256 7e-06 -0.000813
0.002255 5e-06 -0.000838
0.00236 9e-06 0.000218
0.000589 4e-06 0.002105
0.000565 4e-06 0.002113
0.002959 0.000694 0.000368
0.002072 -2.5e-05 -0.000184
0.002075 -2.4e-05 -0.000159
0.002338 6e-06 4.7e-05
0.002335 5e-06 2.3e-05
0.002332 5e-06 -2e-06
0.002328 5e-06 -2.6e-05
0.002326 5e-06 -5.1e-05
0.002078 -2.4e-05 -0.000135
0.002319 4e-06 -0.0001
0.002316 4e-06 -0.000124
0.002081 -2.3e-05 -0.00011
0.002308 5e-06 -0.000173
0.002837 0.000745 0.000453
0.002344 0.000734 0.00134
0.002738 0.000626 0.00049
0.002291 4e-06 -0.00027
0.002285 5e-06 -0.000294
0.002285 3e-06 -0.000319
0.002271 4e-06 -0.000391
0.002268 4e-06 -0.000416
0.00226 4e-06 -0.000464
0.002256 4e-06 -0.000489
0.002083 -2.2e-05 -8.6e-05
0.002239 3e-06 -0.000611
0.002233 3e-06 -0.000635
0.002228 4e-06 -0.000659
0.002222 5e-06 -0.000683
0.002217 5e-06 -0.000707
0.002213 5e-06 -0.000731
0.002086 -2.2e-05 -6.1e-05
0.002203 6e-06 -0.00078
0.002199 7e-06 -0.000804
0.002841 0.000526 0.000453
0.002171 6e-06 -0.000974
0.002167 7e-06 -0.000998
0.002319 6e-06 0.000275
0.002318 4e-06 0.00025
0.002314 4e-06 0.000226
0.002922 0.000708 0.000413
0.0023 5e-06 0.000153
0.002296 5e-06 0.000129
0.002292 5e-06 0.000105
0.002286 4e-06 5.6e-05
0.00228 4e-06 3.2e-05
0.002275 5e-06 7e-06
0.00227 5e-06 -1.7e-05
0.002268 5e-06 -4.1e-05
0.002985 0.0005 0.000222
0.002247 5e-06 -0.000163
0.002242 6e-06 -0.000187
0.002237 6e-06 -0.000211
0.002233 6e-06 -0.000235
0.002233 5e-06 -0.00026
0.002959 0.000649 0.000195
0.002697 0.000483 0.001087
0.002219 5e-06 -0.000333
0.002212 7e-06 -0.000357
0.002559 0.000601 0.00094
0.002189 4e-06 -0.000528
0.002185 4e-06 -0.000552
0.002172 5e-06 -0.000625
0.002168 5e-06 -0.000649
0.002152 3e-06 -0.000771
0.002149 3e-06 -0.000796
0.002144 3e-06 -0.00082
0.002142 2e-06 -0.000844
0.002138 2e-06 -0.000869
0.002135 2e-06 -0.000893
0.002129 3e-06 -0.000917
0.002123 4e-06 -0.000941
0.002118 4e-06 -0.000965
0.002112 5e-06 -0.000989
0.002263 4e-06 0.000284
0.002259 5e-06 0.00026
0.002252 6e-06 0.000236
0.002371 0.000718 0.000572
0.002239 6e-06 0.000163
0.002233 7e-06 0.000139
0.002228 8e-06 0.000115
0.002227 6e-06 9e-05
0.002223 7e-06 6.6e-05
0.002217 7e-06 4.2e-05
0.002214 7e-06 1.8e-05
0.00221 7e-06 -7e-06
0.002209 5e-06 -3.1e-05
0.002971 0.000695 0.000246
0.00293 0.000541 0.000414
0.002792 0.00052 0.000472
0.00235 0.000708 0.000766
0.002188 6e-06 -0.000153
0.002186 5e-06 -0.000178
0.002181 5e-06 -0.000202
0.002179 5e-06 -0.000226
0.002174 5e-06 -0.00025
0.002171 5e-06 -0.000275
0.002166 5e-06 -0.000299
0.002163 4e-06 -0.000324
0.002158 5e-06 -0.000348
0.002139 5e-06 -0.000469
0.002134 5e-06 -0.000494
0.002129 5e-06 -0.000518
0.002125 5e-06 -0.000542
0.002077 8e-06 -0.000809
0.002076 6e-06 -0.000834
0.002072 6e-06 -0.000858
0.00207 5e-06 -0.000882
0.002068 4e-06 -0.000907
0.002423 0.000698 0.000825
0.002708 0.000439 0.001306
0.002198 6e-06 0.00027
0.002193 6e-06 0.000246
0.002978 0.000494 0.00037
0.002328 0.000723 0.000689
0.002184 5e-06 0.000172
0.002182 4e-06 0.000148
0.002179 4e-06 0.000123
0.002177 3e-06 9.9e-05
0.002174 2e-06 7.4e-05
0.00217 2e-06 5e-05
0.002169 1e-06 2.5e-05
0.002164 1e-06 1e-06
0.002161 0.0 -2.4e-05
0.002973 0.000693 0.000271
0.002156 -1e-06 -7.3e-05
0.002153 -1e-06 -9.7e-05
0.002149 -2e-06 -0.000122
0.002146 -2e-06 -0.000146
0.002143 -2e-06 -0.00017
0.002139 -2e-06 -0.000195
0.002136 -2e-06 -0.000219
0.002133 -3e-06 -0.000244
0.002129 -3e-06 -0.000268
0.002125 -3e-06 -0.000292
0.002121 -3e-06 -0.000317
0.002117 -3e-06 -0.000341
0.002113 -3e-06 -0.000365
0.002109 -3e-06 -0.00039
0.002105 -3e-06 -0.000414
0.002101 -3e-06 -0.000438
0.002096 -3e-06 -0.000462
0.002092 -2e-06 -0.000486
0.002087 -2e-06 -0.000511
0.002082 -2e-06 -0.000535
0.002078 -2e-06 -0.000559
0.002022 4e-06 -0.000825
0.002018 5e-06 -0.000849
0.002013 5e-06 -0.000873
0.002008 5e-06 -0.000897
0.002885 0.000724 0.000434
0.00215 1e-06 0.000278
0.002148 0.0 0.000253
0.002889 0.000559 0.000434
0.002928 0.000651 0.000414
0.002888 0.000668 0.000434
0.002141 -4e-06 0.000155
0.002139 -5e-06 0.00013
0.002136 -5e-06 0.000105
0.002134 -6e-06 8.1e-05
0.002131 -7e-06 5.6e-05
0.002129 -8e-06 3.2e-05
0.002127 -8e-06 7e-06
0.002125 -9e-06 -1.8e-05
0.002982 0.00066 0.000297
0.002119 -1e-05 -6.7e-05
0.002116 -1.1e-05 -9.1e-05
0.002113 -1.1e-05 -0.000116
0.00211 -1.2e-05 -0.00014
0.002107 -1.2e-05 -0.000165
0.002104 -1.2e-05 -0.000189
0.0021 -1.3e-05 -0.000213
0.002098 -1.3e-05 -0.000238
0.002094 -1.3e-05 -0.000262
0.00209 -1.3e-05 -0.000286
0.002086 -1.3e-05 -0.000311
0.002082 -1.3e-05 -0.000335
0.002078 -1.3e-05 -0.000359
0.002074 -1.3e-05 -0.000384
0.002069 -1.3e-05 -0.000408
0.002065 -1.3e-05 -0.000432
0.00206 -1.3e-05 -0.000456
0.002056 -1.2e-05 -0.000481
0.002051 -1.2e-05 -0.000505
0.002046 -1.2e-05 -0.000529
0.002041 -1.1e-05 -0.000553
0.002036 -1.1e-05 -0.000577
0.002031 -1e-05 -0.000601
0.002026 -9e-06 -0.000625
0.00293 0.000514 0.000414
0.002423 0.000725 0.000825
0.002364 0.000756 0.000768
0.002842 0.000498 0.000453
0.002842 0.00058 0.000453
0.001975 0.000727 0.001447
0.002528 0.000645 0.000912
0.002989 0.000522 0.000273
0.00233 0.000723 0.000665
0.002985 0.000527 0.000222
0.002985 0.000521 0.000322
0.002966 0.000444 0.000394
0.002978 0.00044 0.00037
0.002982 0.000439 0.000346
0.002985 0.00044 0.000322
0.002988 0.00044 0.000297
0.00299 0.00044 0.000273
0.002991 0.000441 0.000248
0.002985 0.000445 0.000222
0.002957 0.00046 0.000194
0.002919 0.000479 0.000165
0.002876 0.0005 0.000137
0.002427 0.000721 -9.3e-05
0.002418 0.000727 -0.000119
0.002414 0.00073 -0.000144
0.002413 0.000732 -0.000169
0.002415 0.000733 -0.000194
0.00242 0.000731 -0.000218
0.00243 0.000728 -0.000242
0.002447 0.000722 -0.000264
0.002472 0.000711 -0.000286
0.002513 0.000693 -0.000306
0.00256 0.000673 -0.000325
0.002559 0.000574 0.00094
0.00253 0.000589 0.000912
0.002495 0.000607 0.000883
0.002462 0.000624 0.000854
0.002422 0.000644 0.000824
0.00238 0.000666 0.000795
0.002352 0.00068 0.000766
0.002338 0.000689 0.000739
0.002564 0.000628 0.001349
0.002328 0.000696 0.000689
0.00233 0.000696 0.000665
0.002336 0.000694 0.00064
0.002726 0.000654 0.001126
0.002673 0.000691 0.00105
0.0027 0.000618 0.001088
0.00237 0.000745 0.000572
0.002791 0.000493 0.000472
0.002843 0.000471 0.000453
0.002889 0.000451 0.000434
0.002932 0.000432 0.000414
0.002965 0.000417 0.000394
0.002978 0.000413 0.00037
0.002983 0.000412 0.000346
0.002985 0.000412 0.000322
0.002988 0.000413 0.000297
0.00299 0.000413 0.000272
0.002991 0.000414 0.000248
0.002985 0.000418 0.000222
0.002956 0.000433 0.000194
0.00292 0.000452 0.000165
0.002875 0.000473 0.000137
0.002418 0.0007 -0.000119
0.002414 0.000703 -0.000144
0.002413 0.000705 -0.000169
0.002415 0.000706 -0.000194
0.002421 0.000704 -0.000217
0.00243 0.000701 -0.000241
0.002447 0.000694 -0.000264
0.002472 0.000684 -0.000286
0.002512 0.000667 -0.000306
0.00256 0.000646 -0.000325
0.002585 0.000533 0.000968
0.002559 0.000547 0.00094
0.002527 0.000563 0.000912
0.002495 0.00058 0.000883
0.00246 0.000598 0.000854
0.002421 0.000618 0.000824
0.00238 0.000638 0.000795
0.002353 0.000652 0.000766
0.002338 0.000661 0.00074
0.00233 0.000666 0.000714
0.002328 0.000668 0.000689
0.00233 0.000669 0.000664
0.002336 0.000667 0.00064
0.002713 0.000658 0.001282
0.0027 0.000672 0.001088
0.002691 0.000605 0.001325
0.00274 0.000491 0.001239
0.002793 0.000465 0.000472
0.002843 0.000443 0.000453
0.002889 0.000423 0.000434
0.002932 0.000404 0.000414
0.002965 0.00039 0.000394
0.002978 0.000386 0.00037
0.002982 0.000385 0.000346
0.002985 0.000385 0.000321
0.002987 0.000386 0.000297
0.00299 0.000386 0.000272
0.002991 0.000387 0.000248
0.002985 0.000391 0.000222
0.002957 0.000406 0.000194
0.002919 0.000425 0.000165
0.002876 0.000445 0.000138
0.002417 0.000673 -0.000119
0.002414 0.000676 -0.000144
0.002413 0.000678 -0.000169
0.002415 0.000678 -0.000194
0.002421 0.000677 -0.000218
0.00243 0.000674 -0.000242
0.002446 0.000668 -0.000264
0.002473 0.000657 -0.000286
0.002511 0.00064 -0.000306
0.002559 0.000619 -0.000325
0.002586 0.000506 0.000968
0.002558 0.000521 0.00094
0.002527 0.000536 0.000911
0.002494 0.000553 0.000883
0.00246 0.00057 0.000854
0.002423 0.000589 0.000825
0.002378 0.000612 0.000794
0.002351 0.000626 0.000766
0.002339 0.000633 0.00074
0.00233 0.000639 0.000714
0.002328 0.000641 0.000689
0.00233 0.000642 0.000664
0.002336 0.00064 0.00064
0.002741 0.000659 0.001213
0.002662 0.000615 0.00134
0.002639 0.000658 0.001009
0.002654 0.00069 0.000506
0.002512 0.000693 0.000525
0.002418 0.000731 0.000539
0.002793 0.000438 0.000472
0.002844 0.000416 0.000453
0.00289 0.000396 0.000434
0.002932 0.000378 0.000414
0.002966 0.000363 0.000394
0.002978 0.000358 0.00037
0.002983 0.000358 0.000346
0.002985 0.000358 0.000321
0.002988 0.000358 0.000297
0.00299 0.000359 0.000272
0.002991 0.000359 0.000248
0.002985 0.000364 0.000222
0.002957 0.000378 0.000194
0.002919 0.000397 0.000165
0.002414 0.000649 -0.000144
0.002413 0.000651 -0.000169
0.002415 0.000651 -0.000194
0.002421 0.00065 -0.000218
0.00243 0.000647 -0.000242
0.002446 0.00064 -0.000264
0.002472 0.00063 -0.000286
0.002513 0.000612 -0.000306
0.002559 0.000592 -0.000325
0.002583 0.00048 0.000968
0.002558 0.000493 0.00094
0.002526 0.00051 0.000911
0.002495 0.000526 0.000883
0.00246 0.000543 0.000854
0.002422 0.000563 0.000824
0.002379 0.000584 0.000794
0.002352 0.000599 0.000766
0.002338 0.000607 0.000739
0.00233 0.000612 0.000714
0.002327 0.000614 0.000689
0.00233 0.000614 0.000664
0.002336 0.000613 0.00064
0.002507 0.000565 0.00135
0.002748 0.000574 0.001216
0.002747 0.000557 0.001162
0.002616 0.000497 0.001347
0.002695 0.000593 0.000496
0.002458 0.000715 0.000529
0.002392 0.00074 0.000557
0.002845 0.000388 0.000453
0.00289 0.000368 0.000434
0.002933 0.00035 0.000414
0.002966 0.000336 0.000394
0.002979 0.000331 0.00037
0.002983 0.000331 0.000346
0.002985 0.000331 0.000321
0.002988 0.000331 0.000297
0.00299 0.000331 0.000272
0.002991 0.000332 0.000248
0.002985 0.000337 0.000222
0.002958 0.000351 0.000194
0.002918 0.000371 0.000165
0.002414 0.000622 -0.000144
0.002413 0.000623 -0.000169
0.002415 0.000624 -0.000194
0.00242 0.000623 -0.000218
0.002431 0.000619 -0.000242
0.002447 0.000613 -0.000264
0.002473 0.000602 -0.000286
0.002513 0.000585 -0.000306
0.00256 0.000564 -0.000325
0.002583 0.000453 0.000968
0.002557 0.000466 0.00094
0.002525 0.000483 0.000911
0.002494 0.000499 0.000883
0.002459 0.000517 0.000854
0.002421 0.000536 0.000824
0.002379 0.000557 0.000794
0.002351 0.000572 0.000765
0.002337 0.00058 0.000739
0.002329 0.000585 0.000714
0.002327 0.000587 0.000689
0.00233 0.000587 0.000664
0.002336 0.000585 0.00064
0.002564 0.000655 0.001348
0.002672 0.000637 0.001049
0.002564 0.000573 0.00135
0.002739 0.000465 0.001239
0.002655 0.000609 0.000506
0.00274 0.000408 0.00049
0.002794 0.000384 0.000472
0.002843 0.000362 0.000453
0.002891 0.000341 0.000434
0.002934 0.000322 0.000414
0.002966 0.000308 0.000394
0.002979 0.000304 0.00037
0.002983 0.000303 0.000346
0.002986 0.000303 0.000322
0.002988 0.000304 0.000297
0.00299 0.000304 0.000272
0.002991 0.000305 0.000248
0.002985 0.000309 0.000222
0.002958 0.000324 0.000194
0.002919 0.000343 0.000165
0.002414 0.000595 -0.000144
0.002413 0.000596 -0.000169
0.002415 0.000597 -0.000194
0.00242 0.000596 -0.000218
0.002431 0.000592 -0.000242
0.002447 0.000586 -0.000264
0.002473 0.000575 -0.000286
0.002513 0.000557 -0.000306
0.00256 0.000537 -0.000325
0.002585 0.000425 0.000968
0.002558 0.000439 0.00094
0.002526 0.000455 0.000911
0.002494 0.000472 0.000883
0.002459 0.00049 0.000854
0.00242 0.000509 0.000824
0.002378 0.00053 0.000794
0.00235 0.000545 0.000766
0.002337 0.000553 0.000739
0.002329 0.000558 0.000714
0.002327 0.00056 0.000689
0.00233 0.00056 0.000664
0.002336 0.000558 0.00064
0.002746 0.000639 0.001162
0.002429 0.000592 0.001347
0.002664 0.000532 0.001341
0.002343 0.000757 0.000721
0.002747 0.000503 0.001162
0.00274 0.00038 0.00049
0.002796 0.000355 0.000472
0.002844 0.000334 0.000453
0.002891 0.000313 0.000434
0.002934 0.000295 0.000415
0.002966 0.000281 0.000394
0.002979 0.000277 0.00037
0.002983 0.000276 0.000346
0.002986 0.000276 0.000321
0.002988 0.000277 0.000297
0.00299 0.000277 0.000272
0.002991 0.000278 0.000248
0.002985 0.000282 0.000222
0.002955 0.000297 0.000194
0.002919 0.000316 0.000165
0.002414 0.000567 -0.000144
0.002413 0.000569 -0.000169
0.002415 0.00057 -0.000194
0.00242 0.000568 -0.000218
0.002431 0.000565 -0.000242
0.002446 0.000559 -0.000264
0.002473 0.000548 -0.000286
0.002514 0.00053 -0.000306
0.002561 0.000509 -0.000325
0.002584 0.000398 0.000968
0.002558 0.000412 0.00094
0.002525 0.000428 0.000911
0.002494 0.000445 0.000883
0.002459 0.000463 0.000854
0.00242 0.000482 0.000824
0.002378 0.000503 0.000794
0.00235 0.000518 0.000766
0.002336 0.000526 0.000739
0.002329 0.000531 0.000714
0.002327 0.000533 0.000689
0.00233 0.000533 0.000664
0.002336 0.000531 0.00064
0.00275 0.000632 0.00119
0.002615 0.00058 0.001346
0.002708 0.00052 0.001306
0.002695 0.000675 0.000496
0.002724 0.000519 0.001125
0.002656 0.000717 0.00051
0.002741 0.000353 0.00049
0.002795 0.000329 0.000472
0.002844 0.000307 0.000453
0.002891 0.000287 0.000434
0.002933 0.000268 0.000414
0.002966 0.000254 0.000393
0.002978 0.00025 0.00037
0.002983 0.000249 0.000346
0.002985 0.000249 0.000321
0.002988 0.000249 0.000297
0.00299 0.00025 0.000272
0.002991 0.000251 0.000248
0.002985 0.000255 0.000222
0.002957 0.00027 0.000194
0.002919 0.000289 0.000165
0.002413 0.000542 -0.000169
0.002415 0.000542 -0.000194
0.00242 0.000541 -0.000218
0.00243 0.000538 -0.000242
0.002447 0.000531 -0.000264
0.002473 0.00052 -0.000286
0.002513 0.000503 -0.000306
0.002561 0.000482 -0.000325
0.002587 0.00037 0.000968
0.002558 0.000384 0.00094
0.002528 0.0004 0.000911
0.002493 0.000418 0.000883
0.002459 0.000435 0.000854
0.00242 0.000455 0.000824
0.002377 0.000477 0.000794
0.002349 0.000491 0.000766
0.002336 0.000499 0.000739
0.002329 0.000504 0.000714
0.002327 0.000506 0.000689
0.00233 0.000506 0.000664
0.002336 0.000504 0.00064
0.002745 0.000629 0.001215
0.002693 0.00055 0.001326
0.002693 0.000522 0.001326
0.002592 0.000551 0.000962
0.002637 0.000524 0.001008
0.002695 0.000702 0.000497
0.002742 0.000325 0.000491
0.002795 0.000302 0.000472
0.002844 0.00028 0.000453
0.002891 0.000259 0.000434
0.002934 0.000241 0.000414
0.002965 0.000227 0.000393
0.002978 0.000223 0.00037
0.002983 0.000222 0.000346
0.002985 0.000222 0.000321
0.002988 0.000222 0.000297
0.00299 0.000223 0.000272
0.00299 0.000224 0.000248
