-0.000731 6e-06 -0.002249
-0.000872 7e-06 -0.002206
-0.000896 7e-06 -0.002198
-0.00092 6e-06 -0.002192
-0.000943 6e-06 -0.002185
-0.000967 6e-06 -0.002177
-0.00099 6e-06 -0.00217
-0.000506 -2.4e-05 -0.00202
-0.001243 1.7e-05 -0.002071
-0.001269 1.3e-05 -0.002069
-0.001297 6e-06 -0.002078
-0.000101 6e-06 -0.00238
-0.000126 6e-06 -0.002376
-0.000149 6e-06 -0.002368
-0.000172 7e-06 -0.002358
-0.000196 6e-06 -0.002352
-0.000219 6e-06 -0.002346
-0.000243 6e-06 -0.002339
-0.000267 6e-06 -0.002332
-0.000291 5e-06 -0.002326
-0.000314 5e-06 -0.002319
-0.000338 5e-06 -0.002313
-0.000362 4e-06 -0.002307
0.000567 0.000696 -0.002526
-0.000482 -2.3e-05 -0.002027
-0.000458 -2.3e-05 -0.002033
-0.000435 -2.3e-05 -0.00204
-0.00041 -2.2e-05 -0.002045
-0.000387 -2.2e-05 -0.002051
-0.000363 -2.1e-05 -0.002058
-0.000339 -2.1e-05 -0.002064
-0.000202 0.000569 -0.002847
-0.000615 0.000734 -0.002486
-0.000129 0.000713 -0.002946
-0.000647 1e-06 -0.002226
-0.00067 1e-06 -0.002219
-0.000105 0.000707 -0.002959
-0.000718 1e-06 -0.002206
-0.000742 1e-06 -0.002199
-0.000858 1e-06 -0.00216
-0.000882 2e-06 -0.002152
-0.000905 2e-06 -0.002144
-0.000928 3e-06 -0.002136
-0.000952 3e-06 -0.002128
-0.000975 3e-06 -0.00212
-0.000998 3e-06 -0.002113
-0.00013 0.000512 -0.002969
-3.8e-05 4e-06 -0.002344
-6.2e-05 5e-06 -0.002336
-8.6e-05 3e-06 -0.002331
0.000118 0.00056 -0.002869
1.8e-05 0.000706 -0.002964
6.8e-05 0.00072 -0.002935
-0.000182 1e-06 -0.002309
-0.000206 -0.0 -0.002303
-0.00023 -1e-06 -0.002297
-0.000254 -1e-06 -0.00229
-0.000277 1e-06 -0.00228
-0.0003 0.0 -0.002274
-0.000324 0.0 -0.002267
-0.000348 0.0 -0.00226
0.000819 0.000468 -0.002831
-7e-06 0.000447 -0.002993
-0.000559 1e-06 -0.002193
0.001071 0.000734 -0.002168
0.001236 0.000736 -0.002119
0.00173 0.00071 -0.002402
0.00047 0.000754 -0.002399
-0.000842 1e-06 -0.002107
-0.000865 1e-06 -0.002099
-0.000889 1e-06 -0.002092
-0.000936 0.0 -0.002079
-0.000959 1e-06 -0.002069
-0.000983 -0.0 -0.002064
-0.001007 1e-06 -0.002057
-0.001031 1e-06 -0.00205
-0.001055 -1e-06 -0.002046
-0.001079 -1e-06 -0.002039
-0.001102 -1e-06 -0.00203
-0.001125 -0.0 -0.002022
-0.001194 2e-06 -0.001995
-0.001217 3e-06 -0.001985
4.2e-05 0.000506 -0.002983
-2.4e-05 -1e-06 -0.002298
-4.8e-05 -1e-06 -0.002292
-7.1e-05 1e-06 -0.002281
-9.5e-05 -0.0 -0.002275
4.2e-05 0.000534 -0.002983
0.000142 0.000664 -0.002821
-0.000188 2e-06 -0.002242
-0.000211 3e-06 -0.002233
-0.000234 3e-06 -0.002227
-0.000258 3e-06 -0.002219
-0.000281 3e-06 -0.002212
-0.000305 3e-06 -0.002205
-0.000328 3e-06 -0.002197
-0.000352 3e-06 -0.00219
-0.000375 4e-06 -0.002181
9.3e-05 0.000539 -0.002914
0.000608 0.000692 -0.002599
0.000872 0.000705 -0.002835
0.000118 0.000505 -0.00287
9.3e-05 0.000485 -0.002914
-0.000541 2e-06 -0.002133
-0.000565 2e-06 -0.002127
-0.000666 0.000697 -0.002565
-0.000753 2e-06 -0.00207
-0.000776 3e-06 -0.00206
-0.0008 2e-06 -0.002054
-0.000847 3e-06 -0.002038
-0.00087 3e-06 -0.002031
-8.1e-05 0.000502 -0.002991
-0.001012 3e-06 -0.001988
-0.001036 2e-06 -0.001983
-0.00106 1e-06 -0.001977
-0.001083 2e-06 -0.001969
-0.001107 1e-06 -0.001964
-0.001178 0.0 -0.001944
-0.001202 0.0 -0.001936
-0.000154 0.000724 -0.002923
-2.9e-05 2e-06 -0.00223
-5.2e-05 3e-06 -0.00222
-7.5e-05 4e-06 -0.002212
0.000786 0.000512 -0.002804
-0.00059 0.000729 -0.00244
6.7e-05 0.000574 -0.002955
0.000118 0.000669 -0.002869
-0.000194 2e-06 -0.002179
-0.000218 2e-06 -0.002172
-0.000241 2e-06 -0.002166
-0.000266 1e-06 -0.002161
-0.000289 1e-06 -0.002154
-0.000313 0.0 -0.002147
-0.000337 -0.0 -0.002141
-0.000361 -1e-06 -0.002135
-0.000384 -1e-06 -0.002127
-0.000408 -2e-06 -0.002122
-0.000432 -2e-06 -0.002115
0.000118 0.000641 -0.00287
-0.000106 0.000531 -0.002986
0.000591 0.000706 -0.002563
-0.000527 -2e-06 -0.002087
-0.00055 -2e-06 -0.00208
-0.000574 -2e-06 -0.002073
-0.000178 0.000521 -0.002891
-0.000641 0.000687 -0.002529
-0.000668 -3e-06 -0.002044
-0.000692 -3e-06 -0.002037
-0.000715 -3e-06 -0.00203
-0.000739 -2e-06 -0.002022
-0.000762 -3e-06 -0.002016
-0.000786 -2e-06 -0.002008
-0.000809 -2e-06 -0.002
-0.000832 -2e-06 -0.001992
-0.000856 -2e-06 -0.001984
-0.000926 -0.0 -0.00196
-0.000996 1e-06 -0.001937
-0.001019 1e-06 -0.001929
-0.001042 2e-06 -0.001921
-0.001065 2e-06 -0.001912
-0.001089 2e-06 -0.001906
-0.001112 3e-06 -0.001897
-0.001136 3e-06 -0.001889
-0.001159 4e-06 -0.00188
-0.001183 3e-06 -0.001876
0.00068 0.000519 -0.002696
-0.00013 0.000539 -0.002969
-1.3e-05 1e-06 -0.002177
-3.7e-05 0.0 -0.002171
-6.1e-05 -1e-06 -0.002166
-0.000105 0.000674 -0.002973
4.2e-05 0.000561 -0.002982
-0.000178 0.000656 -0.002893
-0.000154 0.000637 -0.002934
-0.00013 0.000621 -0.002968
-0.000205 -5e-06 -0.002132
-0.00023 -6e-06 -0.002127
-0.000253 -7e-06 -0.002121
-0.000277 -8e-06 -0.002115
-0.000301 -8e-06 -0.002109
-0.000325 -9e-06 -0.002103
-0.000349 -9e-06 -0.002097
-0.000373 -1e-05 -0.00209
-0.000397 -1e-05 -0.002084
-0.000421 -1.1e-05 -0.002078
-0.000444 -1.1e-05 -0.002072
-0.000468 -1.2e-05 -0.002065
-0.000492 -1.2e-05 -0.002058
-0.000516 -1.2e-05 -0.002052
-0.000539 -1.2e-05 -0.002045
-0.000563 -1.2e-05 -0.002038
-0.000586 -1.2e-05 -0.002031
-0.00061 -1.2e-05 -0.002023
-0.000633 -1.2e-05 -0.002016
-0.000657 -1.2e-05 -0.002008
-0.00068 -1.2e-05 -0.002001
-0.000704 -1.2e-05 -0.001994
-0.000727 -1.2e-05 -0.001986
-0.000751 -1.2e-05 -0.001978
-0.000774 -1.1e-05 -0.001971
-0.000798 -1.1e-05 -0.001963
-0.000821 -1.1e-05 -0.001954
-0.000844 -1e-05 -0.001947
-0.000867 -1e-05 -0.001938
-0.000891 -9e-06 -0.001931
-0.000914 -9e-06 -0.001922
-0.000983 -6e-06 -0.001895
-0.001006 -6e-06 -0.001887
-0.001029 -5e-06 -0.001878
-0.001053 -4e-06 -0.00187
-0.001075 -3e-06 -0.00186
-0.001098 -2e-06 -0.001852
-0.001122 -2e-06 -0.001843
0.000494 0.000749 -0.002411
0.000607 0.000664 -0.0026
-0.000106 0.00045 -0.002987
-0.000641 0.000741 -0.002529
-5.6e-05 0.000529 -0.002991
0.000543 0.000687 -0.002486
-0.000565 0.000719 -0.002402
-0.00059 0.000702 -0.002439
-0.000615 0.00068 -0.002485
-0.000641 0.00066 -0.002528
-0.000666 0.000643 -0.002564
0.000615 0.000609 -0.002596
0.000591 0.000623 -0.002564
0.000567 0.000642 -0.002525
0.000542 0.000659 -0.002486
0.000519 0.00068 -0.002442
0.000494 0.000695 -0.002408
0.00047 0.000704 -0.002389
0.000445 0.000709 -0.002379
0.000878 0.000585 -0.002857
0.000902 0.000584 -0.002853
0.000926 0.000584 -0.002846
0.000162 0.000744 -0.002764
0.000995 0.000587 -0.00282
0.000718 0.000657 -0.002741
0.001044 0.000725 -0.002652
0.000786 0.000539 -0.002804
0.000141 0.000502 -0.002819
0.000118 0.000478 -0.002871
9.3e-05 0.000458 -0.002913
6.7e-05 0.000439 -0.002955
4.2e-05 0.000425 -0.002984
1.7e-05 0.000421 -0.002992
-7e-06 0.00042 -0.002993
-3.2e-05 0.00042 -0.002992
-5.6e-05 0.00042 -0.002992
-8.1e-05 0.000421 -0.002991
-0.000106 0.000423 -0.002987
-0.00013 0.000431 -0.002969
-0.000154 0.000448 -0.002932
-0.000178 0.000466 -0.002892
-0.000514 0.000708 -0.00237
-0.00054 0.000702 -0.002382
-0.000565 0.000692 -0.002403
-0.00059 0.000675 -0.002438
-0.000615 0.000652 -0.002488
-0.000641 0.000633 -0.002528
-0.000666 0.000617 -0.002563
0.000615 0.000582 -0.002595
0.000591 0.000596 -0.002564
0.000567 0.000614 -0.002526
0.000542 0.000633 -0.002485
0.000519 0.000655 -0.002438
0.000494 0.000668 -0.00241
0.00047 0.000677 -0.002389
0.000445 0.000682 -0.002378
0.000421 0.000685 -0.002373
0.001015 0.000621 -0.002799
0.000995 0.000615 -0.002818
0.000972 0.000613 -0.002829
0.000851 0.000618 -0.002852
0.000162 0.000689 -0.002765
0.00044 0.000744 -0.002382
0.000752 0.000557 -0.002774
0.000141 0.000474 -0.002821
0.000118 0.00045 -0.002872
9.3e-05 0.000431 -0.002913
6.7e-05 0.000411 -0.002955
4.2e-05 0.000398 -0.002984
1.7e-05 0.000394 -0.002991
-7e-06 0.000393 -0.002993
-3.2e-05 0.000393 -0.002992
-5.7e-05 0.000393 -0.002992
-8.1e-05 0.000393 -0.002991
-0.000106 0.000395 -0.002987
-0.00013 0.000404 -0.002968
-0.000154 0.000421 -0.002931
-0.000178 0.000439 -0.002892
-0.000202 0.00046 -0.002847
-0.00049 0.000684 -0.002363
-0.000514 0.000681 -0.002369
-0.00054 0.000675 -0.002381
-0.000565 0.000664 -0.002403
-0.00059 0.000648 -0.002439
-0.000615 0.000625 -0.002486
-0.000641 0.000606 -0.002528
-0.000666 0.000588 -0.002566
0.000615 0.000555 -0.002596
0.000591 0.000569 -0.002564
0.000566 0.000587 -0.002525
0.000542 0.000606 -0.002485
0.000518 0.000626 -0.002442
0.000494 0.00064 -0.00241
0.00047 0.00065 -0.00239
0.000445 0.000655 -0.002379
0.000421 0.000657 -0.002373
0.000396 0.000658 -0.002371
0.000787 0.000701 -0.002805
0.001051 0.000547 -0.002616
0.000877 0.000613 -0.002856
0.000878 0.00053 -0.002859
0.00023 0.000724 -0.002547
0.00023 0.000642 -0.002547
0.00092 0.000703 -0.002826
0.000118 0.000423 -0.002872
9.2e-05 0.000403 -0.002914
6.7e-05 0.000384 -0.002955
4.2e-05 0.00037 -0.002984
1.7e-05 0.000367 -0.002992
-7e-06 0.000366 -0.002993
-3.2e-05 0.000366 -0.002992
-5.7e-05 0.000366 -0.002992
-8.1e-05 0.000366 -0.002991
-0.000106 0.000368 -0.002987
-0.00013 0.000377 -0.002968
-0.000154 0.000394 -0.002931
-0.000178 0.000412 -0.002892
-0.000202 0.000432 -0.002849
-0.00049 0.000657 -0.002363
-0.000515 0.000654 -0.002369
-0.00054 0.000648 -0.002381
-0.000565 0.000638 -0.002402
-0.00059 0.00062 -0.00244
-0.000616 0.000598 -0.002486
-0.000641 0.000579 -0.002528
-0.000666 0.000561 -0.002566
0.000608 0.000527 -0.002601
0.000591 0.000542 -0.002565
0.000566 0.00056 -0.002525
0.000542 0.000578 -0.002486
0.000518 0.000599 -0.002441
0.000494 0.000613 -0.002409
0.00047 0.000622 -0.002391
0.000445 0.000628 -0.002378
0.000421 0.00063 -0.002373
0.000396 0.000631 -0.002371
0.000372 0.000629 -0.002374
0.000717 0.00074 -0.002739
0.000949 0.000584 -0.002839
0.000819 0.00055 -0.002831
0.000819 0.000441 -0.002831
0.000118 0.000396 -0.002871
9.2e-05 0.000376 -0.002914
6.7e-05 0.000356 -0.002956
4.2e-05 0.000343 -0.002984
1.7e-05 0.000339 -0.002992
-7e-06 0.000339 -0.002992
-3.2e-05 0.000339 -0.002992
-5.7e-05 0.000339 -0.002992
-8.1e-05 0.000339 -0.002991
-0.000106 0.000341 -0.002986
-0.00013 0.00035 -0.002967
-0.000154 0.000366 -0.002932
-0.000178 0.000385 -0.002892
-0.000202 0.000405 -0.002848
-0.000441 0.000631 -0.002361
-0.000466 0.000631 -0.00236
-0.00049 0.00063 -0.002362
-0.000515 0.000627 -0.002369
-0.00054 0.00062 -0.002381
-0.000565 0.000611 -0.002402
-0.00059 0.000593 -0.002441
-0.000616 0.000571 -0.002487
-0.000641 0.000552 -0.002526
-0.000666 0.000535 -0.002563
0.000611 0.000501 -0.002596
0.00059 0.000515 -0.002564
0.000566 0.000532 -0.002526
0.000542 0.000551 -0.002486
0.000518 0.000571 -0.002442
0.000494 0.000587 -0.002407
0.00047 0.000595 -0.00239
0.000445 0.000601 -0.002377
0.000421 0.000603 -0.002372
0.000396 0.000604 -0.002371
0.000372 0.000602 -0.002374
0.001028 0.000637 -0.00276
0.001591 0.000513 -0.002366
0.000178 0.000675 -0.00273
0.000718 0.000548 -0.002742
0.000752 0.00053 -0.002773
0.000966 0.000705 -0.002807
0.000118 0.000369 -0.002872
9.2e-05 0.000349 -0.002914
6.7e-05 0.000329 -0.002956
4.2e-05 0.000316 -0.002984
1.7e-05 0.000312 -0.002992
-7e-06 0.000312 -0.002992
-3.2e-05 0.000312 -0.002992
-5.7e-05 0.000312 -0.002991
-8.1e-05 0.000312 -0.002991
-0.000106 0.000314 -0.002986
-0.00013 0.000323 -0.002967
-0.000154 0.00034 -0.00293
-0.000178 0.000357 -0.002893
-0.000202 0.000378 -0.002849
-0.000441 0.000604 -0.002361
-0.000466 0.000604 -0.00236
-0.00049 0.000603 -0.002362
-0.000515 0.0006 -0.002368
-0.00054 0.000594 -0.002381
-0.000565 0.000584 -0.002402
-0.00059 0.000565 -0.00244
-0.000616 0.000544 -0.002487
-0.000641 0.000525 -0.002526
-0.000666 0.000507 -0.002564
0.00059 0.000488 -0.002563
0.000566 0.000505 -0.002526
0.000542 0.000524 -0.002485
0.000518 0.000544 -0.002442
0.000494 0.00056 -0.002408
0.00047 0.000569 -0.002388
0.000445 0.000574 -0.002378
0.000421 0.000576 -0.002372
0.000396 0.000576 -0.002371
0.000372 0.000575 -0.002374
0.00105 0.000687 -0.002194
0.000973 0.000558 -0.002831
0.001016 0.000511 -0.002803
0.000338 0.000703 -0.002382
0.000386 0.000729 -0.002372
0.000141 0.000365 -0.00282
0.000118 0.000342 -0.002872
9.2e-05 0.000322 -0.002914
6.7e-05 0.000302 -0.002956
4.2e-05 0.000289 -0.002983
1.7e-05 0.000285 -0.002992
-7e-06 0.000285 -0.002993
-3.2e-05 0.000284 -0.002992
-5.7e-05 0.000284 -0.002992
-8.1e-05 0.000285 -0.002991
-0.000106 0.000287 -0.002986
-0.00013 0.000295 -0.002968
-0.000154 0.000313 -0.00293
-0.000178 0.00033 -0.002892
-0.000202 0.00035 -0.002849
-0.000441 0.000576 -0.002361
-0.000466 0.000577 -0.00236
-0.00049 0.000576 -0.002362
-0.000515 0.000572 -0.002368
-0.00054 0.000566 -0.002381
-0.000565 0.000556 -0.002402
-0.00059 0.000539 -0.002439
-0.000616 0.000516 -0.002488
-0.000641 0.000498 -0.002527
-0.000666 0.000479 -0.002566
0.000615 0.000447 -0.002594
0.00059 0.000461 -0.002562
0.000566 0.000478 -0.002526
0.000542 0.000497 -0.002486
0.000518 0.000517 -0.002441
0.000494 0.000533 -0.002408
0.00047 0.000541 -0.002389
0.000445 0.000546 -0.002379
0.000421 0.000549 -0.002372
0.000396 0.000549 -0.002371
0.000372 0.000548 -0.002373
0.000753 0.000692 -0.002775
0.000949 0.000557 -0.002839
0.001028 0.000528 -0.002761
0.000412 0.000698 -0.002372
0.001016 0.000429 -0.002802
0.001028 0.000446 -0.00276
0.000118 0.000314 -0.002872
9.2e-05 0.000294 -0.002915
6.7e-05 0.000275 -0.002957
4.2e-05 0.000262 -0.002983
1.7e-05 0.000258 -0.002991
-7e-06 0.000257 -0.002993
-3.2e-05 0.000257 -0.002992
-5.7e-05 0.000257 -0.002992
-8.1e-05 0.000258 -0.002991
-0.000106 0.00026 -0.002986
-0.00013 0.000268 -0.002967
-0.000154 0.000286 -0.00293
-0.000178 0.000304 -0.002891
-0.000202 0.000323 -0.002849
-0.000441 0.000549 -0.002361
-0.000466 0.00055 -0.00236
-0.00049 0.000548 -0.002362
-0.000515 0.000545 -0.002368
-0.00054 0.000539 -0.00238
-0.000565 0.000529 -0.002402
-0.00059 0.000511 -0.00244
-0.000616 0.000489 -0.002487
-0.000641 0.00047 -0.002528
-0.000666 0.000451 -0.002568
0.000611 0.00042 -0.002595
0.00059 0.000434 -0.002563
0.000566 0.000451 -0.002525
0.000542 0.000469 -0.002486
0.000518 0.00049 -0.002442
0.000494 0.000505 -0.002408
0.00047 0.000514 -0.002389
0.000445 0.000519 -0.002378
0.000421 0.000522 -0.002372
0.000396 0.000522 -0.002371
0.000371 0.00052 -0.002374
0.000877 0.000641 -0.002853
0.000995 0.00056 -0.002821
0.002413 0.00055 -0.001368
0.000206 0.000682 -0.002646
0.000193 0.000582 -0.002691
0.002048 0.000585 -0.001664
0.000118 0.000287 -0.002873
9.2e-05 0.000267 -0.002916
6.7e-05 0.000247 -0.002957
4.2e-05 0.000235 -0.002983
1.7e-05 0.000231 -0.002991
-7e-06 0.00023 -0.002992
-3.2e-05 0.00023 -0.002992
-5.7e-05 0.00023 -0.002991
-8.1e-05 0.000231 -0.00299
-0.000106 0.000233 -0.002985
-0.00013 0.000241 -0.002967
-0.000154 0.000258 -0.002931
-0.000178 0.000276 -0.002892
-0.000441 0.000522 -0.002361
-0.000466 0.000523 -0.00236
-0.00049 0.000521 -0.002362
-0.000515 0.000518 -0.002368
-0.00054 0.000512 -0.00238
-0.000565 0.000501 -0.002403
-0.00059 0.000483 -0.002442
-0.000616 0.000462 -0.002487
-0.000641 0.000442 -0.00253
-0.000666 0.000424 -0.002567
0.000611 0.000393 -0.002595
0.00059 0.000406 -0.002563
0.000566 0.000424 -0.002526
0.000542 0.000442 -0.002485
0.000518 0.000463 -0.002442
0.000494 0.000478 -0.002408
0.00047 0.000487 -0.002389
0.000445 0.000492 -0.002377
0.000421 0.000495 -0.002372
0.000396 0.000495 -0.00237
0.000371 0.000494 -0.002373
0.000994 0.000644 -0.002815
0.001028 0.000583 -0.00276
0.000718 0.000603 -0.00274
0.00082 0.000522 -0.002832
0.000206 0.000601 -0.002646
0.000361 0.00073 -0.002375
0.001753 0.000708 -0.002392
0.000118 0.00026 -0.002872
9.2e-05 0.00024 -0.002915
6.7e-05 0.00022 -0.002956
4.2e-05 0.000208 -0.002983
1.7e-05 0.000204 -0.00299
-7e-06 0.000203 -0.002992
-3.2e-05 0.000203 -0.002992
-5.7e-05 0.000203 -0.002991
-8.1e-05 0.000204 -0.00299
-0.000106 0.000206 -0.002985
-0.00013 0.000214 -0.002967
-0.000154 0.000231 -0.002931
-0.000178 0.000249 -0.002892
-0.000441 0.000495 -0.002361
-0.000466 0.000496 -0.00236
-0.00049 0.000494 -0.002362
-0.000515 0.000491 -0.002368
-0.00054 0.000485 -0.00238
-0.000565 0.000474 -0.002403
-0.00059 0.000456 -0.002442
-0.000616 0.000436 -0.002485
-0.000641 0.000414 -0.002531
-0.000666 0.000397 -0.002568
0.000615 0.000366 -0.002591
0.00059 0.000379 -0.002564
0.000566 0.000397 -0.002526
0.000542 0.000415 -0.002486
0.000518 0.000435 -0.002442
0.000494 0.000451 -0.002408
0.00047 0.00046 -0.002388
0.000445 0.000465 -0.002377
0.000421 0.000468 -0.002371
0.000396 0.000468 -0.00237
0.000371 0.000466 -0.002373
0.001014 0.00065 -0.002796
0.001401 0.000635 -0.002245
0.000148 0.000648 -0.002801
0.001061 0.000567 -0.002492
0.000337 0.000731 -0.002381
0.000141 0.000255 -0.002823
0.000118 0.000232 -0.002873
9.2e-05 0.000212 -0.002915
6.7e-05 0.000193 -0.002957
4.2e-05 0.000181 -0.002982
1.7e-05 0.000178 -0.002989
-7e-06 0.000176 -0.002991
-3.2e-05 0.000176 -0.002991
-5.7e-05 0.000176 -0.002991
-8.1e-05 0.000177 -0.002989
-0.000106 0.00018 -0.002983
-0.00013 0.000187 -0.002966
-0.000154 0.000204 -0.002931
-0.000178 0.000222 -0.002891
-0.000441 0.000468 -0.002361
-0.000466 0.000469 -0.002359
-0.00049 0.000467 -0.002362
-0.000515 0.000464 -0.002368
-0.00054 0.000458 -0.00238
-0.000565 0.000447 -0.002403
-0.00059 0.000429 -0.002441
-0.000616 0.000409 -0.002483
-0.000641 0.000388 -0.00253
-0.000666 0.000369 -0.002568
0.000615 0.000339 -0.002592
0.00059 0.000352 -0.002563
0.000566 0.00037 -0.002526
0.000542 0.000388 -0.002486
0.000518 0.000409 -0.002441
0.000494 0.000424 -0.002407
0.00047 0.000433 -0.002388
0.000445 0.000438 -0.002377
0.000421 0.000441 -0.002372
0.000396 0.000441 -0.00237
0.000371 0.000439 -0.002373
0.000949 0.00064 -0.002836
0.000148 0.000702 -0.002801
0.00104 0.000548 -0.002691
0.000178 0.000593 -0.002731
0.001783 0.000672 -0.002394
0.001775 0.000706 -0.002382
0.000142 0.000228 -0.002823
0.000118 0.000205 -0.002873
9.2e-05 0.000185 -0.002916
6.7e-05 0.000166 -0.002957
4.2e-05 0.000155 -0.00298
1.7e-05 0.000152 -0.002986
-7e-06 0.00015 -0.002989
-3.2e-05 0.00015 -0.00299
-5.7e-05 0.00015 -0.002989
-8.1e-05 0.000151 -0.002986
-0.000106 0.000153 -0.002981
-0.00013 0.000161 -0.002965
-0.000154 0.000177 -0.00293
-0.000178 0.000195 -0.002892
-0.000441 0.000441 -0.002361
-0.000466 0.000441 -0.002359
-0.00049 0.00044 -0.002362
-0.000515 0.000437 -0.002368
-0.00054 0.00043 -0.002381
-0.000565 0.00042 -0.002403
-0.00059 0.000402 -0.00244
-0.000616 0.000382 -0.002485
-0.000641 0.00036 -0.00253
-0.000666 0.000343 -0.002568
0.000615 0.000311 -0.002593
0.00059 0.000325 -0.002563
0.000566 0.000343 -0.002525
0.000542 0.000361 -0.002486
0.000518 0.000382 -0.002441
0.000494 0.000397 -0.002407
0.00047 0.000406 -0.002388
0.000445 0.000411 -0.002377
0.000421 0.000414 -0.002371
0.000396 0.000414 -0.00237
0.000371 0.000412 -0.002374
0.000787 0.000675 -0.002804
0.000878 0.000558 -0.002858
0.000996 0.000505 -0.002821
0.00024 0.000747 -0.002492
0.000902 0.000502 -0.002854
0.000149 0.000675 -0.002801
0.000142 0.000201 -0.002824
0.000118 0.000178 -0.002873
9.2e-05 0.000158 -0.002915
6.7e-05 0.000139 -0.002956
4.2e-05 0.00013 -0.002976
1.7e-05 0.000127 -0.002982
-7e-06 0.000125 -0.002985
-3.2e-05 0.000125 -0.002986
-5.7e-05 0.000125 -0.002985
-8.1e-05 0.000126 -0.002982
-0.000106 0.000128 -0.002977
-0.00013 0.000135 -0.002962
-0.000154 0.00015 -0.00293
-0.000178 0.000168 -0.00289
-0.000197 0.000188 -0.002844
-0.000441 0.000413 -0.002361
-0.000466 0.000414 -0.00236
-0.00049 0.000413 -0.002362
-0.000515 0.000409 -0.002368
-0.00054 0.000403 -0.002381
-0.000565 0.000393 -0.002403
-0.00059 0.000375 -0.00244
-0.000616 0.000353 -0.002487
-0.000641 0.000333 -0.002531
-0.000666 0.000316 -0.002567
0.000614 0.000284 -0.002593
0.00059 0.000298 -0.002562
0.000566 0.000315 -0.002525
0.000542 0.000334 -0.002486
0.000518 0.000354 -0.002441
0.000494 0.00037 -0.002407
0.00047 0.000379 -0.002388
0.000445 0.000384 -0.002377
0.000421 0.000386 -0.002371
0.000396 0.000386 -0.00237
0.000371 0.000385 -0.002373
0.000718 0.000712 -0.002741
0.000851 0.000563 -0.002853
0.000162 0.000661 -0.002766
0.000973 0.000476 -0.002831
0.000926 0.000502 -0.002847
0.000949 0.000612 -0.002839
0.000142 0.000174 -0.002824
0.000117 0.000151 -0.002873
9.2e-05 0.000131 -0.002916
6.7e-05 0.000113 -0.002953
4.2e-05 0.000105 -0.00297
1.7e-05 0.000103 -0.002975
-7e-06 0.000101 -0.002978
-3.2e-05 0.000101 -0.002979
-5.7e-05 0.000101 -0.002978
-8.1e-05 0.000102 -0.002975
-0.000106 0.000104 -0.00297
-0.00013 0.000109 -0.002959
-0.000154 0.000123 -0.002929
-0.000178 0.000141 -0.00289
-0.000196 0.00016 -0.002845
-0.000441 0.000386 -0.002361
-0.000466 0.000387 -0.002359
-0.00049 0.000386 -0.002362
-0.000515 0.000382 -0.002368
-0.00054 0.000376 -0.002381
-0.000565 0.000365 -0.002404
-0.00059 0.000348 -0.00244
-0.000616 0.000326 -0.002487
-0.000641 0.000306 -0.00253
-0.000666 0.000289 -0.002565
0.000614 0.000258 -0.002591
0.00059 0.000271 -0.002562
0.000566 0.000288 -0.002525
0.000542 0.000307 -0.002485
0.000518 0.000327 -0.002442
0.000494 0.000343 -0.002406
0.00047 0.000351 -0.002389
0.000445 0.000356 -0.002377
0.000421 0.000359 -0.002372
0.000396 0.000359 -0.002371
0.000371 0.000357 -0.002374
0.000972 0.000641 -0.002827
0.001059 0.000713 -0.002535
0.000194 0.000691 -0.00269
0.000294 0.000726 -0.002404
0.001016 0.000456 -0.002803
0.000926 0.000529 -0.002847
0.000141 0.000146 -0.002824
0.000117 0.000124 -0.002873
9.2e-05 0.000104 -0.002916
6.7e-05 8.8e-05 -0.002949
4.2e-05 8.2e-05 -0.002961
1.8e-05 8e-05 -0.002966
-7e-06 7.9e-05 -0.002968
-3.2e-05 7.8e-05 -0.002969
-5.6e-05 7.8e-05 -0.002968
-8.1e-05 7.9e-05 -0.002965
-0.000106 8.1e-05 -0.002961
-0.00013 8.5e-05 -0.002953
-0.000154 9.6e-05 -0.002928
-0.000178 0.000114 -0.002891
-0.000202 0.000133 -0.002848
-0.000441 0.000359 -0.002361
-0.000466 0.00036 -0.002359
-0.000491 0.000358 -0.002362
-0.000515 0.000355 -0.002368
-0.00054 0.000349 -0.002381
-0.000565 0.000338 -0.002403
-0.00059 0.00032 -0.002443
-0.000616 0.000299 -0.002488
-0.000641 0.000279 -0.002529
-0.000666 0.000262 -0.002565
0.000614 0.00023 -0.002593
0.00059 0.000244 -0.002563
0.000566 0.000261 -0.002525
0.000542 0.00028 -0.002484
0.000518 0.0003 -0.002442
0.000494 0.000315 -0.002407
0.00047 0.000324 -0.002388
0.000445 0.000329 -0.002377
0.000421 0.000332 -0.002372
0.000396 0.000332 -0.002371
0.000371 0.00033 -0.002374
0.000901 0.00064 -0.00285
0.001016 0.000565 -0.002802
0.00021 0.00071 -0.002647
0.000315 0.000702 -0.002391
0.000386 0.000701 -0.002372
0.000949 0.000421 -0.002839
0.000973 0.000422 -0.002831
0.000117 9.6e-05 -0.002874
9.2e-05 7.7e-05 -0.002914
6.7e-05 6.5e-05 -0.00294
4.2e-05 6.1e-05 -0.002949
1.8e-05 5.8e-05 -0.002953
-7e-06 5.7e-05 -0.002955
-3.2e-05 5.7e-05 -0.002956
-5.6e-05 5.7e-05 -0.002955
-8.1e-05 5.8e-05 -0.002953
-0.000105 6e-05 -0.002949
-0.00013 6.3e-05 -0.002942
-0.000154 7.1e-05 -0.002924
-0.000178 8.7e-05 -0.002889
-0.000202 0.000106 -0.002848
-0.000442 0.000332 -0.00236
-0.000466 0.000333 -0.002359
-0.000491 0.000331 -0.002362
-0.000515 0.000328 -0.002368
-0.00054 0.000321 -0.002381
-0.000565 0.000311 -0.002404
-0.000591 0.000293 -0.002443
-0.000616 0.000272 -0.002487
-0.000641 0.000252 -0.00253
-0.000666 0.000234 -0.002566
0.000611 0.000203 -0.002596
0.00059 0.000218 -0.00256
0.000566 0.000234 -0.002524
0.000542 0.000253 -0.002484
0.000518 0.000273 -0.002441
0.000494 0.000288 -0.002407
0.00047 0.000297 -0.002388
0.000445 0.000302 -0.002377
0.000421 0.000305 -0.002372
0.000396 0.000305 -0.002371
0.000371 0.000303 -0.002373
0.00085 0.000646 -0.00285
0.00082 0.000577 -0.002832
0.000787 0.000566 -0.002805
0.000996 0.000478 -0.002821
0.000361 0.000703 -0.002376
0.000117 6.9e-05 -0.002873
9.2e-05 5.3e-05 -0.002908
6.7e-05 4.4e-05 -0.002926
4.3e-05 4.1e-05 -0.002933
1.8e-05 3.9e-05 -0.002937
-7e-06 3.8e-05 -0.002938
-3.1e-05 3.7e-05 -0.002939
-5.6e-05 3.8e-05 -0.002938
-8.1e-05 3.9e-05 -0.002936
-0.000105 4e-05 -0.002933
-0.00013 4.3e-05 -0.002927
-0.000154 4.9e-05 -0.002914
-0.000178 6.1e-05 -0.002887
-0.000202 7.9e-05 -0.002847
-0.000442 0.000305 -0.00236
-0.000466 0.000306 -0.002359
-0.000491 0.000304 -0.002361
-0.000515 0.000301 -0.002369
-0.00054 0.000294 -0.002382
-0.000565 0.000283 -0.002405
-0.000591 0.000266 -0.002441
-0.000616 0.000245 -0.002487
-0.000641 0.000224 -0.00253
-0.000666 0.000207 -0.002567
0.000614 0.000176 -0.002591
0.00059 0.00019 -0.002562
0.000566 0.000207 -0.002524
0.000542 0.000226 -0.002484
0.000518 0.000245 -0.002442
0.000494 0.000261 -0.002407
0.00047 0.00027 -0.002388
0.000445 0.000275 -0.002377
0.000421 0.000278 -0.002371
0.000396 0.000278 -0.00237
0.000371 0.000276 -0.002373
0.00082 0.000658 -0.002832
0.000902 0.000557 -0.002853
0.000681 0.000627 -0.002699
0.001592 0.00054 -0.002367
0.000845 0.000709 -0.002832
0.000117 4.5e-05 -0.002868
9.2e-05 3.3e-05 -0.002893
6.8e-05 2.6e-05 -0.002906
4.3e-05 2.3e-05 -0.002912
1.8e-05 2.2e-05 -0.002914
-6e-06 2.1e-05 -0.002916
-3.1e-05 2.1e-05 -0.002916
-5.6e-05 2.1e-05 -0.002915
-8e-05 2.2e-05 -0.002914
-0.000105 2.3e-05 -0.002911
-0.000129 2.5e-05 -0.002906
-0.000154 3e-05 -0.002896
-0.000178 3.8e-05 -0.002877
-0.000196 5.5e-05 -0.002841
-0.000442 0.000278 -0.00236
-0.000466 0.000279 -0.002359
-0.000491 0.000277 -0.002361
-0.000515 0.000273 -0.002369
-0.00054 0.000267 -0.002382
-0.000565 0.000256 -0.002404
-0.000591 0.000238 -0.002443
-0.000616 0.000217 -0.002487
-0.000641 0.000197 -0.002532
-0.000666 0.00018 -0.002566
0.000614 0.000148 -0.002593
0.00059 0.000163 -0.002561
0.000566 0.00018 -0.002525
0.000542 0.000199 -0.002483
0.000518 0.000218 -0.002442
0.000494 0.000234 -0.002407
0.00047 0.000243 -0.002388
0.000445 0.000248 -0.002376
0.000421 0.00025 -0.002371
0.000396 0.000251 -0.00237
0.000371 0.000249 -0.002373
0.00187 0.000649 -0.00226
0.000786 0.000593 -0.002804
0.00064 0.000657 -0.002643
0.000902 0.000448 -0.002854
-0.000314 -2e-05 -0.002067
-0.00029 -2.1e-05 -0.002069
0.001009 0.000714 -0.002776
0.000118 2.5e-05 -0.002852
9.3e-05 1.7e-05 -0.002868
6.8e-05 1.3e-05 -0.002876
4.3e-05 1.2e-05 -0.002877
-0.000265 -2.1e-05 -0.002071
-5.5e-05 1.2e-05 -0.002878
-8e-05 1.2e-05 -0.002877
-0.000104 1.2e-05 -0.002877
-0.000129 1.3e-05 -0.002874
-0.000154 1.6e-05 -0.002868
-0.000178 2.1e-05 -0.002856
-0.000197 3.4e-05 -0.00283
-0.000442 0.000251 -0.00236
-0.000466 0.000251 -0.002359
-0.000491 0.00025 -0.002362
-0.000515 0.000246 -0.002369
-0.00054 0.00024 -0.002382
-0.000565 0.000229 -0.002404
-0.000591 0.000211 -0.002442
-0.000616 0.00019 -0.002487
-0.000641 0.000171 -0.002528
-0.000666 0.000153 -0.002566
0.000614 0.000121 -0.002593
0.00059 0.000136 -0.00256
0.000566 0.000152 -0.002525
0.000542 0.000172 -0.002484
0.000518 0.000191 -0.002441
0.000494 0.000207 -0.002407
0.00047 0.000216 -0.002387
0.000445 0.000221 -0.002376
0.000421 0.000223 -0.002371
0.000396 0.000224 -0.00237
0.000371 0.000222 -0.002373
0.001632 0.000632 -0.002385
0.000926 0.000557 -0.002847
0.000752 0.000584 -0.002774
0.001028 0.0005 -0.002761
-0.00024 -2.2e-05 -0.002072
0.001633 0.000685 -0.002386
0.000118 1.2e-05 -0.002821
9.3e-05 1e-05 -0.002825
6.9e-05 1e-05 -0.002825
4.4e-05 9e-06 -0.002826
1.9e-05 9e-06 -0.002826
-5e-06 1e-05 -0.002824
-3e-05 9e-06 -0.002825
-5.4e-05 9e-06 -0.002825
-7.9e-05 9e-06 -0.002824
-0.000104 1e-05 -0.002823
-0.000128 1e-05 -0.002822
-0.000153 1e-05 -0.002821
-0.000178 1.1e-05 -0.002819
-0.000201 1.7e-05 -0.002808
-0.000442 0.000224 -0.00236
-0.000466 0.000224 -0.002359
-0.000491 0.000223 -0.002362
-0.000515 0.000219 -0.002369
-0.00054 0.000212 -0.002382
-0.000565 0.000203 -0.002403
-0.000591 0.000185 -0.002441
-0.000616 0.000163 -0.002487
-0.000641 0.000143 -0.002529
-0.000666 0.000125 -0.002567
0.000614 9.5e-05 -0.00259
0.00059 0.000109 -0.002561
0.000566 0.000125 -0.002525
0.000542 0.000145 -0.002483
0.000518 0.000164 -0.00244
0.000494 0.00018 -0.002406
0.00047 0.000189 -0.002387
0.000445 0.000194 -0.002376
0.000421 0.000196 -0.002371
0.000396 0.000196 -0.00237
0.000371 0.000195 -0.002373
0.000925 0.00064 -0.002844
0.000193 0.000746 -0.00269
0.000851 0.000536 -0.002854
0.000292 0.000753 -0.002403
0.000387 0.000754 -0.002374
0.001822 0.000693 -0.002355
0.001061 0.000621 -0.002491
0.000119 1e-05 -0.002767
9.4e-05 9e-06 -0.002769
7e-05 9e-06 -0.002768
4.5e-05 9e-06 -0.002768
2e-05 9e-06 -0.002767
-4e-06 9e-06 -0.002768
-2.9e-05 9e-06 -0.002767
-5.4e-05 9e-06 -0.002766
-7.8e-05 9e-06 -0.002767
-0.000103 1e-05 -0.002764
-0.000127 1e-05 -0.002764
-0.000152 1e-05 -0.002764
-0.000177 9e-06 -0.002764
-0.000442 0.000196 -0.00236
-0.000466 0.000197 -0.002359
-0.000491 0.000196 -0.002362
-0.000515 0.000192 -0.002369
-0.00054 0.000185 -0.002382
-0.000565 0.000175 -0.002403
-0.000591 0.000157 -0.002443
-0.000616 0.000135 -0.002489
-0.000641 0.000117 -0.002528
-0.000666 9.8e-05 -0.002567
0.000614 6.7e-05 -0.002592
0.00059 8.1e-05 -0.002562
0.000566 9.9e-05 -0.002523
0.000542 0.000118 -0.002481
0.000518 0.000137 -0.00244
0.000494 0.000153 -0.002406
0.00047 0.000162 -0.002387
0.000445 0.000167 -0.002376
0.00042 0.000169 -0.002371
0.000396 0.000169 -0.00237
0.000371 0.000168 -0.002373
0.000926 0.000611 -0.002846
0.000178 0.00073 -0.002728
0.000949 0.00053 -0.002839
0.000272 0.000747 -0.002422
0.000193 0.000637 -0.00269
0.001028 0.00061 -0.00276
0.000194 0.000664 -0.00269
0.001206 0.000691 -0.002106
0.001027 0.000692 -0.002756
0.001012 0.00068 -0.002789
4.6e-05 7e-06 -0.002714
2.1e-05 6e-06 -0.002715
-3e-06 7e-06 -0.002713
-2.8e-05 8e-06 -0.002711
-5.3e-05 7e-06 -0.002712
-7.7e-05 7e-06 -0.002712
-0.000102 8e-06 -0.002711
-0.000127 8e-06 -0.002709
-0.000151 9e-06 -0.002708
-0.000176 9e-06 -0.002707
-0.000442 0.000169 -0.00236
-0.000466 0.00017 -0.002359
-0.000491 0.000168 -0.002362
-0.000515 0.000165 -0.002369
-0.00054 0.000158 -0.002381
-0.000565 0.000148 -0.002404
-0.000591 0.00013 -0.002442
-0.000616 0.000109 -0.002487
-0.000641 8.9e-05 -0.002528
-0.000666 7.1e-05 -0.002568
0.000614 4e-05 -0.002592
0.00059 5.4e-05 -0.002562
0.000566 7.2e-05 -0.002523
0.000542 9.1e-05 -0.002481
0.000518 0.00011 -0.002439
0.000494 0.000126 -0.002406
0.000469 0.000135 -0.002387
0.000445 0.000139 -0.002377
0.00042 0.000142 -0.002371
0.000396 0.000142 -0.00237
0.000947 0.00067 -0.00283
0.000753 0.000719 -0.002775
0.001015 0.000593 -0.002801
0.000718 0.00063 -0.002741
0.000851 0.000427 -0.002853
0.000875 0.000671 -0.002847
0.0009 0.00067 -0.002844
0.000218 0.000648 -0.002597
0.00097 0.000672 -0.002821
0.000992 0.000675 -0.002808
-0.000216 -2.2e-05 -0.002073
-3e-06 8e-06 -0.002653
-2.7e-05 8e-06 -0.002653
-5.2e-05 8e-06 -0.002651
-7.6e-05 8e-06 -0.002652
-0.000101 8e-06 -0.002651
-0.000126 8e-06 -0.002652
-0.00015 8e-06 -0.002651
-0.000175 8e-06 -0.002651
-0.000442 0.000142 -0.00236
-0.000466 0.000142 -0.002359
-0.000491 0.000141 -0.002362
-0.000515 0.000138 -0.002369
-0.00054 0.000131 -0.002381
-0.000565 0.000121 -0.002404
-0.000591 0.000103 -0.002441
-0.000616 8.1e-05 -0.002487
-0.000641 6.2e-05 -0.002529
-0.000667 4.3e-05 -0.002568
0.000412 0.000751 -0.002374
0.00059 2.7e-05 -0.00256
0.000566 4.4e-05 -0.002525
0.000542 6.4e-05 -0.002482
0.000518 8.4e-05 -0.002438
0.000494 9.9e-05 -0.002406
0.000469 0.000108 -0.002387
0.000445 0.000112 -0.002377
0.00042 0.000115 -0.002371
0.000396 0.000115 -0.00237
0.000819 0.000686 -0.002831
0.001504 0.000527 -0.002318
0.001857 0.000706 -0.002187
0.000681 0.000653 -0.002699
0.000178 0.000567 -0.00273
0.000924 0.000669 -0.002838
0.000849 0.000676 -0.002845
0.000439 0.000692 -0.002377
0.001863 0.000592 -0.002338
0.001742 0.00059 -0.002422
0.00023 0.000669 -0.002548
7.2e-05 5e-06 -0.002602
4.7e-05 6e-06 -0.002599
2.3e-05 6e-06 -0.002599
-2e-06 5e-06 -0.0026
-2.6e-05 5e-06 -0.002601
-5.1e-05 6e-06 -0.002599
-7.6e-05 6e-06 -0.002599
-0.0001 5e-06 -0.002599
-0.000174 5e-06 -0.002599
-0.000199 6e-06 -0.002597
-0.000248 4e-06 -0.0026
-0.000417 0.000113 -0.002363
-0.000442 0.000115 -0.002359
-0.000466 0.000115 -0.002359
-0.000491 0.000114 -0.002361
-0.000515 0.000111 -0.002367
-0.000541 0.000104 -0.002381
-0.000565 9.4e-05 -0.002403
-0.000616 5.4e-05 -0.002487
-0.000641 3.2e-05 -0.002534
-0.000666 1.8e-05 -0.002565
0.001504 0.000554 -0.002318
0.000902 0.000612 -0.002852
0.000566 1.8e-05 -0.002521
0.000542 3.6e-05 -0.002482
0.000518 5.6e-05 -0.00244
0.000494 7.2e-05 -0.002405
0.00047 8e-05 -0.002387
0.000445 8.5e-05 -0.002377
0.00042 8.8e-05 -0.002371
0.001055 0.000562 -0.002575
0.001403 0.000741 -0.002249
0.000973 0.000585 -0.00283
0.001034 0.000536 -0.002726
0.000162 0.000552 -0.002766
0.000146 0.000539 -0.0028
-0.000191 -2.3e-05 -0.002075
0.000752 0.000476 -0.002773
0.001709 0.0006 -0.002416
0.001873 0.000601 -0.00231
0.000314 0.000729 -0.00239
4.8e-05 8e-06 -0.002537
2.4e-05 7e-06 -0.002538
-1e-06 7e-06 -0.002538
-2.6e-05 8e-06 -0.002537
-5e-05 7e-06 -0.002538
-7.5e-05 7e-06 -0.002537
-0.000173 7e-06 -0.002536
-0.000198 7e-06 -0.002536
-0.000247 7e-06 -0.002535
-0.000272 7e-06 -0.002534
-0.000393 8.3e-05 -0.00237
-0.000417 8.7e-05 -0.002363
-0.000442 8.8e-05 -0.002359
-0.000466 8.8e-05 -0.002358
-0.000491 8.7e-05 -0.002361
-0.000516 8.4e-05 -0.002367
-0.000541 7.7e-05 -0.00238
-0.000565 6.7e-05 -0.002402
-0.000616 2.6e-05 -0.002489
-0.000641 1.1e-05 -0.002521
0.002459 0.000648 -0.001702
0.000752 0.000611 -0.002773
0.000567 7e-06 -0.002487
0.000542 1.1e-05 -0.002475
0.000518 2.8e-05 -0.002442
0.000494 4.5e-05 -0.002404
0.000469 5.3e-05 -0.002387
0.000444 5.8e-05 -0.002377
0.001454 0.000607 -0.002284
0.000146 0.00073 -0.0028
0.001027 0.000664 -0.002759
0.001873 0.000629 -0.002309
0.00064 0.000684 -0.002643
0.001551 0.000557 -0.002348
0.000425 -1.5e-05 0.002079
0.000401 -1.5e-05 0.002085
-0.000167 -2.3e-05 -0.002076
0.000717 0.000495 -0.00274
0.000786 0.000457 -0.002804
0.000878 0.000421 -0.002859
0.000995 0.000423 -0.002821
0.001059 0.000587 -0.002442
0.001051 0.000628 -0.002616
2.4e-05 2e-06 -0.002491
-0.0 2e-06 -0.00249
-2.5e-05 3e-06 -0.002489
-4.9e-05 2e-06 -0.00249
-7.4e-05 3e-06 -0.002488
-0.000173 3e-06 -0.002487
-0.000197 3e-06 -0.002486
-0.000222 4e-06 -0.002484
-0.000246 3e-06 -0.002485
-0.000393 5.6e-05 -0.002369
-0.000417 6e-05 -0.002362
-0.000442 6.1e-05 -0.002359
-0.000466 6.1e-05 -0.002358
-0.000491 6e-05 -0.002361
-0.000516 5.7e-05 -0.002366
-0.000541 5e-05 -0.00238
-0.000566 4e-05 -0.002402
-0.000616 6e-06 -0.002472
0.00024 0.000694 -0.00249
0.000254 0.00071 -0.002449
0.000206 0.000628 -0.002646
0.000193 0.00061 -0.00269
0.000494 1.7e-05 -0.002407
0.000469 2.7e-05 -0.002386
0.000949 0.000448 -0.002839
0.001046 0.00067 -0.002653
0.000902 0.000529 -0.002854
0.001869 0.000494 -0.002331
0.000786 0.000648 -0.002804
0.000193 0.000718 -0.002691
0.00023 0.000697 -0.002546
0.000377 -1.4e-05 0.002092
0.000353 -1.3e-05 0.002097
-0.000142 -2.4e-05 -0.002077
0.000149 4e-06 -0.002429
0.000124 5e-06 -0.002428
9.9e-05 4e-06 -0.00243
7.5e-05 4e-06 -0.002428
2.5e-05 5e-06 -0.002426
1e-06 5e-06 -0.002427
-2.4e-05 3e-06 -0.00243
-4.9e-05 4e-06 -0.002427
-7.3e-05 2e-06 -0.002432
-9.8e-05 5e-06 -0.002425
-0.000196 4e-06 -0.002425
-0.000221 4e-06 -0.002424
-0.000117 -2.4e-05 -0.002078
-0.000344 1.4e-05 -0.002402
-0.000368 2.4e-05 -0.002381
-0.000417 3.3e-05 -0.002361
-0.000442 3.4e-05 -0.002358
-0.000466 3.4e-05 -0.002358
-0.000491 3.3e-05 -0.002361
-0.000516 3e-05 -0.002366
-0.000541 2.3e-05 -0.00238
-0.000615 3e-06 -0.002421
-0.00064 4e-06 -0.002418
-0.000664 6e-06 -0.002416
0.000494 6e-06 -0.002372
0.00047 8e-06 -0.002369
0.001028 0.000474 -0.00276
0.000163 0.000715 -0.002766
0.000753 0.000665 -0.002775
0.00082 0.000631 -0.002832
0.000178 0.000703 -0.00273
0.001028 0.000555 -0.002761
0.000218 0.000675 -0.002598
0.00126 0.000735 -0.002114
0.000199 7e-06 -0.002365
0.000174 6e-06 -0.002367
0.000149 7e-06 -0.002364
0.000125 7e-06 -0.002365
0.0001 7e-06 -0.002364
7.6e-05 7e-06 -0.002363
5.1e-05 7e-06 -0.002364
-9.3e-05 -2.4e-05 -0.002079
-6.8e-05 -2.4e-05 -0.00208
-0.000343 7e-06 -0.00236
-0.000368 7e-06 -0.002359
-0.000417 8e-06 -0.002355
-0.000442 9e-06 -0.002354
-0.000466 8e-06 -0.002355
-0.000491 8e-06 -0.002355
-0.000516 6e-06 -0.002359
-0.00054 2e-06 -0.002368
-0.000565 4e-06 -0.002362
-0.00059 3e-06 -0.002363
-0.000639 4e-06 -0.002362
-0.000664 4e-06 -0.002361
0.000785 0.000732 -0.002797
0.000594 6e-06 -0.002315
0.000569 6e-06 -0.002314
0.000544 6e-06 -0.002313
0.001234 0.000686 -0.00211
0.000136 0.000526 -0.002836
0.000254 0.000684 -0.002448
0.000272 0.000693 -0.002423
0.001052 0.000683 -0.002616
0.001233 0.000714 -0.002108
0.000162 0.00058 -0.002766
0.001873 0.000573 -0.002311
0.000973 0.000531 -0.002831
0.000996 0.00045 -0.002822
-4.3e-05 -2.5e-05 -0.00208
0.00013 0.000581 -0.002833
0.000199 3e-06 -0.002317
0.000175 2e-06 -0.002317
0.00015 2e-06 -0.002318
0.000126 2e-06 -0.002317
0.000101 2e-06 -0.002318
0.000362 0.000755 -0.002379
5.2e-05 2e-06 -0.002317
2.7e-05 3e-06 -0.002317
2e-06 2e-06 -0.002317
-1.9e-05 -2.4e-05 -0.00208
6e-06 -2.4e-05 -0.00208
-0.000121 2e-06 -0.002315
-0.000145 2e-06 -0.002314
-0.000367 4e-06 -0.002307
-0.000392 5e-06 -0.002304
-0.000515 7e-06 -0.002299
-0.000539 7e-06 -0.002299
-0.000564 7e-06 -0.002298
-0.000589 7e-06 -0.002298
3e-05 -2.4e-05 -0.002081
0.000817 0.000718 -0.002821
0.001124 0.000696 -0.002126
0.00057 4e-06 -0.00226
0.000545 3e-06 -0.002262
0.000521 2e-06 -0.002264
0.001262 0.000677 -0.002122
0.000146 0.000621 -0.0028
0.000163 0.000634 -0.002766
0.000239 0.000722 -0.002488
0.00024 0.000667 -0.00249
0.000348 2e-06 -0.002261
0.000323 1e-06 -0.002264
0.000299 1e-06 -0.002263
0.000274 1e-06 -0.002264
0.000225 1e-06 -0.002265
0.0002 1e-06 -0.002263
0.000176 2e-06 -0.00226
0.000151 1e-06 -0.00226
0.000126 1e-06 -0.002264
5.5e-05 -2.4e-05 -0.00208
0.000988 0.000707 -0.002794
3e-06 2e-06 -0.002257
-9.5e-05 3e-06 -0.002254
-0.00012 1e-06 -0.002258
-0.000145 1e-06 -0.002257
-0.000169 2e-06 -0.002255
-0.000366 0.0 -0.002256
-0.000391 0.0 -0.002256
-0.000416 1e-06 -0.002254
-0.00049 -0.0 -0.002256
-0.000514 0.0 -0.002254
-0.000539 1e-06 -0.002253
-0.000563 2e-06 -0.002251
-0.000588 2e-06 -0.002248
-0.000613 3e-06 -0.002246
8e-05 -2.4e-05 -0.00208
0.00106 0.000641 -0.002443
0.000546 2e-06 -0.002209
0.001027 0.000724 -0.002748
0.000178 0.000648 -0.00273
0.000254 0.000738 -0.002449
0.001034 0.00059 -0.002726
0.000681 0.000545 -0.002699
0.000349 3e-06 -0.002201
0.000324 3e-06 -0.0022
0.0003 3e-06 -0.0022
0.000275 4e-06 -0.002199
0.00025 3e-06 -0.002199
0.000226 3e-06 -0.0022
0.000201 3e-06 -0.002198
0.000177 4e-06 -0.002197
0.000152 3e-06 -0.002198
0.000315 0.000755 -0.002392
0.000718 0.000684 -0.002741
0.000272 0.000721 -0.002422
0.000943 0.000704 -0.002817
4e-06 3e-06 -0.002197
-9.4e-05 2e-06 -0.002196
-0.000119 3e-06 -0.002195
-0.000144 4e-06 -0.002193
-0.000168 3e-06 -0.002194
-0.000365 4e-06 -0.002189
-0.00039 4e-06 -0.00219
-0.000415 2e-06 -0.002193
-0.000439 2e-06 -0.002192
-0.000464 2e-06 -0.002193
-0.000489 1e-06 -0.002195
-0.000513 2e-06 -0.002193
-0.000538 0.0 -0.002196
-0.000563 0.0 -0.002195
-0.000587 0.0 -0.002195
-0.000612 1e-06 -0.002194
-0.000636 -0.0 -0.002196
-0.000661 -0.0 -0.002197
0.000949 0.000503 -0.002839
0.000786 0.000621 -0.002803
0.00082 0.000604 -0.002831
0.000718 0.000576 -0.002741
0.000253 0.000766 -0.002445
0.000926 0.000475 -0.002847
0.001593 0.000702 -0.002369
0.000996 0.000532 -0.002821
0.000374 1e-06 -0.002146
0.00035 1e-06 -0.002148
0.000325 0.0 -0.002148
0.0003 0.0 -0.002148
0.000276 0.0 -0.002148
0.000251 -0.0 -0.002148
0.000227 -1e-06 -0.00215
0.000202 -1e-06 -0.002151
0.000177 -2e-06 -0.00215
0.000896 0.000703 -0.002831
0.000178 0.000621 -0.00273
0.000338 0.000756 -0.002384
0.00068 0.000709 -0.002698
5.4e-05 -3e-06 -0.002152
2.9e-05 -3e-06 -0.002153
5e-06 -3e-06 -0.002152
-2e-05 -3e-06 -0.002151
-4.4e-05 -3e-06 -0.002151
-6.9e-05 -3e-06 -0.00215
-9.4e-05 -3e-06 -0.002149
-0.000118 -3e-06 -0.002149
-0.000143 -3e-06 -0.002149
-0.000168 -2e-06 -0.002147
-0.000192 -2e-06 -0.002147
-0.000414 0.0 -0.002136
-0.000438 1e-06 -0.002136
-0.000463 2e-06 -0.002135
-0.000488 2e-06 -0.002135
-0.000512 3e-06 -0.002132
-0.000586 2e-06 -0.002134
-0.000611 2e-06 -0.002132
-0.000635 2e-06 -0.002132
-0.00066 3e-06 -0.00213
0.000293 0.000699 -0.002404
0.000973 0.000503 -0.002831
0.000851 0.00059 -0.002853
0.000753 0.000638 -0.002774
0.000681 0.000599 -0.002699
0.00064 0.000629 -0.002645
0.000949 0.000476 -0.002839
0.001034 0.000644 -0.002726
0.000752 0.000503 -0.002773
0.001016 0.000538 -0.002803
0.000375 -6e-06 -0.002105
0.00035 -7e-06 -0.002106
0.000326 -8e-06 -0.002107
0.000301 -8e-06 -0.002108
0.000276 -9e-06 -0.00211
0.000252 -1e-05 -0.002111
0.000227 -1e-05 -0.002111
0.000202 -1e-05 -0.002112
0.000178 -1.1e-05 -0.002112
0.000153 -1.1e-05 -0.002113
0.000129 -1.1e-05 -0.002112
0.000104 -1.2e-05 -0.002113
7.9e-05 -1.2e-05 -0.002114
5.5e-05 -1.3e-05 -0.002114
3e-05 -1.2e-05 -0.002114
5e-06 -1.2e-05 -0.002113
-1.9e-05 -1.3e-05 -0.002113
-4.4e-05 -1.3e-05 -0.002113
-6.9e-05 -1.2e-05 -0.002112
-9.3e-05 -1.2e-05 -0.002112
-0.000118 -1.2e-05 -0.002111
-0.000142 -1.2e-05 -0.002109
-0.000167 -1.2e-05 -0.00211
-0.000192 -1.1e-05 -0.002108
-0.000216 -1.1e-05 -0.002108
-0.000241 -1.1e-05 -0.002106
-0.000266 -1.1e-05 -0.002105
-0.00029 -1e-05 -0.002104
-0.000438 -6e-06 -0.002093
-0.000462 -5e-06 -0.002091
-0.000487 -4e-06 -0.002088
-0.000585 0.0 -0.002079
-0.00061 -0.0 -0.002079
-0.000635 1e-06 -0.002075
0.001262 0.000705 -0.002121
0.00013 0.000554 -0.002833
0.000926 0.000421 -0.002847
0.001207 0.000717 -0.002107
0.000146 0.000566 -0.0028
0.000412 0.000725 -0.002372
0.000878 0.000448 -0.002859
0.000851 0.000454 -0.002854
0.000718 0.000522 -0.00274
0.000146 0.000594 -0.002799
0.000206 0.000655 -0.002646
0.001054 0.000749 -0.002201
0.001072 0.000759 -0.002174
0.001264 0.000756 -0.002126
0.000218 0.000702 -0.002598
0.000252 -2.1e-05 -0.002075
0.000228 -2.1e-05 -0.002077
0.000203 -2.2e-05 -0.002078
0.000178 -2.3e-05 -0.002079
0.000154 -2.3e-05 -0.002079
0.000129 -2.3e-05 -0.00208
0.000104 -2.4e-05 -0.00208
0.001454 0.000579 -0.002284
0.001767 0.000504 -0.002417
0.001828 0.000561 -0.002374
0.001028 0.000419 -0.00276
0.001016 0.000402 -0.002803
0.000995 0.000396 -0.002821
0.000973 0.000395 -0.002831
0.000949 0.000394 -0.002839
0.000926 0.000394 -0.002847
0.000902 0.000393 -0.002854
0.000878 0.000394 -0.002859
0.000851 0.0004 -0.002853
0.000819 0.000414 -0.002831
0.000786 0.00043 -0.002804
0.000752 0.000448 -0.002773
0.000717 0.000468 -0.00274
0.00068 0.000492 -0.002696
0.00064 0.00052 -0.002645
0.000386 0.000674 -0.002372
0.000361 0.000676 -0.002376
0.000338 0.000676 -0.002382
0.000315 0.000675 -0.002391
0.000293 0.000673 -0.002402
0.000272 0.000666 -0.002421
0.000254 0.000656 -0.002449
0.00024 0.000639 -0.00249
0.00023 0.000615 -0.002547
0.000218 0.000594 -0.002598
0.000206 0.000573 -0.002647
0.000193 0.000555 -0.002691
0.000178 0.000539 -0.00273
0.000162 0.000525 -0.002766
0.000148 0.000512 -0.002801
0.001259 0.00065 -0.002125
0.001233 0.000659 -0.002109
0.001206 0.000664 -0.002105
0.001181 0.000667 -0.002106
0.001157 0.000667 -0.002111
0.001134 0.000666 -0.002121
0.001818 0.000581 -0.00202
0.001787 0.000614 -0.002402
0.001788 0.000559 -0.002403
0.001671 0.000507 -0.002401
0.001058 0.00055 -0.002535
0.001454 0.000715 -0.002285
0.001028 0.000392 -0.002761
0.001016 0.000375 -0.002803
0.000995 0.000369 -0.002822
0.000973 0.000368 -0.002831
0.000949 0.000367 -0.002839
0.000926 0.000366 -0.002847
0.000902 0.000366 -0.002854
0.000878 0.000367 -0.002859
0.000851 0.000373 -0.002853
0.000819 0.000387 -0.002831
0.000786 0.000403 -0.002803
0.000752 0.000422 -0.002772
0.000717 0.00044 -0.00274
0.00068 0.000464 -0.002698
0.00064 0.000493 -0.002644
0.000386 0.000647 -0.002372
0.000361 0.000649 -0.002375
0.000337 0.000649 -0.002381
0.000315 0.000648 -0.002391
0.000293 0.000645 -0.002403
0.000272 0.000638 -0.002424
0.000254 0.000629 -0.002448
0.00024 0.000612 -0.002491
0.00023 0.000587 -0.002549
0.000218 0.000567 -0.002597
0.000206 0.000546 -0.002646
0.000193 0.000528 -0.002691
0.000178 0.000512 -0.00273
0.000162 0.000498 -0.002766
0.000148 0.000485 -0.0028
0.001262 0.000623 -0.00212
0.001233 0.000632 -0.002109
0.001207 0.000637 -0.002106
0.001181 0.00064 -0.002106
0.001157 0.000641 -0.002111
0.001134 0.000639 -0.00212
0.001708 0.000683 -0.002413
0.001766 0.000614 -0.002414
0.001632 0.000604 -0.002385
0.001504 0.00058 -0.002319
0.001125 0.00075 -0.002127
0.001808 0.00056 -0.002388
0.001028 0.000365 -0.00276
0.001016 0.000347 -0.002803
0.000995 0.000342 -0.002821
0.000973 0.00034 -0.002832
0.000949 0.00034 -0.002839
0.000926 0.000339 -0.002847
0.000902 0.000339 -0.002854
0.000878 0.00034 -0.002859
0.000851 0.000346 -0.002853
0.000819 0.00036 -0.002831
0.000786 0.000376 -0.002803
0.000752 0.000395 -0.002772
0.000717 0.000413 -0.00274
0.00068 0.000437 -0.002696
0.00064 0.000466 -0.002644
0.000361 0.000622 -0.002375
0.000337 0.000622 -0.002381
0.000314 0.000621 -0.00239
0.000292 0.000618 -0.002402
0.000272 0.000611 -0.002423
0.000254 0.000602 -0.002448
0.00024 0.000585 -0.00249
0.00023 0.000561 -0.002547
0.000218 0.00054 -0.002596
0.000206 0.000519 -0.002647
0.000193 0.0005 -0.002692
0.000178 0.000485 -0.002729
0.000162 0.000471 -0.002766
0.000146 0.000457 -0.0028
0.001262 0.000597 -0.002118
0.001233 0.000605 -0.002109
0.001206 0.00061 -0.002105
0.001181 0.000613 -0.002106
0.001157 0.000613 -0.002111
0.001134 0.000612 -0.00212
0.001594 0.000729 -0.002369
0.001034 0.000672 -0.002726
0.00106 0.000703 -0.002491
0.001828 0.000425 -0.002374
0.001171 0.000718 -0.002108
0.001742 0.000481 -0.002423
0.001061 0.00073 -0.002492
0.001028 0.000337 -0.002762
0.001016 0.00032 -0.002803
0.000995 0.000315 -0.002821
0.000973 0.000313 -0.002831
0.000949 0.000312 -0.002839
0.000926 0.000312 -0.002847
0.000902 0.000312 -0.002854
0.000878 0.000312 -0.002859
0.000851 0.000319 -0.002853
0.000819 0.000333 -0.00283
0.000786 0.000349 -0.002804
0.000752 0.000368 -0.002771
0.000717 0.000386 -0.00274
0.00068 0.00041 -0.002696
0.00064 0.000439 -0.002644
0.000277 -2e-05 -0.002072
0.000361 0.000594 -0.002376
0.000337 0.000595 -0.002381
0.000314 0.000594 -0.00239
0.000292 0.000591 -0.002403
0.000272 0.000584 -0.002422
0.000253 0.000575 -0.002448
0.00024 0.000558 -0.00249
0.00023 0.000533 -0.002547
0.000218 0.000512 -0.002598
0.000206 0.000492 -0.002646
0.000193 0.000473 -0.002692
0.000178 0.000458 -0.00273
0.000162 0.000444 -0.002766
0.000146 0.00043 -0.0028
0.00013 0.000417 -0.002834
0.001261 0.00057 -0.002119
0.001233 0.000578 -0.002108
0.001206 0.000583 -0.002105
0.001181 0.000586 -0.002106
0.001157 0.000586 -0.002111
0.001134 0.000585 -0.00212
0.001826 0.000644 -0.002371
0.001808 0.000587 -0.002389
0.002474 0.000681 -0.001671
0.002893 0.000612 -0.000793
0.001741 0.000751 -0.001671
0.001055 0.000643 -0.002576
0.001671 0.000642 -0.002402
0.001028 0.000311 -0.002759
0.001016 0.000293 -0.002803
0.000995 0.000288 -0.002821
0.000973 0.000286 -0.002831
0.000949 0.000285 -0.002839
0.000926 0.000285 -0.002847
0.000902 0.000284 -0.002854
0.000878 0.000285 -0.002859
0.000851 0.000292 -0.002853
0.000819 0.000306 -0.00283
0.000786 0.000322 -0.002804
0.000752 0.00034 -0.002772
0.000718 0.000358 -0.002741
0.00068 0.000383 -0.002696
0.00064 0.000412 -0.002643
0.000361 0.000567 -0.002375
0.000337 0.000568 -0.002381
0.000314 0.000567 -0.00239
0.000292 0.000564 -0.002402
0.000272 0.000558 -0.002421
0.000253 0.000548 -0.002448
0.00024 0.00053 -0.002491
0.000229 0.000507 -0.002546
0.000218 0.000485 -0.002598
0.000206 0.000465 -0.002646
0.000193 0.000446 -0.002691
0.000178 0.000431 -0.00273
0.000163 0.000416 -0.002767
0.000146 0.000403 -0.002801
0.00013 0.00039 -0.002833
0.001261 0.000543 -0.002118
0.001233 0.000551 -0.002108
0.001206 0.000556 -0.002105
0.001181 0.000559 -0.002106
0.001157 0.000559 -0.002111
0.001134 0.000558 -0.00212
0.001807 0.000642 -0.002386
0.001767 0.000586 -0.002415
0.001874 0.000546 -0.002312
0.002105 0.000533 -0.001682
0.001727 0.000745 -0.001695
0.001055 0.000663 -0.002389
0.001059 0.000695 -0.002442
0.0014 0.000718 -0.002243
0.001028 0.000284 -0.002759
0.001015 0.000266 -0.002803
0.000995 0.000261 -0.002821
0.000972 0.000259 -0.002831
0.000949 0.000258 -0.002839
0.000926 0.000258 -0.002846
0.000902 0.000257 -0.002854
0.000878 0.000258 -0.002859
0.000851 0.000265 -0.002852
0.000819 0.000279 -0.00283
0.000786 0.000295 -0.002803
0.000752 0.000313 -0.002772
0.000717 0.000332 -0.00274
0.00068 0.000356 -0.002697
0.00064 0.000385 -0.002644
0.000361 0.00054 -0.002375
0.000337 0.000541 -0.002381
0.000314 0.000539 -0.00239
0.000292 0.000536 -0.002403
0.000271 0.000531 -0.00242
0.000253 0.000521 -0.002448
0.000239 0.000504 -0.002489
0.00023 0.000479 -0.002547
