-0.001839 0.000728 0.001929
-0.000531 -3.1e-05 0.00202
-0.001524 0.000688 0.002581
-0.001753 0.000685 0.001886
-0.001474 0.000722 0.002594
-0.000885 3e-05 0.002265
-0.000861 3e-05 0.002271
-0.000838 2.9e-05 0.002281
-0.000816 2.6e-05 0.002294
-0.000796 2.1e-05 0.002312
-0.000759 3e-06 0.002363
-0.000737 -0.0 0.002376
-0.000689 1e-06 0.002386
-0.000665 2e-06 0.002391
-0.000641 3e-06 0.002398
-0.000522 4e-06 0.00243
-0.000499 4e-06 0.002437
-0.000555 -3.2e-05 0.002014
-0.000334 2e-06 0.002489
-0.00031 2e-06 0.002495
-0.000287 2e-06 0.002503
-0.000264 2e-06 0.002511
-0.00024 2e-06 0.002517
-0.000215 4e-06 0.00252
-0.001311 1e-06 0.002143
-0.001288 1e-06 0.00215
-0.001265 -0.0 0.00216
-0.001241 1e-06 0.002165
-0.001192 3e-06 0.002175
-0.001168 3e-06 0.002181
-0.001468 0.000465 0.00263
-0.001416 0.000501 0.002638
-0.001074 3e-06 0.002209
-0.001049 4e-06 0.002214
-0.000578 -3.2e-05 0.002007
-0.000602 -3.2e-05 0.002
-0.00088 1.5e-05 0.002253
-0.000859 6e-06 0.002265
-0.000836 5e-06 0.002273
-0.000812 6e-06 0.002279
-0.000788 7e-06 0.002285
-0.000626 -3.2e-05 0.001993
0.001192 -5e-06 0.001809
-0.000649 -3.2e-05 0.001985
-0.000505 6e-06 0.00237
-0.000482 6e-06 0.002379
-0.000673 -3.1e-05 0.001978
-0.000409 7e-06 0.002394
-0.000385 7e-06 0.002401
-0.000316 5e-06 0.002428
-0.000293 4e-06 0.002435
-0.000269 4e-06 0.002443
-0.000223 3e-06 0.002459
-0.0002 1e-06 0.00247
-0.000172 9e-06 0.002461
-8.6e-05 3.4e-05 0.002429
-0.001294 3e-06 0.002083
-0.001269 4e-06 0.002088
-0.001222 4e-06 0.002101
-0.001197 6e-06 0.002105
-0.001174 6e-06 0.002112
-0.00115 6e-06 0.002119
-0.001127 6e-06 0.002127
-0.001449 0.000726 0.002601
-0.001553 0.000463 0.00258
-0.001055 6e-06 0.002146
-0.001032 6e-06 0.002153
-0.001008 6e-06 0.002162
-0.000985 6e-06 0.002168
-0.000961 6e-06 0.002175
-0.000938 5e-06 0.002183
-0.000913 6e-06 0.002188
-0.000841 0.000757 0.002288
-0.001574 0.000698 0.002521
-0.000843 5e-06 0.002211
-0.00082 5e-06 0.002218
-0.000796 5e-06 0.002226
-0.000773 4e-06 0.002233
-0.001558 0.000603 0.002221
-0.000725 5e-06 0.002246
-0.001375 0.000574 0.002618
0.001169 -6e-06 0.001819
0.001147 -7e-06 0.001829
-0.000696 -3.1e-05 0.001971
-0.000393 5e-06 0.00234
-0.00037 6e-06 0.002348
-0.000346 6e-06 0.002354
-0.000251 6e-06 0.002381
-0.00072 -3.1e-05 0.001963
-8.5e-05 9e-06 0.002425
-6e-05 1.1e-05 0.002429
-0.00158 0.000566 0.002439
-0.001579 0.000585 0.002392
-0.001206 4e-06 0.002046
-0.001182 5e-06 0.002052
-0.001158 4e-06 0.00206
-0.001135 4e-06 0.002066
-0.001112 3e-06 0.002075
-0.001088 3e-06 0.002084
-0.001574 0.00058 0.002339
-0.001042 2e-06 0.0021
-0.001018 1e-06 0.002107
-0.000995 1e-06 0.002115
-0.000971 1e-06 0.002123
-0.000948 0.0 0.002131
-0.000925 -0.0 0.002138
-0.000901 -0.0 0.002146
-0.001482 0.000689 0.002606
-0.001375 0.000655 0.002619
-0.00231 0.000465 0.001928
-0.000759 -0.0 0.002187
-0.000736 -1e-06 0.002195
-0.000713 -1e-06 0.002203
-0.001416 0.000556 0.00264
-0.000594 -0.0 0.002236
-0.00057 -0.0 0.002243
-0.000743 -3e-05 0.001955
-0.000766 -3e-05 0.001947
-0.000359 0.0 0.002304
-0.000117 6e-06 0.002361
-0.001615 0.000732 0.001854
-0.001638 0.000731 0.001843
-0.00158 0.000711 0.002485
-0.001192 0.0 0.002
-0.001169 -1e-06 0.002009
-0.001145 -1e-06 0.002015
-0.001121 -1e-06 0.002021
-0.001569 0.000631 0.002559
-0.00196 0.000595 0.001982
-0.001581 0.00052 0.002487
-0.001569 0.000602 0.002284
-0.001003 -0.0 0.002055
-0.00098 -2e-06 0.002065
-0.000956 -1e-06 0.00207
-0.000932 -0.0 0.002075
-0.001416 0.000529 0.002639
-0.001468 0.00052 0.00263
-0.001999 0.000689 0.001996
-0.001566 0.00066 0.002555
-0.001561 0.000736 0.002227
-0.001511 0.000464 0.002605
-0.000742 2e-06 0.002127
-0.000718 2e-06 0.002133
-0.000695 1e-06 0.002142
-0.001553 0.00049 0.00258
-0.001663 0.000727 0.001837
-0.0006 1e-06 0.002169
-0.000577 1e-06 0.002177
-0.000553 1e-06 0.002184
-0.00079 -2.9e-05 0.001939
-0.000247 -0.0 0.002277
-0.000129 -1e-06 0.002313
-0.000106 -2e-06 0.002321
-8.1e-05 1e-06 0.002326
-0.001248 -2e-06 0.001926
-0.001223 -1e-06 0.001931
-0.001199 0.0 0.001935
-0.001175 1e-06 0.001941
-0.001152 -0.0 0.00195
-0.001128 1e-06 0.001955
-0.001104 1e-06 0.001962
-0.00108 1e-06 0.001968
-0.002155 0.000687 0.001204
-0.001009 2e-06 0.001986
-0.000986 1e-06 0.001995
-0.000961 2e-06 0.002
-0.000938 1e-06 0.002009
-0.00158 0.000729 0.002439
-0.001581 0.000575 0.002486
-0.001881 0.000737 0.001948
-0.001548 0.000657 0.002573
-0.001578 0.000668 0.002527
-0.00196 0.000732 0.001982
-0.001838 0.000701 0.001928
-0.000727 -0.0 0.002075
-0.000703 -0.0 0.002082
-0.000679 0.0 0.002088
-0.000655 -0.0 0.002095
-0.000632 -0.0 0.002103
-0.000608 -0.0 0.002109
-0.000584 -0.0 0.002115
-0.000561 -0.0 0.002123
-0.000537 -0.0 0.00213
-0.000299 2e-06 0.002194
-0.000277 1e-06 0.002204
-0.000253 2e-06 0.002209
-0.000228 3e-06 0.002214
-0.000111 2e-06 0.00225
-8.7e-05 1e-06 0.002259
-6.4e-05 1e-06 0.002267
-4.1e-05 0.0 0.002275
-0.002274 0.000554 0.001766
-0.001205 2e-06 0.001869
-0.001182 1e-06 0.001877
-0.001159 1e-06 0.001885
-0.001135 0.0 0.001892
-0.001112 0.0 0.0019
-0.001089 -1e-06 0.001908
-0.001065 -1e-06 0.001917
-0.001585 0.000689 0.00185
-0.001018 -2e-06 0.001932
-0.000995 -3e-06 0.001941
-0.000972 -3e-06 0.001949
-0.000949 -4e-06 0.001956
-0.000926 -5e-06 0.001965
-0.001553 0.000545 0.00258
-0.001571 0.000547 0.002562
-0.001575 0.000634 0.002339
-0.00196 0.000705 0.001981
-0.001581 0.000701 0.002441
-0.000785 -7e-06 0.002012
-0.000762 -8e-06 0.00202
-0.000739 -8e-06 0.002028
-0.000715 -8e-06 0.002035
-0.000691 -8e-06 0.002043
-0.000668 -8e-06 0.002049
-0.000644 -9e-06 0.002057
-0.000621 -9e-06 0.002065
-0.000597 -9e-06 0.002071
-0.000573 -9e-06 0.002078
-0.00055 -9e-06 0.002084
-0.000526 -8e-06 0.002091
-0.000502 -8e-06 0.002097
-0.000478 -8e-06 0.002103
-0.000455 -8e-06 0.00211
-0.000287 -4e-06 0.002152
-0.000263 -4e-06 0.002158
-0.000239 -3e-06 0.002163
-0.000215 -3e-06 0.00217
-9.5e-05 -0.0 0.002198
-7.1e-05 1e-06 0.002203
-4.7e-05 2e-06 0.002209
-2.3e-05 2e-06 0.002215
0.0 2e-06 0.002222
-0.001519 0.000751 0.002081
-0.001192 -3e-06 0.001823
-0.001169 -4e-06 0.001832
-0.001146 -5e-06 0.001841
-0.001123 -6e-06 0.00185
-0.0011 -7e-06 0.00186
-0.001504 0.000688 0.002594
-0.001372 0.000712 0.002617
-0.001568 0.00063 0.002284
-0.001008 -1.1e-05 0.001895
-0.000985 -1.2e-05 0.001904
-0.000962 -1.3e-05 0.001913
-0.000938 -1.4e-05 0.001921
-0.000915 -1.4e-05 0.00193
-0.001434 0.000694 0.002622
-0.000869 -1.6e-05 0.001946
-0.000845 -1.6e-05 0.001954
-0.000822 -1.7e-05 0.001963
-0.000799 -1.7e-05 0.001971
-0.000775 -1.8e-05 0.001978
-0.000752 -1.8e-05 0.001986
-0.000728 -1.8e-05 0.001994
-0.000705 -1.9e-05 0.002001
-0.000681 -1.9e-05 0.002008
-0.000658 -1.9e-05 0.002015
-0.000634 -1.9e-05 0.002023
-0.000611 -1.9e-05 0.00203
-0.000587 -1.9e-05 0.002037
-0.000563 -1.9e-05 0.002043
-0.00054 -1.9e-05 0.00205
-0.000516 -1.9e-05 0.002057
-0.000492 -1.9e-05 0.002064
-0.000468 -1.8e-05 0.00207
-0.000445 -1.8e-05 0.002076
-0.000421 -1.8e-05 0.002083
-0.000397 -1.8e-05 0.002088
-0.000373 -1.7e-05 0.002094
-0.000349 -1.6e-05 0.0021
-0.000301 -1.5e-05 0.002111
-0.000277 -1.5e-05 0.002117
-0.000253 -1.4e-05 0.002122
-0.000229 -1.3e-05 0.002128
-0.000205 -1.2e-05 0.002133
-0.000108 -8e-06 0.002153
-8.3e-05 -7e-06 0.002157
-5.9e-05 -6e-06 0.002162
-3.5e-05 -5e-06 0.002167
-1.1e-05 -4e-06 0.002172
-0.001581 0.000547 0.002487
-0.001794 0.000722 0.001905
-0.001532 0.000545 0.002593
-0.002274 0.0005 0.001766
-0.001511 0.000546 0.002606
-0.001468 0.000547 0.00263
-0.00158 0.000593 0.002439
-0.001579 0.000612 0.002392
-0.000799 0.000757 0.002314
-0.002033 0.000541 0.002005
-0.002079 0.000464 0.00202
-0.001509 0.000734 0.001917
-0.001575 0.000552 0.00234
-0.001496 0.000727 0.001943
-0.001839 0.000647 0.001929
-0.000859 -2.8e-05 0.001915
-0.000836 -2.8e-05 0.001923
-0.000813 -2.9e-05 0.001932
-0.001797 0.000638 0.001909
-0.001753 0.000658 0.001886
-0.001706 0.00068 0.001859
-0.001667 0.000697 0.001843
-0.001634 0.000707 0.001838
-0.001608 0.000712 0.001842
-0.001586 0.000713 0.001855
-0.002129 0.000693 0.001214
-0.002553 0.000599 0.001243
-0.002279 0.0006 0.001966
-0.001509 0.000707 0.001917
-0.002311 0.000665 0.001896
-0.001491 0.000749 0.00203
-0.001557 0.000576 0.00222
-0.001567 0.000549 0.002282
-0.001575 0.000525 0.002339
-0.001578 0.000504 0.002391
-0.00158 0.000484 0.00244
-0.001581 0.000465 0.002487
-0.00158 0.000449 0.002531
-0.001571 0.000438 0.002563
-0.001553 0.000436 0.00258
-0.001532 0.000436 0.002593
-0.001511 0.000437 0.002606
-0.001489 0.000437 0.002618
-0.001468 0.000438 0.00263
-0.001445 0.00044 0.00264
-0.000861 0.00073 0.002275
-0.000838 0.000732 0.002284
-0.000817 0.000733 0.002296
-0.000797 0.000732 0.002311
-0.00078 0.000729 0.00233
-0.002295 0.00041 0.001948
-0.002033 0.000514 0.002007
-0.001998 0.000526 0.001996
-0.00196 0.000541 0.001982
-0.001921 0.000557 0.001966
-0.00188 0.000575 0.001948
-0.001839 0.000593 0.001929
-0.001797 0.000611 0.001909
-0.001754 0.00063 0.001887
-0.001707 0.000652 0.001861
-0.001667 0.000669 0.001843
-0.001635 0.000679 0.001839
-0.001608 0.000685 0.001842
-0.002126 0.000635 0.002028
-0.002294 0.000601 0.001947
-0.002169 0.000672 0.002034
-0.002223 0.000659 0.002015
-0.002242 0.000657 0.001999
-0.002308 0.000595 0.001861
-0.002318 0.000416 0.001902
-0.001557 0.000549 0.00222
-0.001568 0.000521 0.002284
-0.001574 0.000499 0.002338
-0.001579 0.000476 0.002393
-0.00158 0.000458 0.002439
-0.001581 0.000438 0.002487
-0.00158 0.000421 0.002531
-0.001571 0.000411 0.002564
-0.001553 0.000409 0.00258
-0.001532 0.000409 0.002593
-0.001511 0.00041 0.002606
-0.001489 0.00041 0.002618
-0.001468 0.000411 0.00263
-0.001445 0.000412 0.00264
-0.000861 0.000703 0.002275
-0.000838 0.000705 0.002285
-0.000817 0.000706 0.002296
-0.000797 0.000705 0.002312
-0.000781 0.000702 0.002331
-0.00149 0.000722 0.002029
-0.002033 0.000487 0.002007
-0.001998 0.000499 0.001996
-0.00196 0.000514 0.001981
-0.00192 0.00053 0.001965
-0.001879 0.000548 0.001947
-0.001839 0.000565 0.001929
-0.001796 0.000584 0.001909
-0.001754 0.000603 0.001888
-0.001707 0.000625 0.00186
-0.001667 0.000642 0.001843
-0.001635 0.000652 0.001839
-0.001608 0.000658 0.001842
-0.001584 0.00066 0.001851
-0.001563 0.000661 0.001863
-0.002275 0.000663 0.001766
-0.002201 0.000663 0.002028
-0.002253 0.000686 0.001715
-0.002121 0.000649 0.001504
-0.002328 0.000674 0.001224
-0.001568 0.000494 0.002284
-0.001574 0.000471 0.002339
-0.001579 0.000449 0.002392
-0.00158 0.00043 0.002439
-0.001582 0.000411 0.002488
-0.00158 0.000394 0.002531
-0.001571 0.000384 0.002564
-0.001553 0.000382 0.00258
-0.001532 0.000382 0.002594
-0.001511 0.000382 0.002606
-0.00149 0.000383 0.002619
-0.001468 0.000383 0.00263
-0.001445 0.000385 0.00264
-0.000861 0.000675 0.002275
-0.000838 0.000678 0.002285
-0.000817 0.000679 0.002296
-0.000797 0.000678 0.002312
-0.002271 0.000724 0.001926
-0.002033 0.000459 0.002006
-0.001998 0.000472 0.001996
-0.00196 0.000487 0.001982
-0.00192 0.000504 0.001964
-0.001879 0.000521 0.001946
-0.001838 0.000539 0.001928
-0.001796 0.000557 0.001909
-0.001753 0.000577 0.001886
-0.001707 0.000598 0.00186
-0.001666 0.000616 0.001842
-0.001634 0.000625 0.001838
-0.001608 0.000631 0.001842
-0.001584 0.000633 0.00185
-0.001563 0.000633 0.001863
-0.002274 0.000717 0.001766
-0.002171 0.000644 0.002035
-0.002252 0.000659 0.001714
-0.002372 0.000711 0.001229
-0.00213 0.000747 0.001214
-0.001574 0.000444 0.002339
-0.001579 0.000422 0.002392
-0.001581 0.000402 0.002441
-0.001582 0.000383 0.002488
-0.00158 0.000367 0.002531
-0.001571 0.000356 0.002564
-0.001553 0.000354 0.002581
-0.001532 0.000355 0.002594
-0.001511 0.000355 0.002606
-0.001489 0.000356 0.002618
-0.001468 0.000356 0.002631
-0.001445 0.000358 0.00264
-0.001417 0.000365 0.002638
-0.000861 0.000648 0.002275
-0.000838 0.00065 0.002285
-0.000816 0.000652 0.002296
-0.002283 0.000726 0.001904
-0.002033 0.000432 0.002006
-0.001998 0.000444 0.001996
-0.00196 0.00046 0.001981
-0.00192 0.000476 0.001965
-0.001879 0.000494 0.001947
-0.001838 0.000512 0.001928
-0.001797 0.000529 0.001909
-0.001753 0.00055 0.001886
-0.001707 0.000571 0.001861
-0.001666 0.000589 0.001841
-0.001634 0.000598 0.001838
-0.001608 0.000603 0.001842
-0.001584 0.000606 0.00185
-0.001563 0.000606 0.001863
-0.001543 0.000605 0.001878
-0.002205 0.000633 0.002032
-0.002279 0.000573 0.001966
-0.002079 0.0006 0.00202
-0.002408 0.000644 0.001237
-0.001573 0.000417 0.002338
-0.001579 0.000394 0.002393
-0.001581 0.000375 0.002441
-0.001582 0.000356 0.002488
-0.00158 0.00034 0.002531
-0.001571 0.000329 0.002564
-0.001553 0.000327 0.00258
-0.001532 0.000328 0.002593
-0.001511 0.000328 0.002606
-0.001489 0.000329 0.002618
-0.001468 0.000329 0.00263
-0.001445 0.000331 0.00264
-0.001417 0.000338 0.002639
-0.002223 0.000723 0.001983
-0.002033 0.000405 0.002005
-0.001998 0.000417 0.001996
-0.001959 0.000433 0.001981
-0.00192 0.000449 0.001965
-0.001879 0.000466 0.001947
-0.001838 0.000485 0.001928
-0.001796 0.000503 0.001908
-0.001753 0.000522 0.001886
-0.001707 0.000544 0.001861
-0.001666 0.000562 0.001841
-0.001634 0.000571 0.001838
-0.001608 0.000576 0.001842
-0.001584 0.000579 0.00185
-0.001562 0.000579 0.001863
-0.001543 0.000578 0.001878
-0.002127 0.000661 0.002029
-0.002409 0.000726 0.001229
-0.002308 0.000541 0.00186
-0.002295 0.000437 0.001948
-0.001574 0.00039 0.002338
-0.001578 0.000368 0.002391
-0.001581 0.000347 0.002442
-0.001581 0.00033 0.002487
-0.00158 0.000313 0.002531
-0.001571 0.000302 0.002564
-0.001553 0.0003 0.002581
-0.001532 0.0003 0.002594
-0.001511 0.000301 0.002606
-0.001489 0.000301 0.002618
-0.001468 0.000302 0.00263
-0.001445 0.000304 0.00264
-0.001416 0.000311 0.002639
-0.001374 0.00033 0.002617
-0.002192 0.000701 0.001203
-0.002033 0.000378 0.002005
-0.001998 0.00039 0.001996
-0.00196 0.000406 0.001982
-0.00192 0.000422 0.001965
-0.001879 0.000439 0.001947
-0.001838 0.000457 0.001928
-0.001796 0.000475 0.001908
-0.001752 0.000495 0.001885
-0.001707 0.000517 0.00186
-0.001666 0.000535 0.001841
-0.001634 0.000544 0.001838
-0.001608 0.000549 0.001842
-0.001584 0.000552 0.00185
-0.001562 0.000552 0.001863
-0.001543 0.000551 0.001878
-0.00226 0.000656 0.001982
-0.002171 0.00059 0.002035
-0.002292 0.000588 0.001814
-0.002078 0.000573 0.00202
-0.002279 0.000437 0.001966
-0.001568 0.000386 0.002284
-0.001574 0.000362 0.002339
-0.001579 0.00034 0.002392
-0.001581 0.00032 0.002442
-0.001581 0.000302 0.002487
-0.00158 0.000286 0.002531
-0.001571 0.000275 0.002564
-0.001553 0.000273 0.00258
-0.001532 0.000273 0.002593
-0.001511 0.000274 0.002606
-0.001489 0.000274 0.002618
-0.001468 0.000275 0.00263
-0.001445 0.000277 0.00264
-0.001416 0.000284 0.002639
-0.001373 0.000303 0.002617
-0.002157 0.000712 0.001205
-0.002033 0.000351 0.002005
-0.001998 0.000363 0.001996
-0.00196 0.000378 0.001981
-0.00192 0.000395 0.001965
-0.001879 0.000413 0.001946
-0.001838 0.00043 0.001929
-0.001797 0.000448 0.00191
-0.001752 0.000468 0.001886
-0.001706 0.00049 0.001859
-0.001665 0.000508 0.001841
-0.001634 0.000517 0.001838
-0.001608 0.000522 0.001842
-0.001584 0.000525 0.00185
-0.001562 0.000525 0.001863
-0.001543 0.000524 0.001878
-0.00229 0.000658 0.001943
-0.002317 0.000579 0.001901
-0.00217 0.000563 0.002035
-0.001538 0.000717 0.002169
-0.00223 0.000437 0.002021
-0.00156 0.000383 0.002226
-0.001568 0.000358 0.002284
-0.001575 0.000335 0.00234
-0.001579 0.000313 0.002393
-0.001581 0.000294 0.002441
-0.001582 0.000275 0.002488
-0.00158 0.000258 0.002531
-0.001571 0.000248 0.002563
-0.001553 0.000246 0.00258
-0.001532 0.000246 0.002593
-0.00151 0.000247 0.002606
-0.001489 0.000247 0.002618
-0.001468 0.000248 0.00263
-0.001445 0.00025 0.00264
-0.001416 0.000257 0.002639
-0.001374 0.000275 0.002618
-0.002247 0.000437 0.002003
-0.002033 0.000324 0.002005
-0.001998 0.000336 0.001995
-0.001959 0.000352 0.001981
-0.00192 0.000368 0.001965
-0.001879 0.000385 0.001947
-0.001838 0.000403 0.001928
-0.001796 0.000421 0.001908
-0.001752 0.000441 0.001885
-0.001706 0.000463 0.001859
-0.001665 0.000481 0.001841
-0.001634 0.000489 0.001838
-0.001608 0.000495 0.001842
-0.001584 0.000497 0.00185
-0.001562 0.000498 0.001863
-0.001543 0.000496 0.001878
-0.002227 0.00063 0.002018
-0.002126 0.000608 0.002028
-0.002207 0.000523 0.002034
-0.002171 0.000508 0.002035
-0.001568 0.000332 0.002283
-0.001574 0.000308 0.002339
-0.00158 0.000285 0.002394
-0.001581 0.000266 0.002441
-0.001582 0.000248 0.002488
-0.00158 0.000231 0.002532
-0.001571 0.000221 0.002563
-0.001553 0.000219 0.00258
-0.001532 0.000219 0.002593
-0.00151 0.000219 0.002606
-0.001489 0.00022 0.002618
-0.001467 0.000221 0.00263
-0.001444 0.000223 0.00264
-0.001415 0.00023 0.002639
-0.001375 0.000248 0.002619
-0.002203 0.000726 0.001998
-0.002033 0.000297 0.002005
-0.001998 0.000309 0.001995
-0.00196 0.000324 0.001982
-0.00192 0.000341 0.001965
-0.001879 0.000358 0.001946
-0.001838 0.000376 0.001928
-0.001796 0.000394 0.001908
-0.001706 0.000436 0.001859
-0.001665 0.000453 0.001841
-0.001634 0.000462 0.001838
-0.001607 0.000468 0.001842
-0.001584 0.00047 0.00185
-0.001562 0.000471 0.001863
-0.001543 0.000469 0.001878
-0.00208 0.000681 0.002021
-0.002079 0.000627 0.00202
-0.002274 0.000582 0.001766
-0.002129 0.00072 0.001213
-0.001568 0.000304 0.002284
-0.001575 0.00028 0.00234
-0.00158 0.000258 0.002394
-0.001581 0.000239 0.002441
-0.001582 0.00022 0.002488
-0.00158 0.000204 0.002532
-0.00157 0.000194 0.002562
-0.001552 0.000192 0.002579
-0.001532 0.000192 0.002593
-0.001511 0.000192 0.002606
-0.001489 0.000193 0.002618
-0.001467 0.000194 0.00263
-0.001444 0.000196 0.002639
-0.001415 0.000203 0.002638
-0.001375 0.000221 0.002619
-0.002246 0.000464 0.002003
-0.002033 0.000269 0.002005
-0.001998 0.000282 0.001995
-0.001959 0.000297 0.001981
-0.00192 0.000313 0.001965
-0.001879 0.000331 0.001946
-0.001838 0.000348 0.001929
-0.001796 0.000367 0.001908
-0.001752 0.000387 0.001885
-0.001706 0.000409 0.001859
-0.001665 0.000426 0.001841
-0.001634 0.000435 0.001838
-0.001607 0.00044 0.001842
-0.001584 0.000443 0.00185
-0.001562 0.000443 0.001863
-0.001543 0.000442 0.001878
-0.002275 0.00069 0.001766
-0.002372 0.000738 0.00123
-0.00217 0.000536 0.002035
-0.001543 0.000722 0.001879
-0.001575 0.000253 0.002341
-0.001579 0.000231 0.002393
-0.001581 0.000212 0.002441
-0.001581 0.000194 0.002488
-0.00158 0.000177 0.002531
-0.001569 0.000168 0.002561
-0.001551 0.000166 0.002578
-0.001531 0.000165 0.002593
-0.00151 0.000165 0.002606
-0.001489 0.000166 0.002618
-0.001467 0.000167 0.002629
-0.001443 0.000169 0.002638
-0.001414 0.000177 0.002638
-0.001374 0.000194 0.002618
-0.002318 0.000443 0.001902
-0.002033 0.000242 0.002007
-0.001998 0.000255 0.001996
-0.00196 0.00027 0.001982
-0.001919 0.000287 0.001964
-0.001879 0.000304 0.001946
-0.001838 0.000321 0.001928
-0.001796 0.00034 0.001908
-0.001752 0.00036 0.001885
-0.001706 0.000382 0.001858
-0.001665 0.000399 0.00184
-0.001634 0.000408 0.001838
-0.001607 0.000413 0.001842
-0.001584 0.000416 0.001851
-0.001562 0.000416 0.001863
-0.001543 0.000415 0.001878
-0.002293 0.000669 0.001814
-0.002251 0.000632 0.001715
-0.002229 0.000519 0.002021
-0.002317 0.00047 0.001902
-0.001579 0.000204 0.002392
-0.001581 0.000185 0.002441
-0.001582 0.000166 0.002489
-0.00158 0.00015 0.002531
-0.001568 0.000142 0.002558
-0.00155 0.00014 0.002576
-0.00153 0.000139 0.00259
-0.001509 0.000139 0.002604
-0.001488 0.00014 0.002616
-0.001465 0.000141 0.002627
-0.001442 0.000144 0.002635
-0.001414 0.00015 0.002637
-0.001375 0.000166 0.002619
-0.000838 0.000433 0.002284
-0.000816 0.000435 0.002296
-0.002263 0.000491 0.001985
-0.002032 0.000215 0.002007
-0.001998 0.000227 0.001996
-0.001959 0.000243 0.001981
-0.001919 0.00026 0.001963
-0.001879 0.000277 0.001947
-0.001838 0.000294 0.001928
-0.001796 0.000313 0.001908
-0.001751 0.000333 0.001884
-0.001706 0.000355 0.001858
-0.001665 0.000372 0.00184
-0.001634 0.000381 0.001838
-0.001607 0.000386 0.001842
-0.001584 0.000389 0.00185
-0.001562 0.000389 0.001863
-0.001543 0.000388 0.001878
-0.002262 0.000628 0.001984
-0.002229 0.000547 0.002021
-0.002246 0.000519 0.002003
-0.002309 0.000431 0.001862
-0.001574 0.000199 0.00234
-0.001579 0.000177 0.002392
-0.001581 0.000157 0.002441
-0.001582 0.000139 0.002489
-0.001578 0.000124 0.002529
-0.001565 0.000117 0.002555
-0.001547 0.000115 0.002572
-0.001527 0.000114 0.002586
-0.001507 0.000114 0.0026
-0.001485 0.000115 0.002612
-0.001462 0.000116 0.002622
-0.001439 0.000119 0.002631
-0.001412 0.000124 0.002634
-0.001374 0.00014 0.002618
-0.000838 0.000406 0.002284
-0.000816 0.000407 0.002296
-0.000797 0.000406 0.002311
-0.00078 0.000403 0.00233
-0.000768 0.000397 0.002354
-0.002051 0.000718 0.001309
-0.002033 0.000188 0.002006
-0.001998 0.0002 0.001996
-0.001959 0.000216 0.001981
-0.001919 0.000232 0.001964
-0.001879 0.000249 0.001947
-0.001839 0.000266 0.001929
-0.001795 0.000286 0.001907
-0.001751 0.000306 0.001884
-0.001706 0.000327 0.001859
-0.001665 0.000345 0.00184
-0.001634 0.000354 0.001838
-0.001607 0.000359 0.001842
-0.001584 0.000361 0.00185
-0.001562 0.000362 0.001863
-0.001543 0.00036 0.001878
-0.002223 0.000713 0.00166
-0.002207 0.00055 0.002034
-0.002318 0.000525 0.001902
-0.002062 0.000721 0.001286
-0.002279 0.000464 0.001966
-0.001559 0.000221 0.002224
-0.001568 0.000195 0.002284
-0.001575 0.000171 0.002341
-0.001579 0.00015 0.002392
-0.001581 0.00013 0.002442
-0.001581 0.000112 0.002488
-0.001577 9.8e-05 0.002526
-0.001561 9.3e-05 0.002548
-0.001543 9.1e-05 0.002565
-0.001523 9.1e-05 0.00258
-0.001503 9e-05 0.002594
-0.001481 9.1e-05 0.002605
-0.001458 9.3e-05 0.002616
-0.001435 9.5e-05 0.002625
-0.001409 0.0001 0.00263
-0.001374 0.000113 0.002618
-0.000838 0.000379 0.002284
-0.000816 0.00038 0.002296
-0.000797 0.000379 0.002311
-0.000779 0.000376 0.002329
-0.000764 0.00037 0.002352
-0.002076 0.00075 0.001265
-0.002033 0.00016 0.002006
-0.001998 0.000173 0.001996
-0.001958 0.000189 0.00198
-0.001919 0.000205 0.001964
-0.001878 0.000222 0.001946
-0.001839 0.000239 0.001929
-0.001795 0.000259 0.001907
-0.001752 0.000278 0.001885
-0.001706 0.0003 0.001858
-0.001665 0.000318 0.00184
-0.001634 0.000327 0.001838
-0.001607 0.000332 0.001842
-0.001584 0.000334 0.001851
-0.001562 0.000335 0.001863
-0.001543 0.000333 0.001878
-0.002308 0.000649 0.00186
-0.002308 0.000568 0.001861
-0.002295 0.000519 0.001947
-0.00231 0.000438 0.001928
-0.00156 0.000193 0.002225
-0.001568 0.000168 0.002284
-0.00158 0.000122 0.002394
-0.001581 0.000103 0.002442
-0.001581 8.5e-05 0.002487
-0.001572 7.4e-05 0.00252
-0.001556 7.1e-05 0.00254
-0.001537 6.9e-05 0.002556
-0.001517 6.8e-05 0.00257
-0.001496 6.8e-05 0.002584
-0.001475 6.9e-05 0.002596
-0.001452 7.1e-05 0.002607
-0.001429 7.3e-05 0.002616
-0.001404 7.7e-05 0.002622
-0.001373 8.6e-05 0.002616
-0.000838 0.000352 0.002284
-0.000816 0.000353 0.002296
-0.000797 0.000352 0.002312
-0.000781 0.000349 0.002331
-0.001508 0.000728 0.002077
-0.002033 0.000133 0.002005
-0.001998 0.000146 0.001996
-0.001959 0.000162 0.00198
-0.00192 0.000178 0.001965
-0.001878 0.000195 0.001946
-0.001838 0.000213 0.001928
-0.001795 0.000232 0.001907
-0.001751 0.000252 0.001884
-0.001705 0.000274 0.001858
-0.001665 0.00029 0.00184
-0.001634 0.000299 0.001838
-0.001607 0.000305 0.001842
-0.001584 0.000307 0.001851
-0.001562 0.000307 0.001863
-0.001543 0.000306 0.001878
-0.002315 0.000635 0.001899
-0.002317 0.000552 0.001901
-0.002263 0.000519 0.001985
-0.002308 0.000459 0.001861
-0.00156 0.000166 0.002226
-0.001569 0.00014 0.002285
-0.001574 0.000118 0.002339
-0.00158 9.5e-05 0.002394
-0.00158 7.7e-05 0.00244
-0.001578 6e-05 0.002483
-0.001566 5.3e-05 0.00251
-0.001549 5e-05 0.002528
-0.001529 4.9e-05 0.002544
-0.001509 4.8e-05 0.002558
-0.001489 4.8e-05 0.002572
-0.001467 4.9e-05 0.002584
-0.001445 5e-05 0.002595
-0.001422 5.2e-05 0.002605
-0.001398 5.5e-05 0.002612
-0.000838 0.000325 0.002284
-0.000816 0.000326 0.002296
-0.000797 0.000325 0.002312
-0.002066 9.6e-05 0.002014
-0.002033 0.000106 0.002005
-0.001998 0.000118 0.001996
-0.001959 0.000134 0.001981
-0.00192 0.00015 0.001965
-0.001879 0.000167 0.001948
-0.001839 0.000185 0.001929
-0.001795 0.000205 0.001907
-0.001751 0.000225 0.001883
-0.001705 0.000246 0.001858
-0.001665 0.000263 0.00184
-0.001634 0.000272 0.001837
-0.001607 0.000277 0.001842
-0.001584 0.00028 0.001851
-0.001562 0.00028 0.001863
-0.001543 0.000279 0.001878
-0.002293 0.000628 0.001946
-0.00231 0.000547 0.001927
-0.002279 0.000519 0.001966
-0.002078 0.000546 0.002019
-0.001561 0.000138 0.002227
-0.001569 0.000113 0.002285
-0.001574 9.1e-05 0.002339
-0.001579 6.8e-05 0.002393
-0.001577 5.2e-05 0.002435
-0.001571 3.9e-05 0.002472
-0.001557 3.4e-05 0.002495
-0.001539 3.1e-05 0.002513
-0.001519 3e-05 0.002528
-0.001499 3e-05 0.002543
-0.001479 2.9e-05 0.002556
-0.001457 3e-05 0.002568
-0.001435 3.1e-05 0.00258
-0.001413 3.3e-05 0.00259
-0.001388 3.6e-05 0.002597
-0.002066 6.9e-05 0.002011
-0.002033 7.9e-05 0.002006
-0.001997 9.2e-05 0.001995
-0.001958 0.000108 0.00198
-0.00192 0.000123 0.001966
-0.001879 0.00014 0.001947
-0.001838 0.000158 0.001928
-0.001796 0.000177 0.001908
-0.001751 0.000197 0.001884
-0.001705 0.000219 0.001858
-0.001664 0.000236 0.00184
-0.001634 0.000245 0.001838
-0.001607 0.00025 0.001841
-0.001584 0.000253 0.00185
-0.001562 0.000253 0.001863
-0.001543 0.000252 0.001878
-0.002245 0.000628 0.002002
-0.002274 0.000609 0.001766
-0.00231 0.00052 0.001928
-0.002767 0.000439 0.001179
-0.000886 -2.7e-05 0.001902
-0.001577 4.3e-05 0.002389
-0.001572 2.9e-05 0.002428
-0.001561 2.1e-05 0.002456
-0.001544 1.8e-05 0.002475
-0.001525 1.6e-05 0.002491
-0.001505 1.6e-05 0.002505
-0.001484 1.5e-05 0.002519
-0.001464 1.5e-05 0.002533
-0.001442 1.6e-05 0.002545
-0.001421 1.6e-05 0.002557
-0.001399 1.7e-05 0.002569
-0.000908 -2.8e-05 0.001891
-0.002063 4.4e-05 0.002007
-0.002033 5.2e-05 0.002005
-0.001997 6.5e-05 0.001995
-0.001959 8e-05 0.001981
-0.00192 9.6e-05 0.001966
-0.001879 0.000113 0.001948
-0.001837 0.000132 0.001927
-0.001796 0.00015 0.001908
-0.001751 0.00017 0.001884
-0.001705 0.000192 0.001857
-0.001665 0.000209 0.00184
-0.001634 0.000218 0.001837
-0.001607 0.000223 0.001841
-0.001583 0.000226 0.00185
-0.001562 0.000226 0.001862
-0.001543 0.000225 0.001878
-0.002278 0.000628 0.001965
-0.002207 0.000578 0.002034
-0.002292 0.000561 0.001813
-0.001524 0.000708 0.002124
-0.001562 8.3e-05 0.002228
-0.001568 5.9e-05 0.002284
-0.001572 3.8e-05 0.002337
-0.00157 2.2e-05 0.002378
-0.001559 1.3e-05 0.002407
-0.001542 1e-05 0.002427
-0.001521 1e-05 0.00244
-0.0015 1e-05 0.002453
-0.00148 1e-05 0.002466
-0.001459 1e-05 0.00248
-0.001439 1e-05 0.002494
-0.001417 1e-05 0.002506
-0.001397 1e-05 0.002519
-0.002371 0.000657 0.001234
-0.002028 2.7e-05 0.002
-0.001996 3.8e-05 0.001994
-0.001959 5.3e-05 0.001981
-0.00192 6.9e-05 0.001965
-0.001879 8.6e-05 0.001947
-0.001837 0.000104 0.001927
-0.001796 0.000122 0.001908
-0.001751 0.000143 0.001884
-0.001704 0.000166 0.001856
-0.001664 0.000182 0.00184
-0.001634 0.000191 0.001837
-0.001607 0.000196 0.001841
-0.001583 0.000198 0.00185
-0.001562 0.000199 0.001862
-0.001543 0.000198 0.001878
-0.00208 0.000707 0.002021
-0.002229 0.000574 0.00202
-0.002552 0.000718 0.000415
-0.002279 0.00041 0.001966
-0.001561 5.6e-05 0.002227
-0.001566 3.4e-05 0.002282
-0.001565 1.7e-05 0.002325
-0.001553 9e-06 0.002352
-0.001533 8e-06 0.002367
-0.001512 9e-06 0.002379
-0.001492 8e-06 0.002394
-0.00147 9e-06 0.002406
-0.001449 9e-06 0.002419
-0.001429 9e-06 0.002432
-0.001407 1e-05 0.002445
-0.001387 9e-06 0.002458
-0.001367 9e-06 0.002472
-0.002208 0.000441 0.002035
-0.002263 0.000573 0.001985
-0.001989 1.7e-05 0.001983
-0.001957 2.7e-05 0.001978
-0.00192 4.2e-05 0.001965
-0.001879 5.9e-05 0.001947
-0.001837 7.7e-05 0.001927
-0.001795 9.5e-05 0.001908
-0.001751 0.000116 0.001884
-0.001704 0.000139 0.001856
-0.001664 0.000155 0.00184
-0.001634 0.000163 0.001838
-0.001607 0.000169 0.001842
-0.001583 0.000171 0.00185
-0.001562 0.000172 0.001862
-0.001542 0.00017 0.001878
-0.002306 0.00063 0.001924
-0.002309 0.000574 0.001927
-0.001541 0.000742 0.002171
-0.002126 0.000553 0.002029
-0.001558 3.2e-05 0.002223
-0.001557 1.4e-05 0.002267
-0.001545 7e-06 0.002294
-0.001526 6e-06 0.002309
-0.001505 6e-06 0.002322
-0.001483 7e-06 0.002334
-0.001462 7e-06 0.002347
-0.001442 6e-06 0.002362
-0.001401 6e-06 0.002388
-0.00138 6e-06 0.002402
-0.001359 6e-06 0.002415
-0.000929 -2.9e-05 0.001879
-0.00086 0.000187 0.002274
-0.000837 0.000189 0.002284
-0.000816 0.00019 0.002296
-0.000796 0.000189 0.002311
-0.00078 0.000186 0.00233
-0.000767 0.00018 0.002354
-0.001565 0.000719 0.001865
-0.002553 0.000572 0.001243
-0.002275 0.000635 0.001766
-0.001945 1.1e-05 0.001958
-0.001915 1.8e-05 0.001958
-0.001879 3.2e-05 0.001947
-0.001838 4.9e-05 0.001929
-0.001795 6.9e-05 0.001907
-0.001752 8.8e-05 0.001885
-0.001704 0.000111 0.001856
-0.001664 0.000128 0.001839
-0.001634 0.000136 0.001838
-0.001607 0.000142 0.001842
-0.001583 0.000144 0.00185
-0.001562 0.000145 0.001862
-0.001542 0.000143 0.001878
-0.0022 0.000739 0.001602
-0.002079 0.000653 0.002021
-0.002408 0.000699 0.001228
-0.002229 0.000465 0.002021
-0.001548 1.3e-05 0.002208
-0.001534 7e-06 0.002232
-0.001513 7e-06 0.002244
-0.001492 7e-06 0.002257
-0.001471 8e-06 0.00227
-0.001451 7e-06 0.002284
-0.00143 7e-06 0.002297
-0.001409 7e-06 0.00231
-0.001388 8e-06 0.002323
-0.001368 7e-06 0.002337
-0.001347 7e-06 0.00235
-0.001326 7e-06 0.002364
-0.00095 -2.9e-05 0.001866
-0.001285 8e-06 0.002389
-0.001201 8e-06 0.002443
-0.001181 9e-06 0.002456
-0.000837 0.000162 0.002284
-0.000816 0.000163 0.002295
-0.000796 0.000162 0.002311
-0.000779 0.000159 0.002329
-0.000764 0.000153 0.002352
-0.002121 0.000703 0.001504
-0.002171 0.000617 0.002036
-0.001525 0.000724 0.001896
-0.001489 0.000716 0.001962
-0.00223 0.00041 0.002021
-0.001795 4.1e-05 0.001908
-0.00175 6.2e-05 0.001883
-0.001705 8.3e-05 0.001858
-0.001664 0.000101 0.001839
-0.001633 0.00011 0.001837
-0.001607 0.000115 0.001841
-0.001583 0.000117 0.00185
-0.001562 0.000118 0.001862
-0.001542 0.000116 0.001877
-0.002127 0.000689 0.002029
-0.002295 0.000573 0.001947
-0.002327 0.000727 0.001226
-0.002494 0.000597 0.001243
-0.002371 0.000685 0.001228
-0.001526 5e-06 0.002173
-0.001506 4e-06 0.002187
-0.001485 5e-06 0.0022
-0.001464 5e-06 0.002212
-0.001444 4e-06 0.002227
-0.001423 4e-06 0.00224
-0.001402 5e-06 0.002253
-0.001382 4e-06 0.002267
-0.00136 5e-06 0.002279
-0.00134 5e-06 0.002293
-0.001319 4e-06 0.002307
-0.001298 5e-06 0.002319
-0.001257 5e-06 0.002346
-0.001236 5e-06 0.00236
-0.001195 4e-06 0.002386
-0.001174 4e-06 0.0024
-0.001153 5e-06 0.002413
-0.00113 6e-06 0.002423
-0.000837 0.000135 0.002283
-0.000815 0.000136 0.002295
-0.000796 0.000135 0.00231
-0.000778 0.000132 0.002329
-0.000763 0.000127 0.002351
-0.002052 0.000745 0.00131
-0.002303 0.000697 0.001889
-0.001911 4e-06 0.00186
-0.00189 4e-06 0.001873
-0.001536 0.000636 0.002168
-0.001523 0.000654 0.002123
-0.001794 1.5e-05 0.001906
-0.001751 3.4e-05 0.001885
-0.001705 5.7e-05 0.001857
-0.001664 7.4e-05 0.001839
-0.001633 8.2e-05 0.001837
-0.001606 8.8e-05 0.00184
-0.001583 9e-05 0.00185
-0.001562 9.1e-05 0.001862
-0.001542 8.9e-05 0.001877
-0.002276 0.000657 0.001963
-0.002247 0.000573 0.002003
-0.002234 0.000657 0.001215
-0.00219 0.000675 0.001208
-0.002091 0.000751 0.001246
-0.001494 6e-06 0.002122
-0.001472 7e-06 0.002133
-0.00145 8e-06 0.002145
-0.00143 7e-06 0.002159
-0.00141 6e-06 0.002174
-0.001389 7e-06 0.002187
-0.001367 7e-06 0.002198
-0.001347 7e-06 0.002213
-0.001328 6e-06 0.002228
-0.001306 6e-06 0.00224
-0.001286 6e-06 0.002254
-0.001264 7e-06 0.002266
-0.001203 6e-06 0.002307
-0.001181 7e-06 0.002319
-0.00116 7e-06 0.002332
-0.00114 7e-06 0.002346
-0.00112 6e-06 0.002361
-0.000972 -3e-05 0.001854
-0.000815 0.000109 0.002295
-0.000796 0.000108 0.00231
-0.000778 0.000105 0.002328
-0.000763 9.9e-05 0.002351
-0.001918 6e-06 0.001779
-0.001898 6e-06 0.001793
-0.001876 6e-06 0.001806
-0.001856 6e-06 0.001819
-0.002284 0.000664 0.001217
-0.001508 0.000674 0.002078
-0.000993 -3e-05 0.001841
-0.001663 4.7e-05 0.001838
-0.001633 5.5e-05 0.001837
-0.001606 6.1e-05 0.00184
-0.001582 6.3e-05 0.001849
-0.001561 6.3e-05 0.001862
-0.001542 6.2e-05 0.001877
-0.002252 0.000741 0.001713
-0.002246 0.0006 0.002003
-0.00149 0.000695 0.002028
-0.002804 0.000442 0.001088
-0.002623 0.000686 0.000401
-0.001464 4e-06 0.002075
-0.001443 5e-06 0.002088
-0.001422 5e-06 0.002101
-0.001401 4e-06 0.002115
-0.001381 4e-06 0.002128
-0.00136 4e-06 0.002142
-0.001339 4e-06 0.002155
-0.001319 4e-06 0.002168
-0.001256 4e-06 0.002207
-0.001235 5e-06 0.002221
-0.001172 5e-06 0.002259
-0.001151 6e-06 0.002272
-0.00113 6e-06 0.002285
-0.001109 6e-06 0.002298
-0.000815 8.2e-05 0.002295
-0.000795 8.1e-05 0.00231
-0.000778 7.8e-05 0.002328
-0.000763 7.2e-05 0.002351
-0.001886 6e-06 0.00173
-0.001867 6e-06 0.001745
-0.001846 5e-06 0.001758
-0.001826 5e-06 0.001773
-0.002253 0.000688 0.001976
-0.002269 0.000688 0.001957
-0.002326 0.000648 0.001222
-0.00154 0.00069 0.002167
-0.002216 0.000691 0.002009
-0.001701 5e-06 0.001852
-0.001666 1.7e-05 0.001843
-0.001633 2.8e-05 0.001836
-0.001606 3.4e-05 0.00184
-0.001582 3.6e-05 0.001849
-0.001561 3.7e-05 0.001861
-0.002293 0.000614 0.001815
-0.002263 0.0006 0.001985
-0.002328 0.000701 0.001223
-0.001485 0.000708 0.001992
-0.001014 -3e-05 0.001828
-0.002795 0.000441 0.001111
-0.001484 0.000736 0.001991
-0.001436 1e-06 0.002031
-0.002284 0.000691 0.001218
-0.001035 -3.1e-05 0.001816
-0.001056 -3.1e-05 0.001803
-0.001229 1e-06 0.002166
-0.001208 1e-06 0.002178
-0.001145 2e-06 0.002217
-0.001124 2e-06 0.002229
-0.001104 2e-06 0.002244
-0.001083 1e-06 0.002257
-0.001062 2e-06 0.00227
-0.001041 2e-06 0.002283
-0.00102 2e-06 0.002296
-0.000992 8e-06 0.002298
-0.000945 3.2e-05 0.002266
-0.000911 4.3e-05 0.002262
-0.000795 5.4e-05 0.002309
-0.000777 5.1e-05 0.002327
-0.000763 4.5e-05 0.002351
-0.001861 1e-06 0.001691
-0.00184 1e-06 0.001704
-0.001819 1e-06 0.001716
-0.001797 2e-06 0.001728
-0.001776 3e-06 0.001741
-0.002283 0.000689 0.001937
-0.001735 2e-06 0.001768
-0.001714 3e-06 0.001781
-0.002235 0.000689 0.001993
-0.001672 3e-06 0.001806
-0.001651 3e-06 0.001819
-0.001628 5e-06 0.001829
-0.001604 9e-06 0.001836
-0.001581 1.1e-05 0.001846
-0.002292 0.000452 0.001814
-0.002263 0.000437 0.001985
-0.002126 0.000499 0.002029
-0.002078 0.000518 0.002019
-0.001077 -3.1e-05 0.00179
-0.002126 0.000716 0.002029
-0.002164 0.000703 0.002029
-0.002074 0.000696 0.001264
-0.002062 0.000694 0.001286
-0.002051 0.000691 0.001309
-0.001296 5e-06 0.002041
-0.001276 5e-06 0.002056
-0.001255 5e-06 0.002069
-0.00111 5e-06 0.002162
-0.001089 5e-06 0.002175
-0.001028 4e-06 0.002217
-0.001008 4e-06 0.002231
-0.000986 4e-06 0.002243
-0.000967 3e-06 0.002258
-0.000941 7e-06 0.002264
-0.000911 1.5e-05 0.002263
-0.000778 2.3e-05 0.002328
-0.000765 1.6e-05 0.002354
-0.001826 4e-06 0.001635
-0.001805 4e-06 0.001649
-0.001785 4e-06 0.001662
-0.001762 6e-06 0.001673
-0.002274 0.000473 0.001766
-0.001699 7e-06 0.001711
-0.001678 7e-06 0.001724
-0.001637 7e-06 0.001751
-0.001616 6e-06 0.001765
-0.001595 6e-06 0.001777
-0.001575 6e-06 0.001791
-0.002316 0.000607 0.0019
-0.002263 0.000464 0.001985
-0.002309 0.000486 0.001861
-0.001473 5e-06 0.00186
-0.001451 6e-06 0.001872
-0.001098 -3.1e-05 0.001777
-0.001119 -3.2e-05 0.001764
-0.002193 0.000695 0.002022
-0.002089 0.000697 0.001244
-0.002295 0.000692 0.001915
-0.001328 4e-06 0.001954
-0.001307 4e-06 0.001967
-0.001287 4e-06 0.001981
-0.001266 4e-06 0.001995
-0.001245 5e-06 0.002007
-0.001224 5e-06 0.00202
-0.001203 5e-06 0.002033
-0.001078 5e-06 0.002112
-0.000973 6e-06 0.002177
-0.000952 7e-06 0.00219
-0.000911 6e-06 0.002217
-0.000891 6e-06 0.00223
-0.001537 0.000663 0.002168
-0.001772 5e-06 0.001597
-0.001751 6e-06 0.001609
-0.001732 5e-06 0.001625
-0.002326 0.000621 0.001222
-0.00114 -3.1e-05 0.001751
-0.00167 4e-06 0.001666
-0.00165 3e-06 0.001681
-0.00163 2e-06 0.001695
-0.00161 2e-06 0.001709
-0.00159 2e-06 0.001723
-0.00157 1e-06 0.001737
-0.001549 1e-06 0.001751
-0.002308 0.000602 0.001926
-0.001508 1e-06 0.001778
-0.001489 -0.0 0.001794
-0.002292 0.000506 0.001814
-0.001448 0.0 0.001822
-0.001427 2e-06 0.001835
-0.00116 -3.1e-05 0.001737
-0.002408 0.000672 0.001228
-0.001302 -0.0 0.001913
-0.001281 0.0 0.001926
-0.001263 -2e-06 0.001944
-0.00124 -0.0 0.001954
-0.00122 0.0 0.001968
-0.001117 -0.0 0.002035
-0.001096 -0.0 0.002048
-0.001075 -0.0 0.002061
-0.001053 0.0 0.002073
-0.001033 0.0 0.002087
-0.001181 -3.1e-05 0.001724
-0.000884 2e-06 0.002174
-0.000862 3e-06 0.002186
-0.001201 -3.1e-05 0.00171
-0.002283 0.000637 0.00122
-0.002171 0.000454 0.002035
-0.002689 0.000626 0.001225
-0.002243 0.000721 0.001967
-0.001646 -2e-06 0.001628
-0.001624 -1e-06 0.001639
-0.001601 1e-06 0.001649
-0.001581 0.0 0.001664
-0.001562 -1e-06 0.001679
-0.001222 -3.1e-05 0.001696
-0.001478 -0.0 0.001731
-0.001457 0.0 0.001744
-0.001437 -0.0 0.001758
-0.001415 1e-06 0.001769
-0.002308 0.000513 0.001861
-0.002279 0.000491 0.001966
-0.002263 0.000546 0.001985
-0.002279 0.000546 0.001966
-0.001242 -3e-05 0.001682
-0.001544 0.000749 0.001879
-0.002228 0.000602 0.00202
-0.002206 0.000605 0.002033
-0.001083 1e-06 0.001982
-0.001062 0.0 0.001996
-0.001043 -0.0 0.002011
-0.001021 1e-06 0.002022
-0.001 0.0 0.002036
-0.000919 -1e-06 0.002091
-0.000899 -1e-06 0.002106
-0.000878 -1e-06 0.002119
-0.000857 -1e-06 0.002132
-0.000836 -1e-06 0.002145
-0.000815 -1e-06 0.002158
-0.000794 -1e-06 0.002171
-0.000688 2e-06 0.002233
-0.002078 0.000491 0.00202
-0.002126 0.000472 0.002029
-0.002715 0.0007 0.00121
-0.002803 0.000496 0.001088
-0.002274 0.000527 0.001766
-0.001589 2e-06 0.001585
-0.001569 2e-06 0.001599
-0.001548 1e-06 0.001613
-0.001528 1e-06 0.001626
-0.001506 2e-06 0.001637
-0.001487 1e-06 0.001654
-0.001465 2e-06 0.001664
-0.002208 0.000495 0.002035
-0.001424 1e-06 0.001692
-0.001403 1e-06 0.001706
-0.001383 1e-06 0.00172
-0.002303 0.00066 0.001921
-0.002253 0.000714 0.001714
-0.002295 0.000546 0.001947
-0.002246 0.000546 0.002003
-0.002263 0.00041 0.001985
-0.001529 0.000734 0.002123
-0.001052 0.0 0.001933
-0.001031 1e-06 0.001946
-0.000905 2e-06 0.002025
-0.000883 3e-06 0.002036
-0.000863 2e-06 0.00205
-0.000842 3e-06 0.002062
-0.000822 2e-06 0.002077
-0.000801 2e-06 0.00209
-0.000781 2e-06 0.002104
-0.000759 2e-06 0.002116
-0.000699 1e-06 0.002159
-0.000679 0.0 0.002173
-0.000658 0.0 0.002187
-0.002371 0.000603 0.001229
-0.002308 0.000622 0.001861
-0.001601 0.0 0.001512
-0.00158 1e-06 0.001524
-0.001561 -1e-06 0.001541
-0.00154 -1e-06 0.001554
-0.001521 -2e-06 0.001569
-0.001501 -3e-06 0.001584
-0.001481 -3e-06 0.001598
-0.00146 -4e-06 0.001612
-0.00144 -4e-06 0.001627
-0.00142 -5e-06 0.001641
-0.0014 -5e-06 0.001655
-0.00138 -6e-06 0.001669
-0.00136 -7e-06 0.001684
-0.00134 -7e-06 0.001698
-0.00223 0.000738 0.001661
-0.002126 0.000581 0.002028
-0.002317 0.000498 0.001902
-0.00231 0.000492 0.001927
-0.00231 0.000411 0.001928
-0.001217 -8e-06 0.00178
-0.001196 -8e-06 0.001793
-0.001175 -8e-06 0.001806
-0.001154 -8e-06 0.00182
-0.001134 -8e-06 0.001833
-0.001113 -8e-06 0.001846
-0.001092 -8e-06 0.001859
-0.001071 -8e-06 0.001873
-0.00105 -8e-06 0.001886
-0.001029 -8e-06 0.001898
-0.000923 -6e-06 0.001961
-0.000902 -5e-06 0.001973
-0.000881 -4e-06 0.001986
-0.00086 -4e-06 0.001999
-0.000838 -3e-06 0.00201
-0.000816 -3e-06 0.002023
-0.000795 -2e-06 0.002035
-0.000773 -1e-06 0.002047
-0.000752 -1e-06 0.002059
-0.000667 1e-06 0.002109
-0.000645 1e-06 0.00212
-0.00209 0.000724 0.001244
-0.002247 0.00041 0.002003
-0.001524 0.000681 0.002124
-0.002194 0.000727 0.001205
-0.002292 0.000642 0.001814
-0.001578 -7e-06 0.001476
-0.001559 -8e-06 0.001492
-0.001539 -9e-06 0.001506
-0.001519 -1e-05 0.001521
-0.0015 -1.1e-05 0.001537
-0.001479 -1.1e-05 0.00155
-0.00146 -1.2e-05 0.001565
-0.002307 0.000677 0.00186
-0.002293 0.000696 0.001815
-0.0014 -1.5e-05 0.001609
-0.001381 -1.5e-05 0.001624
-0.00136 -1.6e-05 0.001639
-0.00134 -1.7e-05 0.001653
-0.00132 -1.7e-05 0.001667
-0.0013 -1.7e-05 0.001681
-0.00128 -1.8e-05 0.001695
-0.001259 -1.8e-05 0.001709
-0.001239 -1.8e-05 0.001722
-0.001218 -1.8e-05 0.001736
-0.001198 -1.9e-05 0.00175
-0.001177 -1.9e-05 0.001764
-0.001157 -1.9e-05 0.001777
-0.001136 -1.9e-05 0.00179
-0.001115 -1.9e-05 0.001803
-0.001094 -1.9e-05 0.001817
-0.001073 -1.9e-05 0.00183
-0.001052 -1.8e-05 0.001842
-0.001031 -1.8e-05 0.001855
-0.00101 -1.8e-05 0.001868
-0.000989 -1.8e-05 0.001881
-0.000968 -1.7e-05 0.001893
-0.000946 -1.7e-05 0.001906
-0.000925 -1.6e-05 0.001918
-0.000904 -1.6e-05 0.001931
-0.000882 -1.5e-05 0.001942
-0.00086 -1.4e-05 0.001954
-0.000839 -1.4e-05 0.001967
-0.000817 -1.3e-05 0.001978
-0.000795 -1.2e-05 0.00199
-0.002075 0.000723 0.001264
-0.002107 0.000723 0.001227
-0.001508 0.000701 0.002077
-0.001526 0.00075 0.001896
-0.002171 0.000481 0.002035
-0.002208 0.000468 0.002035
-0.002295 0.000464 0.001948
-0.002063 0.000748 0.001286
-0.002108 0.00075 0.001228
-0.002291 0.000534 0.001813
-0.002295 0.000491 0.001947
-0.002247 0.000491 0.002003
-0.002229 0.000492 0.002021
-0.002794 0.000495 0.001111
-0.002258 0.000722 0.001947
-0.001363 -2.7e-05 0.001596
-0.001343 -2.8e-05 0.001611
-0.001323 -2.8e-05 0.001625
-0.001303 -2.9e-05 0.00164
-0.001283 -3e-05 0.001654
-0.001262 -3e-05 0.001668
-0.001563 0.000693 0.001863
-0.001543 0.000695 0.001879
-0.001525 0.000696 0.001896
-0.00151 0.000696 0.001915
-0.001498 0.000694 0.001937
-0.001489 0.000689 0.001962
-0.001486 0.00068 0.001993
-0.001489 0.000669 0.002028
-0.001508 0.000647 0.002077
-0.001523 0.000627 0.002123
-0.001538 0.000608 0.002169
-0.002371 0.000576 0.001228
-0.002327 0.000593 0.001223
-0.002284 0.00061 0.001218
-0.002235 0.00063 0.001209
-0.002189 0.000648 0.001204
-0.002156 0.000659 0.001205
-0.002129 0.000666 0.001214
-0.002107 0.000669 0.001227
-0.002089 0.00067 0.001244
-0.002074 0.000669 0.001264
-0.002062 0.000667 0.001286
-0.00205 0.000663 0.001309
-0.002766 0.000548 0.001179
-0.00281 0.000444 0.001064
-0.002799 0.000454 0.001032
-0.002996 0.000609 0.000208
-0.002786 0.00044 0.001134
-0.002275 0.000445 0.001766
-0.002293 0.000424 0.001815
-0.002309 0.000404 0.001862
-0.002318 0.000388 0.001902
-0.00231 0.000383 0.001928
-0.002295 0.000383 0.001948
-0.002279 0.000383 0.001966
-0.002263 0.000383 0.001985
-0.002247 0.000383 0.002003
-0.00223 0.000383 0.002021
-0.002208 0.000387 0.002035
-0.002171 0.000399 0.002036
-0.002126 0.000417 0.002029
-0.002078 0.000437 0.002019
-0.001585 0.000662 0.00185
-0.001562 0.000666 0.001863
-0.001543 0.000668 0.001879
-0.001525 0.000669 0.001896
-0.001509 0.000669 0.001915
-0.001497 0.000667 0.001937
-0.001488 0.000662 0.001962
-0.001484 0.000654 0.001991
-0.001491 0.00064 0.002029
-0.001508 0.00062 0.002077
-0.001523 0.0006 0.002124
-0.001538 0.000581 0.002169
-0.002408 0.000536 0.001228
-0.00237 0.00055 0.00123
-0.002328 0.000565 0.001224
-0.002283 0.000583 0.001217
-0.002235 0.000603 0.001208
-0.00219 0.000621 0.001201
-0.002155 0.000632 0.001204
-0.002129 0.000639 0.001213
-0.002107 0.000642 0.001227
-0.002089 0.000643 0.001244
-0.002074 0.000642 0.001264
-0.002061 0.00064 0.001285
-0.0028 0.000634 0.001086
-0.002553 0.000626 0.001243
-0.002745 0.000577 0.00037
-0.002622 0.000659 0.000401
-0.002274 0.000418 0.001766
-0.002293 0.000397 0.001815
-0.002309 0.000377 0.001862
-0.002319 0.000361 0.001903
-0.00231 0.000356 0.001928
-0.002295 0.000355 0.001948
-0.002279 0.000355 0.001967
-0.002263 0.000355 0.001985
-0.002247 0.000355 0.002003
-0.00223 0.000356 0.002021
-0.002208 0.00036 0.002035
-0.002171 0.000372 0.002035
-0.002126 0.00039 0.002029
-0.002077 0.00041 0.002019
-0.001562 0.000639 0.001863
-0.001543 0.000641 0.001879
-0.001525 0.000642 0.001896
-0.001509 0.000642 0.001915
-0.001497 0.000639 0.001937
-0.001488 0.000635 0.001962
-0.001484 0.000627 0.001991
-0.001491 0.000613 0.00203
-0.001508 0.000592 0.002078
-0.001523 0.000573 0.002124
-0.001537 0.000554 0.002168
-0.002408 0.000508 0.001232
-0.00237 0.000522 0.001228
-0.002327 0.000539 0.001223
-0.002283 0.000556 0.001217
-0.002234 0.000576 0.001207
-0.002189 0.000594 0.0012
-0.002154 0.000605 0.001203
-0.002128 0.000612 0.001213
-0.002107 0.000615 0.001227
-0.002089 0.000616 0.001243
-0.002074 0.000615 0.001263
-0.002061 0.000613 0.001285
-0.002795 0.000577 0.001111
-0.002601 0.000607 0.001238
-0.002237 0.000617 0.001694
-0.002218 0.000632 0.001658
-0.002275 0.000391 0.001766
-0.002293 0.000369 0.001815
-0.00231 0.000349 0.001862
-0.002318 0.000334 0.001903
-0.00231 0.000329 0.001928
-0.002295 0.000328 0.001948
-0.002279 0.000328 0.001966
-0.002263 0.000328 0.001985
-0.002247 0.000328 0.002003
-0.002229 0.000329 0.002021
-0.002208 0.000332 0.002035
-0.00217 0.000345 0.002035
-0.002126 0.000363 0.002028
-0.002078 0.000382 0.00202
-0.001542 0.000614 0.001879
-0.001524 0.000615 0.001895
-0.001509 0.000615 0.001914
-0.001497 0.000612 0.001936
-0.001487 0.000608 0.001961
-0.001484 0.0006 0.001991
-0.001491 0.000586 0.002029
-0.001508 0.000565 0.002077
-0.001524 0.000545 0.002124
-0.001537 0.000527 0.002168
-0.002408 0.000482 0.001228
-0.00237 0.000495 0.001227
-0.002327 0.000512 0.001223
-0.002282 0.00053 0.001216
-0.002233 0.00055 0.001206
-0.002188 0.000568 0.001199
-0.002154 0.000578 0.001203
-0.002128 0.000585 0.001212
-0.002106 0.000588 0.001226
-0.002089 0.000589 0.001243
-0.002074 0.000588 0.001263
-0.002061 0.000586 0.001285
-0.00289 0.000483 -0.000808
-0.002776 0.000549 0.001156
-0.002601 0.000552 0.001238
-0.002776 0.000494 0.001156
-0.002274 0.000364 0.001766
-0.002292 0.000343 0.001814
-0.002309 0.000322 0.001862
-0.002318 0.000307 0.001902
-0.00231 0.000302 0.001928
-0.002295 0.000301 0.001948
-0.002279 0.000301 0.001967
-0.002263 0.000301 0.001985
-0.002247 0.000301 0.002004
-0.00223 0.000302 0.002021
-0.002207 0.000305 0.002035
-0.00217 0.000318 0.002035
-0.002125 0.000336 0.002028
-0.002078 0.000355 0.00202
-0.001542 0.000587 0.001878
-0.001524 0.000588 0.001895
-0.001508 0.000588 0.001914
-0.001496 0.000585 0.001936
-0.001487 0.000581 0.001961
-0.001484 0.000573 0.001991
-0.00149 0.000559 0.002029
-0.001509 0.000537 0.002078
-0.001524 0.000518 0.002124
-0.001536 0.0005 0.002168
-0.002408 0.000455 0.001228
-0.002369 0.000468 0.001227
-0.002327 0.000485 0.001223
-0.002282 0.000502 0.001217
-0.002233 0.000523 0.001206
-0.002188 0.00054 0.0012
-0.002154 0.000551 0.001203
-0.002128 0.000557 0.001213
-0.002106 0.000561 0.001226
-0.002089 0.000562 0.001243
-0.002074 0.000561 0.001263
-0.002061 0.000558 0.001285
-0.002493 0.000706 0.001242
-0.002602 0.000634 0.001238
-0.002238 0.000644 0.001693
-0.002179 0.00069 0.001585
-0.002425 0.000654 0.001238
-0.002294 0.000315 0.001815
-0.002309 0.000295 0.001862
-0.002318 0.00028 0.001902
-0.00231 0.000275 0.001928
-0.002295 0.000274 0.001948
-0.002279 0.000274 0.001967
-0.002263 0.000274 0.001985
-0.002247 0.000274 0.002004
-0.00223 0.000274 0.002021
-0.002207 0.000278 0.002035
-0.002171 0.000291 0.002035
-0.002125 0.000309 0.002028
-0.002078 0.000328 0.00202
-0.001542 0.00056 0.001878
-0.001524 0.000561 0.001895
-0.001509 0.000561 0.001914
-0.001496 0.000558 0.001936
-0.001487 0.000554 0.001961
-0.001483 0.000546 0.00199
-0.001491 0.000531 0.00203
-0.001509 0.00051 0.002078
-0.001524 0.000491 0.002124
-0.001537 0.000473 0.002169
-0.002942 0.00071 0.000275
-0.002369 0.000441 0.001227
-0.002327 0.000457 0.001223
-0.002282 0.000475 0.001216
-0.002233 0.000495 0.001206
-0.002188 0.000513 0.0012
-0.002154 0.000524 0.001203
-0.002128 0.00053 0.001212
-0.002106 0.000534 0.001226
-0.002088 0.000535 0.001243
-0.002074 0.000534 0.001263
-0.002061 0.000531 0.001285
-0.002553 0.000708 0.001243
-0.002689 0.000599 0.001225
-0.002689 0.000545 0.001225
-0.002202 0.000673 0.001623
-0.002122 0.00073 0.001505
-0.002776 0.000521 0.001156
-0.002276 0.000309 0.001767
-0.002292 0.000288 0.001814
-0.002309 0.000268 0.001862
-0.002318 0.000253 0.001902
-0.00231 0.000248 0.001928
-0.002295 0.000247 0.001948
-0.002279 0.000247 0.001967
-0.002263 0.000247 0.001985
-0.002247 0.000247 0.002004
-0.002229 0.000247 0.002021
-0.002207 0.000251 0.002034
-0.002171 0.000264 0.002035
-0.002125 0.000282 0.002028
-0.002078 0.000301 0.00202
-0.001542 0.000533 0.001878
-0.001524 0.000534 0.001895
-0.001509 0.000533 0.001914
