-0.002664 0.000386 0.000931
-0.002691 0.000372 0.00096
-0.002714 0.000359 0.000988
-0.002738 0.000347 0.001015
-0.002929 0.00044 8.2e-05
-0.002866 0.000533 -0.000631
-0.002736 0.000654 -0.000514
-0.002913 0.000587 -0.000712
-0.002866 0.000614 -0.000631
-0.002736 0.000627 -0.000514
-0.002689 0.000597 -0.000482
-0.002774 0.000445 -0.000544
-0.002929 0.000549 8.2e-05
-0.002898 0.000562 6.1e-05
-0.001852 0.000702 -0.00214
-0.002995 0.00026 0.000135
-0.003 0.000257 0.000159
-0.002999 0.000256 0.000184
-0.002998 0.000255 0.000209
-0.002996 0.000254 0.000233
-0.002994 0.000253 0.000258
-0.002988 0.000254 0.000282
-0.00297 0.000261 0.000304
-0.002937 0.000275 0.000324
-0.0029 0.00029 0.000343
-0.002862 0.000307 0.000362
-0.002819 0.000325 0.000381
-0.002769 0.000347 0.000398
-0.002712 0.000372 0.000415
-0.002579 0.000431 0.000444
-0.002357 0.000526 0.00056
-0.002352 0.000527 0.000584
-0.00235 0.000526 0.000609
-0.002351 0.000524 0.000634
-0.002358 0.000519 0.00066
-0.002372 0.00051 0.000687
-0.0024 0.000495 0.000716
-0.002448 0.000471 0.000748
-0.002494 0.000447 0.00078
-0.00254 0.000424 0.000812
-0.002576 0.000405 0.000843
-0.00261 0.000388 0.000873
-0.002637 0.000373 0.000902
-0.002665 0.000358 0.000931
-0.002691 0.000345 0.00096
-0.002714 0.000332 0.000988
-0.002736 0.00032 0.001016
-0.002775 0.000553 -0.000544
-0.002871 0.000721 -0.000758
-0.002914 0.000559 -0.000712
-0.002909 0.000587 -0.000736
-0.002903 0.000589 -0.00076
-0.002915 0.000532 -0.000712
-0.002486 0.000687 -0.000107
-0.002457 0.000657 -0.000352
-0.002865 0.000576 4.1e-05
-0.00293 0.000576 8.1e-05
-0.002492 0.0006 -0.001668
-0.002995 0.000233 0.000135
-0.003 0.00023 0.000159
-0.002999 0.000228 0.000184
-0.002998 0.000228 0.000209
-0.002996 0.000227 0.000233
-0.002993 0.000226 0.000258
-0.002988 0.000227 0.000282
-0.00297 0.000234 0.000304
-0.002937 0.000247 0.000324
-0.0029 0.000263 0.000343
-0.002862 0.000279 0.000363
-0.002819 0.000298 0.000381
-0.002357 0.000499 0.00056
-0.002352 0.000499 0.000584
-0.00235 0.000499 0.000609
-0.002351 0.000496 0.000634
-0.002358 0.000491 0.00066
-0.002372 0.000483 0.000687
-0.0024 0.000468 0.000716
-0.00245 0.000443 0.000749
-0.002494 0.00042 0.00078
-0.002541 0.000396 0.000812
-0.002578 0.000377 0.000843
-0.002609 0.000361 0.000872
-0.002638 0.000346 0.000902
-0.002664 0.000332 0.000931
-0.002691 0.000317 0.00096
-0.002712 0.000305 0.000988
-0.002736 0.000293 0.001016
-0.002756 0.000282 0.001044
-0.002476 0.000644 -0.001472
-0.002915 0.000505 -0.000712
-0.002507 0.000618 -0.00154
-0.002521 0.000606 -0.001573
-0.001821 0.000742 -0.001953
-0.00252 0.000735 -0.000385
-0.002487 0.000632 -0.000107
-0.00243 0.000672 -0.000323
-0.002829 0.000591 2.1e-05
-0.002892 0.000573 -0.000659
-0.00297 0.000219 0.000108
-0.002995 0.000206 0.000134
-0.002999 0.000203 0.000159
-0.002999 0.000201 0.000184
-0.002998 0.0002 0.000209
-0.002996 0.0002 0.000233
-0.002993 0.000199 0.000258
-0.002987 0.0002 0.000282
-0.00297 0.000207 0.000304
-0.002937 0.00022 0.000324
-0.0029 0.000236 0.000343
-0.002861 0.000253 0.000362
-0.002818 0.000271 0.000381
-0.002771 0.000292 0.000399
-0.002709 0.000319 0.000414
-0.002648 0.000346 0.00043
-0.002579 0.000377 0.000444
-0.002357 0.000472 0.00056
-0.002352 0.000472 0.000584
-0.00235 0.000472 0.000609
-0.002351 0.000469 0.000634
-0.002358 0.000464 0.00066
-0.002372 0.000456 0.000687
-0.002401 0.00044 0.000716
-0.002449 0.000416 0.000749
-0.002496 0.000392 0.000781
-0.00254 0.00037 0.000812
-0.002579 0.00035 0.000843
-0.00261 0.000333 0.000873
-0.002639 0.000318 0.000902
-0.002664 0.000305 0.000931
-0.002691 0.00029 0.00096
-0.002713 0.000278 0.000988
-0.002736 0.000266 0.001016
-0.002756 0.000254 0.001044
-0.002865 0.000479 -0.00063
-0.002911 0.000508 -0.000686
-0.002889 0.000652 -0.000794
-0.002894 0.000541 -0.000795
-0.002752 0.000678 -1.9e-05
-0.002585 0.000676 -0.000419
-0.002652 0.000596 -0.000904
-0.002806 0.000455 -0.000573
-0.002891 0.000546 -0.000659
-0.00297 0.000192 0.000108
-0.002993 0.00018 0.000134
-0.002998 0.000176 0.000159
-0.002999 0.000174 0.000184
-0.002998 0.000173 0.000209
-0.002995 0.000172 0.000233
-0.002992 0.000172 0.000258
-0.002986 0.000174 0.000282
-0.002969 0.00018 0.000304
-0.002936 0.000194 0.000324
-0.0029 0.000209 0.000343
-0.00286 0.000226 0.000362
-0.002818 0.000244 0.000381
-0.002771 0.000265 0.000399
-0.002709 0.000292 0.000414
-0.002646 0.00032 0.00043
-0.002576 0.000351 0.000444
-0.002357 0.000445 0.00056
-0.002352 0.000445 0.000584
-0.00235 0.000444 0.000609
-0.002351 0.000442 0.000634
-0.002358 0.000437 0.00066
-0.002372 0.000429 0.000687
-0.002401 0.000413 0.000716
-0.00245 0.000388 0.000749
-0.002494 0.000366 0.00078
-0.00254 0.000342 0.000812
-0.002579 0.000323 0.000843
-0.002609 0.000306 0.000873
-0.002638 0.000291 0.000902
-0.002664 0.000277 0.000931
-0.002691 0.000263 0.00096
-0.002714 0.000251 0.000987
-0.002739 0.000238 0.001015
-0.002491 0.00055 -0.001506
-0.002891 0.000519 -0.000659
-0.002687 0.000679 -0.000482
-0.002829 0.000645 2.1e-05
-0.002435 0.000751 -0.000324
-0.002898 0.000535 6.1e-05
-0.002696 0.000606 -0.000896
-0.00296 0.000536 0.000102
-0.002829 0.000618 2.1e-05
-0.002861 0.000741 4.1e-05
-0.002991 0.000154 0.000134
-0.002996 0.00015 0.000159
-0.002997 0.000148 0.000184
-0.002996 0.000147 0.000209
-0.002994 0.000146 0.000233
-0.00299 0.000146 0.000257
-0.002983 0.000148 0.000281
-0.002968 0.000153 0.000304
-0.002937 0.000166 0.000324
-0.0029 0.000182 0.000344
-0.002861 0.000198 0.000362
-0.002818 0.000217 0.000381
-0.002645 0.000293 0.00043
-0.002574 0.000325 0.000444
-0.002357 0.000417 0.00056
-0.002352 0.000418 0.000585
-0.00235 0.000417 0.000609
-0.002351 0.000415 0.000634
-0.002358 0.00041 0.00066
-0.002372 0.000401 0.000687
-0.002401 0.000386 0.000717
-0.00245 0.000361 0.000749
-0.002494 0.000339 0.00078
-0.002541 0.000315 0.000812
-0.002579 0.000296 0.000843
-0.002611 0.000279 0.000873
-0.002638 0.000264 0.000902
-0.002665 0.00025 0.000931
-0.002691 0.000236 0.00096
-0.002714 0.000224 0.000987
-0.002455 0.0007 -0.000128
-0.00296 0.000563 0.000101
-0.002865 0.00063 4.1e-05
-0.002929 0.000603 8.2e-05
-0.002545 0.000715 -9e-05
-0.002416 0.000707 -0.000296
-0.002829 0.000564 2.1e-05
-0.002794 0.000606 1e-06
-0.002494 0.000685 -0.001507
-0.002986 0.000129 0.000133
-0.002992 0.000125 0.000158
-0.002993 0.000123 0.000183
-0.002992 0.000121 0.000208
-0.002989 0.000121 0.000232
-0.002985 0.000121 0.000257
-0.002979 0.000123 0.000281
-0.002966 0.000127 0.000304
-0.002937 0.000139 0.000324
-0.0029 0.000155 0.000343
-0.002861 0.000171 0.000363
-0.002818 0.00019 0.000381
-0.002644 0.000267 0.000429
-0.002577 0.000296 0.000444
-0.002357 0.00039 0.00056
-0.002352 0.000391 0.000585
-0.00235 0.00039 0.000609
-0.002351 0.000387 0.000634
-0.002358 0.000382 0.00066
-0.002373 0.000374 0.000687
-0.002401 0.000359 0.000716
-0.002449 0.000334 0.000749
-0.002496 0.000311 0.000781
-0.00254 0.000288 0.000812
-0.002578 0.000269 0.000843
-0.00261 0.000252 0.000873
-0.002638 0.000237 0.000902
-0.002664 0.000223 0.000931
-0.002691 0.000208 0.00096
-0.002715 0.000196 0.000987
-0.002929 0.000495 8.2e-05
-0.002904 0.000507 -0.00076
-0.002838 0.000602 -0.000602
-0.002806 0.000618 -0.000573
-0.002889 0.000685 -0.000766
-0.002712 0.000641 -3.8e-05
-0.002436 0.000707 -0.00015
-0.002891 0.000374 -0.000808
-0.00291 0.00056 -0.000736
-0.00298 0.000104 0.000132
-0.002985 0.000101 0.000157
-0.002986 9.9e-05 0.000182
-0.002985 9.7e-05 0.000207
-0.002983 9.7e-05 0.000231
-0.002979 9.7e-05 0.000256
-0.002972 9.8e-05 0.00028
-0.002962 0.000102 0.000303
-0.002936 0.000112 0.000324
-0.002899 0.000128 0.000343
-0.00286 0.000145 0.000362
-0.00282 0.000162 0.000381
-0.002357 0.000363 0.00056
-0.002352 0.000364 0.000585
-0.00235 0.000363 0.000609
-0.002351 0.00036 0.000634
-0.002358 0.000355 0.00066
-0.002373 0.000347 0.000687
-0.002401 0.000332 0.000716
-0.002449 0.000308 0.000749
-0.002496 0.000284 0.000781
-0.002539 0.000261 0.000812
-0.002579 0.000241 0.000843
-0.002611 0.000224 0.000873
-0.002638 0.00021 0.000902
-0.002664 0.000196 0.000931
-0.002691 0.000182 0.00096
-0.002715 0.000169 0.000987
-0.002416 0.000687 -0.000197
-0.002344 0.000737 -0.001279
-0.002506 0.000571 -0.001647
-0.00223 0.000739 -0.000959
-0.002898 0.000616 6.1e-05
-0.002486 0.000741 -0.000107
-0.002904 0.000479 -0.00076
-0.002585 0.000567 -0.000419
-0.002425 0.000712 -0.000174
-0.002713 0.000723 -3.8e-05
-0.002972 8.2e-05 0.000131
-0.002975 7.8e-05 0.000156
-0.002976 7.6e-05 0.000181
-0.002976 7.5e-05 0.000206
-0.002973 7.4e-05 0.00023
-0.002969 7.5e-05 0.000254
-0.002963 7.6e-05 0.000278
-0.002954 7.8e-05 0.000302
-0.002934 8.6e-05 0.000324
-0.002899 0.000101 0.000343
-0.002859 0.000118 0.000362
-0.00282 0.000134 0.000381
-0.002357 0.000336 0.00056
-0.002352 0.000336 0.000585
-0.00235 0.000336 0.000609
-0.002352 0.000333 0.000634
-0.002358 0.000328 0.00066
-0.002373 0.00032 0.000687
-0.002401 0.000305 0.000716
-0.002448 0.000281 0.000749
-0.002495 0.000257 0.000781
-0.00254 0.000234 0.000812
-0.00258 0.000213 0.000843
-0.002611 0.000197 0.000873
-0.002638 0.000183 0.000902
-0.002664 0.000169 0.000931
-0.00269 0.000155 0.000959
-0.002715 0.000142 0.000986
-0.00187 0.000642 -0.002317
-0.001863 0.000621 -0.002215
-0.002911 0.000563 -0.000686
-0.002246 0.000735 -0.000938
-0.00261 0.00074 -7.4e-05
-0.002911 0.000505 -0.000736
-0.002638 0.000568 -0.000451
-0.002836 0.000467 -0.000602
-0.002753 0.000624 -1.9e-05
-0.002866 0.000668 -0.000631
-0.00296 6e-05 0.000129
-0.002963 5.7e-05 0.000154
-0.002964 5.5e-05 0.000179
-0.002962 5.4e-05 0.000204
-0.00296 5.3e-05 0.000228
-0.002956 5.3e-05 0.000252
-0.002951 5.4e-05 0.000277
-0.002943 5.6e-05 0.0003
-0.002928 6.2e-05 0.000323
-0.002898 7.4e-05 0.000343
-0.00286 9e-05 0.000362
-0.00282 0.000107 0.000381
-0.002357 0.000309 0.000561
-0.002352 0.000309 0.000585
-0.00235 0.000308 0.000609
-0.002352 0.000306 0.000634
-0.002358 0.000301 0.00066
-0.002373 0.000292 0.000687
-0.002401 0.000277 0.000717
-0.002449 0.000253 0.000749
-0.002495 0.00023 0.000781
-0.00254 0.000207 0.000812
-0.002579 0.000187 0.000843
-0.00261 0.00017 0.000873
-0.002639 0.000155 0.000902
-0.002664 0.000141 0.000931
-0.00269 0.000128 0.000959
-0.002715 0.000115 0.000986
-0.002865 0.000506 -0.00063
-0.002837 0.000548 -0.000602
-0.002775 0.000634 -0.000544
-0.002865 0.000684 4.1e-05
-0.002736 0.000682 -0.000514
-0.00269 0.00065 -0.000483
-0.002605 0.000607 -7.3e-05
-0.002014 -2.4e-05 0.000584
-0.002653 0.000732 -0.000904
-0.002884 0.000623 -0.000818
-0.002894 0.000487 -0.000795
-0.002945 4.1e-05 0.000127
-0.002947 3.8e-05 0.000152
-0.002947 3.6e-05 0.000176
-0.002946 3.5e-05 0.000201
-0.002943 3.4e-05 0.000226
-0.002939 3.4e-05 0.00025
-0.002934 3.5e-05 0.000274
-0.002927 3.7e-05 0.000298
-0.002915 4e-05 0.000321
-0.002893 4.9e-05 0.000343
-0.002859 6.4e-05 0.000362
0.000638 -1.9e-05 0.002018
0.000615 -1.9e-05 0.002026
-0.002357 0.000281 0.000561
-0.002352 0.000282 0.000585
-0.00235 0.000281 0.000609
-0.002352 0.000279 0.000634
-0.002358 0.000274 0.00066
-0.002372 0.000265 0.000687
-0.002401 0.00025 0.000717
-0.002449 0.000226 0.000749
-0.002495 0.000202 0.000781
-0.00254 0.00018 0.000812
-0.00261 0.000143 0.000873
-0.002638 0.000128 0.000902
-0.002664 0.000114 0.000931
-0.002689 0.000101 0.000959
-0.002714 8.8e-05 0.000987
-0.002479 0.000688 -0.001662
-0.002519 0.000708 -0.000385
-0.002661 0.000718 -5.6e-05
-0.002829 0.0007 2.1e-05
-0.002793 0.000715 1e-06
-0.002775 0.000607 -0.000544
-0.002638 0.000513 -0.000451
-0.002653 0.000705 -0.000904
-0.00291 0.000533 -0.000736
-0.002734 0.000737 -0.000514
-0.002924 2.4e-05 0.000123
-0.002924 2.1e-05 0.000148
-0.002924 2e-05 0.000173
-0.002922 1.9e-05 0.000198
-0.002919 1.8e-05 0.000222
-0.002916 1.8e-05 0.000246
-0.002911 1.9e-05 0.000271
-0.002905 2e-05 0.000295
-0.002895 2.3e-05 0.000318
-0.00288 2.8e-05 0.000341
-0.002853 3.9e-05 0.000361
-0.002818 5.4e-05 0.000381
0.000592 -1.9e-05 0.002034
0.000568 -1.9e-05 0.002041
0.000544 -1.8e-05 0.002048
0.000521 -1.8e-05 0.002054
-0.002357 0.000254 0.000561
-0.002352 0.000255 0.000585
-0.00235 0.000254 0.000609
-0.002351 0.000252 0.000634
-0.002358 0.000246 0.00066
-0.002372 0.000238 0.000687
-0.002401 0.000223 0.000717
-0.00245 0.000198 0.000749
-0.002495 0.000175 0.000781
-0.00254 0.000152 0.000812
-0.002579 0.000132 0.000843
-0.00261 0.000116 0.000873
-0.002638 0.000101 0.000902
-0.002664 8.7e-05 0.000931
-0.002689 7.4e-05 0.000959
-0.002713 6.1e-05 0.000987
-0.002775 0.000499 -0.000544
-0.002775 0.00058 -0.000544
-0.002793 0.000661 1e-06
-0.002754 0.000732 -1.9e-05
-0.002892 0.000601 -0.000659
-0.002837 0.000575 -0.000602
-0.002412 0.000714 -0.000221
-0.002891 0.000465 -0.000659
0.000497 -1.8e-05 0.002062
-0.002753 0.000651 -1.9e-05
-0.002791 0.000743 1e-06
-0.002892 1.2e-05 0.000118
-0.002889 1.1e-05 0.000143
-0.002374 0.000717 -0.001319
-0.002865 0.000549 4.1e-05
-0.002637 0.000623 -0.000451
-0.002877 9e-06 0.00024
-0.002872 1e-05 0.000265
-0.002868 1e-05 0.000289
-0.002863 1e-05 0.000313
-0.002854 1.3e-05 0.000337
-0.002837 2e-05 0.000359
-0.002809 3.1e-05 0.00038
-0.002019 -2.5e-05 0.00056
-0.002357 0.000227 0.000561
-0.002352 0.000228 0.000585
-0.00235 0.000227 0.000609
-0.002352 0.000224 0.000634
-0.002358 0.000219 0.00066
-0.002372 0.000211 0.000687
-0.0024 0.000196 0.000717
-0.002448 0.000172 0.000749
-0.002498 0.000147 0.000781
-0.002542 0.000124 0.000813
-0.002579 0.000105 0.000843
-0.00261 8.9e-05 0.000873
-0.002638 7.4e-05 0.000902
-0.002664 6e-05 0.000931
-0.002687 4.7e-05 0.000959
-0.002707 3.7e-05 0.000985
-0.001815 0.000671 -0.002375
-0.002492 0.000577 -0.001506
-0.002986 0.000607 0.000123
-0.002838 0.000656 -0.000602
-0.002898 0.00067 6.1e-05
-0.002866 0.00056 -0.000631
-0.002873 0.000683 -0.000813
-0.002412 0.000687 -0.000221
-0.002737 0.000645 -0.000888
-0.002792 0.000634 1e-06
-0.002829 0.000727 2.1e-05
-0.002901 0.000676 -0.000685
-0.002842 7e-06 0.000111
-0.0029 0.000673 -0.000735
-0.002899 0.000698 6e-05
-0.002526 0.000598 -0.001602
-0.002817 9e-06 0.000256
-0.002813 9e-06 0.000281
-0.00281 9e-06 0.000305
-0.002805 9e-06 0.000329
-0.0028 1e-05 0.000353
-0.002787 1.4e-05 0.000376
-0.002761 2.5e-05 0.000397
-0.002024 -2.6e-05 0.000535
-0.002357 0.0002 0.000561
-0.002352 0.0002 0.000585
-0.00235 0.0002 0.000609
-0.002351 0.000197 0.000634
-0.002358 0.000192 0.00066
-0.002372 0.000184 0.000687
-0.002401 0.000169 0.000717
-0.002448 0.000145 0.000749
-0.0025 0.000119 0.000781
-0.002541 9.7e-05 0.000813
-0.002579 7.8e-05 0.000843
-0.002609 6.2e-05 0.000873
-0.002637 4.7e-05 0.000902
-0.00266 3.4e-05 0.00093
-0.002681 2.3e-05 0.000958
-0.002928 0.000522 8.2e-05
-0.002987 0.000552 0.000123
-0.002865 0.000657 4.1e-05
-0.00291 0.000618 -0.000686
-0.002866 0.000641 -0.000631
-0.002522 0.000578 -0.001574
-0.002736 0.000563 -0.000887
-0.002987 0.000443 0.000123
-0.00296 0.000482 0.000102
-0.002417 0.000714 -0.000197
-0.002915 0.00045 -0.000712
-0.002788 7e-06 7.8e-05
-0.002785 7e-06 0.000102
-0.002902 0.000674 -0.00071
-0.002865 0.000712 4.1e-05
-0.002793 0.000552 1e-06
-0.002898 0.000508 6.1e-05
-0.002028 -2.6e-05 0.000511
-0.002761 6e-06 0.000273
-0.002758 6e-06 0.000297
-0.002755 6e-06 0.000322
-0.002751 5e-06 0.000346
-0.002746 6e-06 0.00037
-0.002733 1e-05 0.000393
-0.002703 2.3e-05 0.000414
-0.002357 0.000173 0.000561
-0.002352 0.000173 0.000585
-0.00235 0.000173 0.000609
-0.002351 0.00017 0.000634
-0.002358 0.000165 0.00066
-0.002372 0.000157 0.000687
-0.002399 0.000142 0.000716
-0.00245 0.000117 0.000749
-0.002498 9.2e-05 0.000781
-0.00254 7.1e-05 0.000813
-0.002579 5.1e-05 0.000843
-0.002608 3.5e-05 0.000873
-0.002631 2.3e-05 0.000901
-0.002647 1.3e-05 0.000928
-0.002652 9e-06 0.000954
-0.00296 0.000509 0.000102
-0.002866 0.000603 4.1e-05
-0.002898 0.000643 6.1e-05
-0.002912 0.000615 -0.000711
-0.002908 0.000615 -0.000736
-0.002866 0.000587 -0.000631
-0.002411 0.000712 -0.000271
-0.002033 -2.6e-05 0.000487
-0.002735 6e-06 4.5e-05
-0.002733 6e-06 6.9e-05
-0.002727 7e-06 9.3e-05
-0.002723 7e-06 0.000118
-0.002911 0.000481 -0.000686
-0.00283 0.000536 2.1e-05
-0.002865 0.000522 4.1e-05
-0.002037 -2.7e-05 0.000463
-0.002701 7e-06 0.000264
-0.002697 7e-06 0.000288
-0.002694 7e-06 0.000313
-0.002692 6e-06 0.000337
-0.002687 7e-06 0.000361
-0.002684 6e-06 0.000386
-0.002676 9e-06 0.000409
-0.002642 2.3e-05 0.000429
-0.002357 0.000146 0.000561
-0.002352 0.000146 0.000585
-0.002349 0.000146 0.000609
-0.002351 0.000143 0.000634
-0.002358 0.000138 0.00066
-0.002371 0.00013 0.000687
-0.0024 0.000115 0.000717
-0.002448 9.1e-05 0.000749
-0.002497 6.6e-05 0.000781
-0.002541 4.3e-05 0.000813
-0.002575 2.6e-05 0.000843
-0.002596 1.4e-05 0.000871
-0.002606 7e-06 0.000897
-0.002605 6e-06 0.000922
-0.002493 0.000686 -0.001642
-0.002898 0.000589 6.1e-05
-0.002904 0.000561 -0.00076
-0.002906 0.000643 -0.000735
-0.002474 0.000727 -0.001472
-0.00283 0.000672 2.1e-05
-0.002492 0.000604 -0.001507
-0.002836 0.000412 -0.000602
-0.002547 0.000605 -9e-05
-0.002684 5e-06 1.2e-05
-0.002682 4e-06 3.7e-05
-0.002678 4e-06 6.1e-05
-0.002676 3e-06 8.6e-05
-0.002673 3e-06 0.00011
-0.002891 0.000492 -0.000659
-0.002891 0.000438 -0.000659
-0.002042 -2.7e-05 0.000438
-0.002641 5e-06 0.000305
-0.002639 4e-06 0.000329
-0.002636 4e-06 0.000354
-0.002632 4e-06 0.000378
-0.002628 4e-06 0.000402
-0.002616 8e-06 0.000425
-0.002363 0.000117 0.000537
-0.002356 0.000119 0.000561
-0.002352 0.000119 0.000585
-0.002349 0.000119 0.000609
-0.002351 0.000116 0.000634
-0.002358 0.000111 0.00066
-0.002371 0.000103 0.000687
-0.002399 8.8e-05 0.000717
-0.002449 6.3e-05 0.000749
-0.002498 3.8e-05 0.000781
-0.002539 1.7e-05 0.000812
-0.002555 7e-06 0.00084
-0.002046 -2.8e-05 0.000414
-0.002891 0.000428 -0.000808
-0.002814 0.00067 -0.000869
-0.00296 0.000618 0.000101
-0.002511 0.000705 -0.001536
-0.002506 0.000598 -0.001647
-0.002687 0.000706 -0.000482
-0.00291 0.000478 -0.000736
-0.002806 0.000428 -0.000573
-0.002863 0.000398 -0.00063
-0.002606 0.000579 -7.3e-05
-0.002628 4e-06 4e-06
-0.002623 5e-06 2.8e-05
-0.00262 5e-06 5.2e-05
-0.002614 6e-06 7.6e-05
-0.002611 5e-06 0.000101
-0.00243 0.000645 -0.000323
-0.002864 0.000452 -0.00063
-0.002911 0.000427 -0.000686
-0.002455 0.000673 -0.000128
-0.002436 0.00068 -0.00015
-0.002581 6e-06 0.000295
-0.002578 6e-06 0.00032
-0.002573 6e-06 0.000344
-0.002572 5e-06 0.000369
-0.002567 6e-06 0.000393
-0.002564 5e-06 0.000418
-0.002555 8e-06 0.000441
-0.002363 9e-05 0.000537
-0.002356 9.2e-05 0.000561
-0.002351 9.2e-05 0.000585
-0.002349 9.2e-05 0.000609
-0.002351 8.9e-05 0.000634
-0.002357 8.4e-05 0.00066
-0.002372 7.5e-05 0.000687
-0.002396 6.2e-05 0.000716
-0.002452 3.4e-05 0.000749
-0.002494 1.3e-05 0.000781
-0.002505 5e-06 0.000807
-0.00205 -2.8e-05 0.00039
-0.002898 0.00048 6.1e-05
-0.002711 0.000669 -3.8e-05
-0.002929 0.000658 8.1e-05
-0.00285 0.000548 -0.000857
-0.002504 0.000626 -0.001647
-0.002638 0.000731 -0.000451
-0.002905 0.000398 -0.00076
-0.002054 -2.8e-05 0.000366
-0.002904 0.000371 -0.00076
-0.002897 0.000373 -0.000784
-0.002986 0.000525 0.000123
-0.00291 0.00037 -0.000736
-0.002915 0.000369 -0.000712
-0.00283 0.000482 2.1e-05
-0.002458 0.00063 -0.000352
-0.00264 0.00054 -0.000451
-0.002687 0.000516 -0.000482
-0.002793 0.000525 1e-06
-0.002756 0.000541 -1.9e-05
-0.002424 0.000685 -0.000174
-0.002531 2e-06 0.000288
-0.002527 2e-06 0.000312
-0.002523 3e-06 0.000337
-0.002519 3e-06 0.000361
-0.002515 3e-06 0.000385
-0.002512 2e-06 0.00041
-0.002509 2e-06 0.000434
-0.002363 6.3e-05 0.000537
-0.002356 6.5e-05 0.00056
-0.002351 6.5e-05 0.000585
-0.002348 6.5e-05 0.000609
-0.002349 6.2e-05 0.000634
-0.002357 5.7e-05 0.00066
-0.00237 4.9e-05 0.000687
-0.002449 8e-06 0.000749
-0.002457 3e-06 0.000775
-0.002449 5e-06 0.000799
-0.002432 6e-06 0.000896
-0.002429 6e-06 0.00092
-0.002426 6e-06 0.000945
-0.002711 0.000587 -3.8e-05
-0.002806 0.000564 -0.000573
-0.002961 0.000645 0.0001
-0.002838 0.000683 -0.000602
-0.002712 0.000696 -3.8e-05
-0.002806 0.00051 -0.000573
-0.002891 0.000707 -0.000709
-0.002776 0.000576 -0.000878
-0.002814 0.000588 -0.000868
-0.002058 -2.8e-05 0.000341
-0.002527 -1e-06 -3.6e-05
-0.002523 -1e-06 -1.2e-05
-0.002061 -2.8e-05 0.000317
0.000473 -1.7e-05 0.002068
-0.002502 1e-06 0.000109
-0.002808 0.000699 -0.000573
-0.002455 0.000645 -0.000128
-0.002711 0.00056 -3.8e-05
-0.00283 0.000509 2.1e-05
-0.002864 0.000495 4.1e-05
-0.002471 0.0 0.000329
-0.002461 1e-06 0.000377
-0.002459 0.0 0.000402
-0.002363 3.6e-05 0.000537
-0.002355 3.8e-05 0.00056
-0.00235 3.8e-05 0.000585
-0.002348 3.8e-05 0.000609
-0.002349 3.5e-05 0.000634
-0.002356 3e-05 0.00066
-0.002372 2.1e-05 0.000687
-0.002417 -4e-06 0.000744
-0.002413 -2e-06 0.000768
-0.002406 -2e-06 0.000792
-0.002399 -0.0 0.000816
-0.002385 1e-06 0.000889
-0.00238 2e-06 0.000913
-0.002374 3e-06 0.000937
-0.002369 3e-06 0.000961
-0.002755 0.000568 -1.9e-05
-0.002736 0.0006 -0.000514
-0.002604 0.000716 -7.3e-05
-0.002512 0.000756 -0.000111
-0.002548 0.000741 -9e-05
-0.002793 0.000498 1e-06
-0.002477 1e-06 -0.000119
-0.002477 -1e-06 -9.4e-05
-0.002465 1e-06 -4.6e-05
-0.00246 2e-06 -2.2e-05
-0.002455 3e-06 2e-06
-0.002456 0.000605 -0.001436
-0.002443 2e-06 7.5e-05
-0.00244 3e-06 0.0001
-0.002433 4e-06 0.000124
-0.002429 4e-06 0.000148
-0.002429 3e-06 0.000173
-0.002424 3e-06 0.000197
-0.002455 0.000686 -0.000351
-0.002735 0.000465 -0.000513
-0.002065 -2.8e-05 0.000292
-0.002392 3e-06 0.000417
-0.00239 2e-06 0.000441
-0.002387 2e-06 0.000466
-0.002354 1.1e-05 0.00056
-0.002349 1.1e-05 0.000584
-0.002347 1e-05 0.000609
-0.002349 8e-06 0.000634
-0.00235 6e-06 0.000659
-0.002355 2e-06 0.000685
-0.00234 0.0 0.000807
-0.002336 1e-06 0.000832
-0.002323 -0.0 0.000929
-0.002319 0.0 0.000954
-0.002911 0.000396 -0.000736
-0.002411 0.00066 -0.000221
-0.002735 0.000492 -0.000513
-0.002774 0.000472 -0.000544
-0.002456 0.000713 -0.000351
-0.001871 0.00072 -0.001608
-0.002416 2e-06 -0.000128
-0.002408 4e-06 -0.000104
-0.002404 4e-06 -8e-05
-0.002401 4e-06 -5.6e-05
-0.002399 3e-06 -3.1e-05
-0.002395 3e-06 -7e-06
-0.002391 4e-06 1.8e-05
-0.002389 3e-06 4.2e-05
-0.002385 3e-06 6.7e-05
-0.002383 3e-06 9.1e-05
-0.002379 3e-06 0.000116
-0.002376 2e-06 0.00014
-0.002373 2e-06 0.000165
-0.002369 2e-06 0.000189
-0.002689 0.000542 -0.000482
-0.00243 0.000699 -0.000323
-0.002584 0.000622 -0.000419
-0.002686 0.000489 -0.000482
-0.002069 -2.8e-05 0.000268
-0.002073 -2.8e-05 0.000244
-0.002346 1e-06 0.00036
-0.002342 1e-06 0.000384
-0.002339 1e-06 0.000409
-0.002334 1e-06 0.000433
-0.00233 2e-06 0.000457
-0.002327 1e-06 0.000482
-0.002322 2e-06 0.000506
-0.002298 3e-06 0.000652
-0.002294 3e-06 0.000676
-0.00229 3e-06 0.0007
-0.002286 4e-06 0.000724
-0.002283 3e-06 0.000749
-0.002275 4e-06 0.000797
-0.00227 3e-06 0.000822
-0.00226 4e-06 0.000895
-0.002416 0.00066 -0.000197
-0.002423 0.000657 -0.000173
-0.002455 0.000727 -0.000128
-0.002429 0.000727 -0.000323
-0.002584 0.000649 -0.000419
-0.002891 0.000401 -0.000808
-0.002362 0.0 -0.000136
-0.002362 -1e-06 -0.000111
-0.002358 -1e-06 -8.7e-05
-0.002355 -2e-06 -6.2e-05
-0.00235 -2e-06 -1.3e-05
-0.002344 -2e-06 1.1e-05
-0.002341 -1e-06 3.5e-05
-0.002336 -1e-06 5.9e-05
-0.002337 -2e-06 8.4e-05
-0.002329 -1e-06 0.000108
-0.002327 -2e-06 0.000133
-0.002323 -1e-06 0.000157
-0.00241 0.000684 -0.000271
-0.002736 0.000519 -0.000513
-0.001778 0.000741 -0.001917
-0.002076 -2.8e-05 0.000219
-0.002293 -1e-06 0.000352
-0.00229 -1e-06 0.000376
-0.002276 -2e-06 0.000474
-0.002271 -1e-06 0.000498
-0.002269 -2e-06 0.000523
-0.002265 -2e-06 0.000547
-0.002078 -2.7e-05 0.000195
-0.002256 -1e-06 0.000595
-0.002253 -1e-06 0.00062
-0.00225 -1e-06 0.000644
-0.002248 -2e-06 0.000669
-0.00225 -2e-06 0.000694
-0.002244 -2e-06 0.000718
-0.002241 -4e-06 0.000742
-0.002233 -2e-06 0.000766
-0.002228 -1e-06 0.00079
-0.002224 -1e-06 0.000815
-0.002213 1e-06 0.000863
-0.002208 1e-06 0.000887
-0.002203 2e-06 0.000911
-0.002197 3e-06 0.000935
-0.002081 -2.7e-05 0.00017
-0.002898 0.000481 -0.000784
-0.002436 0.000653 -0.00015
-0.002084 -2.7e-05 0.000146
-0.002295 2e-06 -9.6e-05
-0.002291 1e-06 -7.2e-05
-0.002087 -2.6e-05 0.000121
-0.002285 1e-06 -2.3e-05
-0.002283 0.0 1e-06
-0.002263 3e-06 9.8e-05
-0.00226 2e-06 0.000123
-0.002257 2e-06 0.000147
-0.002409 0.000687 -0.000246
-0.002987 0.000471 0.000123
-0.002243 2e-06 0.000245
-0.002239 2e-06 0.000269
-0.002234 3e-06 0.000293
-0.002219 3e-06 0.00039
-0.002214 4e-06 0.000415
-0.00221 4e-06 0.000439
-0.002208 3e-06 0.000464
-0.002206 2e-06 0.000488
-0.002201 3e-06 0.000512
-0.002198 2e-06 0.000537
-0.002194 1e-06 0.000586
-0.002191 1e-06 0.00061
-0.002187 1e-06 0.000635
-0.002183 1e-06 0.000659
-0.002169 1e-06 0.000757
-0.002163 2e-06 0.000781
-0.002165 -2e-06 0.000831
-0.00216 -1e-06 0.000855
-0.002155 -1e-06 0.000879
-0.002155 -3e-06 0.000904
-0.00215 -2e-06 0.000928
-0.002273 -0.0 -0.000324
-0.00227 -0.0 -0.000299
-0.002262 2e-06 -0.000276
-0.002259 1e-06 -0.000251
-0.00225 2e-06 -0.000203
-0.002248 1e-06 -0.000178
-0.002712 0.000614 -3.8e-05
-0.002662 0.000582 -5.6e-05
-0.002638 0.000595 -0.000451
-0.002688 0.00057 -0.000482
-0.002193 0.000737 -0.001048
-0.00222 3e-06 -8e-06
-0.002215 3e-06 1.6e-05
-0.002212 3e-06 4.1e-05
-0.00221 2e-06 6.5e-05
-0.002207 2e-06 9e-05
-0.002203 2e-06 0.000114
-0.0022 1e-06 0.000138
-0.002898 0.000453 6.1e-05
-0.002409 0.00066 -0.000246
-0.002416 0.000653 -0.000296
-0.002186 1e-06 0.000236
-0.002183 1e-06 0.00026
-0.00218 1e-06 0.000285
-0.002166 1e-06 0.000382
-0.002162 1e-06 0.000407
-0.002159 1e-06 0.000431
-0.002155 1e-06 0.000455
-0.002151 1e-06 0.00048
-0.002147 1e-06 0.000504
-0.002143 1e-06 0.000529
-0.002137 2e-06 0.000553
-0.002134 2e-06 0.000577
-0.002129 3e-06 0.000601
-0.002126 3e-06 0.000625
-0.002121 3e-06 0.00065
-0.002119 2e-06 0.000674
-0.002115 3e-06 0.000699
-0.002089 -2.6e-05 9.7e-05
-0.002096 3e-06 0.00082
-0.002093 3e-06 0.000845
-0.002091 2e-06 0.000869
-0.002088 1e-06 0.000894
-0.002085 1e-06 0.000918
-0.002208 3e-06 -0.000334
-0.002204 4e-06 -0.000309
-0.0022 4e-06 -0.000285
-0.002198 3e-06 -0.00026
-0.002196 2e-06 -0.000236
-0.002193 2e-06 -0.000211
-0.002191 1e-06 -0.000187
-0.002188 1e-06 -0.000162
-0.002876 0.000486 -0.000841
-0.002986 0.00058 0.000123
-0.002898 0.000427 -0.000784
-0.002915 0.000423 -0.000712
-0.002192 0.000699 -0.001103
-0.002891 0.000655 -0.000659
-0.002171 -3e-06 9e-06
-0.002169 -4e-06 3.4e-05
-0.002165 -4e-06 5.8e-05
-0.002163 -4e-06 8.3e-05
-0.00216 -5e-06 0.000107
-0.002157 -5e-06 0.000132
-0.002154 -5e-06 0.000156
-0.00285 0.000494 -0.000857
-0.002148 -6e-06 0.000205
-0.002145 -6e-06 0.00023
-0.002141 -6e-06 0.000254
-0.002137 -6e-06 0.000278
-0.002134 -6e-06 0.000303
-0.00213 -6e-06 0.000327
-0.002127 -7e-06 0.000352
-0.002124 -7e-06 0.000376
-0.002119 -6e-06 0.0004
-0.002115 -6e-06 0.000425
-0.002112 -6e-06 0.000449
-0.002107 -6e-06 0.000473
-0.002104 -5e-06 0.000498
-0.002099 -5e-06 0.000522
-0.002095 -5e-06 0.000546
-0.00209 -4e-06 0.00057
-0.002085 -4e-06 0.000595
-0.002081 -3e-06 0.000619
-0.002076 -3e-06 0.000643
-0.002071 -3e-06 0.000667
-0.002068 -2e-06 0.000691
-0.002054 -1e-06 0.000764
-0.002048 0.0 0.000788
-0.002044 0.0 0.000812
-0.002039 1e-06 0.000837
-0.002036 1e-06 0.000861
-0.00203 1e-06 0.000885
-0.002027 1e-06 0.000909
-0.002905 0.000452 -0.00076
-0.002156 -1e-06 -0.000317
-0.002155 -2e-06 -0.000292
-0.002152 -3e-06 -0.000267
-0.002152 -4e-06 -0.000243
-0.002149 -5e-06 -0.000218
-0.00286 0.000726 -0.00063
-0.002829 0.000742 -0.000601
-0.002516 0.000625 -0.001625
-0.002355 0.000725 -0.001176
-0.002456 0.000578 -0.001436
-0.002794 0.000579 1e-06
-0.002892 0.000628 -0.000659
-0.002776 0.000716 -0.000544
-0.002524 0.000626 -0.001602
-0.002129 -1.2e-05 2.8e-05
-0.002127 -1.3e-05 5.3e-05
-0.002125 -1.4e-05 7.7e-05
-0.002122 -1.4e-05 0.000102
-0.002119 -1.4e-05 0.000126
-0.002116 -1.5e-05 0.000151
-0.002113 -1.5e-05 0.000175
-0.002111 -1.6e-05 0.0002
-0.002107 -1.5e-05 0.000224
-0.002104 -1.6e-05 0.000248
-0.0021 -1.6e-05 0.000273
-0.002097 -1.6e-05 0.000297
-0.002094 -1.6e-05 0.000322
-0.00209 -1.6e-05 0.000346
-0.002086 -1.6e-05 0.00037
-0.002083 -1.6e-05 0.000395
-0.002079 -1.6e-05 0.000419
-0.002074 -1.5e-05 0.000443
-0.002069 -1.5e-05 0.000467
-0.002065 -1.5e-05 0.000492
-0.002061 -1.4e-05 0.000516
-0.002056 -1.4e-05 0.00054
-0.002051 -1.3e-05 0.000564
-0.002047 -1.3e-05 0.000589
-0.002042 -1.2e-05 0.000613
-0.002037 -1.2e-05 0.000637
-0.002017 -9e-06 0.000734
-0.00201 -8e-06 0.000758
-0.002007 -7e-06 0.000782
-0.002 -6e-06 0.000806
-0.001995 -6e-06 0.00083
-0.002889 0.000384 -0.000658
-0.002864 0.000468 4.1e-05
-0.002893 0.000624 -0.000795
-0.002202 0.000742 -0.001
-0.002863 0.000425 -0.00063
-0.002457 0.000506 -0.001717
-0.002928 0.000468 8.2e-05
-0.002522 0.000625 -0.000385
-0.002806 0.000483 -0.000573
-0.002736 0.000573 -0.000514
-0.002987 0.000498 0.000123
-0.002898 0.000454 -0.000784
-0.002754 0.000596 -1.9e-05
-0.002806 0.000537 -0.000573
-0.002837 0.000494 -0.000602
-0.002096 -2.4e-05 2.3e-05
-0.002094 -2.5e-05 4.8e-05
-0.002092 -2.5e-05 7.2e-05
-0.002523 0.000571 -0.000385
-0.002458 0.000603 -0.000352
-0.002429 0.000618 -0.000323
-0.002416 0.000626 -0.000296
-0.00241 0.00063 -0.000271
-0.002408 0.000633 -0.000246
-0.002411 0.000633 -0.000221
-0.002415 0.000633 -0.000197
-0.002423 0.00063 -0.000173
-0.002435 0.000626 -0.00015
-0.002455 0.000618 -0.000128
-0.002487 0.000605 -0.000107
-0.002546 0.000579 -9e-05
-0.002605 0.000553 -7.3e-05
-0.002663 0.000527 -5.6e-05
-0.002712 0.000506 -3.8e-05
-0.002756 0.000486 -1.9e-05
-0.002793 0.000471 1e-06
-0.002829 0.000455 2.1e-05
-0.002864 0.00044 4.1e-05
-0.002897 0.000426 6.1e-05
-0.002929 0.000413 8.2e-05
-0.00296 0.0004 0.000102
-0.002988 0.000389 0.000123
-0.002652 0.000651 -0.000904
-0.002608 0.000668 -0.000911
-0.002736 0.000591 -0.000887
-0.002519 0.00057 -0.001626
-0.002378 0.000742 -0.001321
-0.002842 0.000688 -0.000854
-0.00289 0.000347 -0.000808
-0.002897 0.000345 -0.000784
-0.002904 0.000344 -0.00076
-0.00291 0.000343 -0.000736
-0.002915 0.000342 -0.000712
-0.002911 0.000345 -0.000686
-0.00289 0.000357 -0.000659
-0.002862 0.000371 -0.00063
-0.002836 0.000385 -0.000602
-0.002805 0.000401 -0.000573
-0.002774 0.000418 -0.000543
-0.002734 0.000438 -0.000513
-0.002687 0.000462 -0.000482
-0.002584 0.000513 -0.000418
-0.002522 0.000544 -0.000385
-0.002459 0.000575 -0.000352
-0.002429 0.000591 -0.000323
-0.002415 0.000599 -0.000296
-0.002409 0.000603 -0.00027
-0.002408 0.000606 -0.000245
-0.002411 0.000606 -0.000221
-0.002415 0.000606 -0.000197
-0.002423 0.000603 -0.000173
-0.002435 0.000599 -0.00015
-0.002455 0.000591 -0.000127
-0.002487 0.000578 -0.000107
-0.002605 0.000526 -7.3e-05
-0.002661 0.0005 -5.6e-05
-0.002711 0.000479 -3.8e-05
-0.002756 0.000459 -1.9e-05
-0.002793 0.000443 1e-06
-0.002831 0.000427 2.1e-05
-0.002865 0.000413 4.1e-05
-0.002899 0.000398 6.1e-05
-0.002929 0.000386 8.2e-05
-0.00296 0.000373 0.000102
-0.002988 0.000362 0.000123
-0.002652 0.000623 -0.000904
-0.00256 0.000687 -0.000917
-0.002521 0.00047 -0.001573
-0.002558 0.000715 -0.000916
-0.002407 0.000722 -0.001361
-0.002737 0.000726 -0.000887
-0.002898 0.000318 -0.000784
-0.002905 0.000316 -0.00076
-0.002911 0.000315 -0.000736
-0.002915 0.000315 -0.000712
-0.00291 0.000319 -0.000686
-0.00289 0.00033 -0.000658
-0.002862 0.000344 -0.00063
-0.002836 0.000358 -0.000601
-0.002806 0.000374 -0.000573
-0.002774 0.000391 -0.000543
-0.002733 0.000411 -0.000513
-0.002686 0.000435 -0.000482
-0.002638 0.000459 -0.000451
-0.002585 0.000485 -0.000419
-0.002456 0.000549 -0.000351
-0.002429 0.000564 -0.000323
-0.002415 0.000572 -0.000296
-0.002409 0.000576 -0.00027
-0.002408 0.000578 -0.000245
-0.00241 0.000579 -0.000221
-0.002415 0.000578 -0.000197
-0.002423 0.000576 -0.000173
-0.002435 0.000572 -0.00015
-0.002455 0.000564 -0.000128
-0.002485 0.000551 -0.000107
-0.002606 0.000498 -7.3e-05
-0.002662 0.000473 -5.6e-05
-0.002712 0.000451 -3.8e-05
-0.002756 0.000432 -1.9e-05
-0.002793 0.000416 1e-06
-0.00283 0.0004 2.1e-05
-0.002865 0.000386 4.1e-05
-0.002898 0.000371 6.1e-05
-0.002929 0.000359 8.2e-05
-0.00296 0.000346 0.000102
-0.002988 0.000335 0.000123
-0.002374 0.000581 -0.001319
-0.002608 0.00064 -0.000911
-0.002474 0.000591 -0.001472
-0.002608 0.000695 -0.000911
-0.002696 0.000688 -0.000896
-0.001841 0.000718 -0.002099
-0.002898 0.000291 -0.000784
-0.002905 0.000289 -0.00076
-0.002911 0.000288 -0.000736
-0.002915 0.000288 -0.000712
-0.002911 0.000291 -0.000686
-0.00289 0.000303 -0.000658
-0.002863 0.000317 -0.00063
-0.002836 0.000331 -0.000601
-0.002806 0.000347 -0.000573
-0.002774 0.000363 -0.000543
-0.002733 0.000384 -0.000513
-0.002685 0.000408 -0.000482
-0.002636 0.000433 -0.00045
-0.002586 0.000458 -0.000419
-0.002457 0.000522 -0.000351
-0.002428 0.000537 -0.000323
-0.002415 0.000545 -0.000296
-0.002409 0.000549 -0.00027
-0.002408 0.000551 -0.000245
-0.00241 0.000552 -0.000221
-0.002415 0.000551 -0.000197
-0.002423 0.000549 -0.000173
-0.002435 0.000544 -0.00015
-0.002455 0.000537 -0.000128
-0.002487 0.000524 -0.000107
-0.002545 0.000498 -9e-05
-0.002607 0.00047 -7.3e-05
-0.002665 0.000445 -5.6e-05
-0.002713 0.000423 -3.8e-05
-0.002756 0.000405 -1.9e-05
-0.002793 0.000389 1e-06
-0.002831 0.000373 2.1e-05
-0.002865 0.000358 4.1e-05
-0.002898 0.000344 6.1e-05
-0.002929 0.000331 8.2e-05
-0.00296 0.000319 0.000102
-0.002987 0.000307 0.000123
-0.002288 0.000749 -0.0012
-0.002776 0.000521 -0.000878
-0.002193 0.000741 -0.001023
-0.002407 0.000695 -0.001361
-0.002608 0.000722 -0.000911
-0.002185 0.000713 -0.001712
-0.002898 0.000264 -0.000784
-0.002904 0.000262 -0.00076
-0.00291 0.000261 -0.000736
-0.002915 0.00026 -0.000712
-0.00291 0.000264 -0.000686
-0.002889 0.000276 -0.000658
-0.002863 0.00029 -0.00063
-0.002835 0.000304 -0.000601
-0.002806 0.00032 -0.000573
-0.002773 0.000336 -0.000543
-0.002732 0.000357 -0.000513
-0.002687 0.00038 -0.000482
-0.002635 0.000406 -0.00045
-0.002457 0.000495 -0.000351
-0.002429 0.000509 -0.000323
-0.002415 0.000518 -0.000296
-0.002409 0.000522 -0.00027
-0.002408 0.000524 -0.000245
-0.00241 0.000525 -0.000221
-0.002415 0.000524 -0.000197
-0.002423 0.000522 -0.000173
-0.002436 0.000517 -0.00015
-0.002455 0.00051 -0.000127
-0.002487 0.000496 -0.000107
-0.002545 0.000471 -9e-05
-0.002607 0.000443 -7.3e-05
-0.002665 0.000417 -5.6e-05
-0.002713 0.000396 -3.8e-05
-0.002757 0.000377 -1.9e-05
-0.002794 0.000361 1e-06
-0.00283 0.000346 2.1e-05
-0.002866 0.000331 4.1e-05
-0.002897 0.000318 6.1e-05
-0.00293 0.000304 8.2e-05
-0.00296 0.000292 0.000102
-0.002987 0.00028 0.000123
-0.002313 0.000741 -0.001184
-0.002308 0.000734 -0.001236
-0.002695 0.000552 -0.000896
-0.002873 0.000596 -0.00084
-0.002872 0.000624 -0.00084
-0.002512 0.000654 -0.001623
-0.002898 0.000236 -0.000784
-0.002905 0.000235 -0.00076
-0.002911 0.000234 -0.000736
-0.002915 0.000233 -0.000711
-0.00291 0.000237 -0.000686
-0.00289 0.000248 -0.000658
-0.002863 0.000262 -0.00063
-0.002835 0.000277 -0.000601
-0.002806 0.000292 -0.000573
-0.002773 0.000309 -0.000543
-0.002732 0.00033 -0.000513
-0.002632 0.00038 -0.00045
-0.002583 0.000405 -0.000418
-0.002457 0.000468 -0.000351
-0.002429 0.000482 -0.000323
-0.002415 0.00049 -0.000296
-0.002409 0.000495 -0.00027
-0.002408 0.000497 -0.000245
-0.00241 0.000497 -0.000221
-0.002415 0.000497 -0.000197
-0.002423 0.000495 -0.000173
-0.002436 0.00049 -0.00015
-0.002455 0.000483 -0.000127
-0.002486 0.000469 -0.000107
-0.002665 0.00039 -5.6e-05
-0.002714 0.000369 -3.8e-05
-0.002757 0.00035 -1.9e-05
-0.002794 0.000334 1e-06
-0.002831 0.000319 2.1e-05
-0.002866 0.000304 4e-05
-0.002898 0.00029 6.1e-05
-0.002929 0.000277 8.1e-05
-0.00296 0.000265 0.000101
-0.002987 0.000253 0.000123
-0.002527 0.000489 -0.001603
-0.002342 0.000603 -0.001278
-0.002408 0.000613 -0.001361
-0.002695 0.000661 -0.000896
-0.002737 0.000672 -0.000887
-0.002135 0.000733 -0.001703
-0.002898 0.000209 -0.000784
-0.002904 0.000208 -0.00076
-0.00291 0.000207 -0.000736
-0.002914 0.000207 -0.000711
-0.002909 0.00021 -0.000686
-0.002889 0.000221 -0.000658
-0.002864 0.000235 -0.00063
-0.002835 0.00025 -0.000601
-0.002806 0.000265 -0.000572
-0.002773 0.000282 -0.000543
-0.002731 0.000304 -0.000513
-0.002687 0.000326 -0.000482
-0.002634 0.000352 -0.00045
-0.002582 0.000378 -0.000418
-0.002458 0.00044 -0.000352
-0.002429 0.000455 -0.000323
-0.002415 0.000463 -0.000296
-0.002409 0.000468 -0.00027
-0.002408 0.00047 -0.000245
-0.00241 0.00047 -0.000221
-0.002414 0.00047 -0.000197
-0.002423 0.000467 -0.000173
-0.002435 0.000463 -0.00015
-0.002455 0.000455 -0.000127
-0.002487 0.000442 -0.000107
-0.002545 0.000416 -9e-05
-0.002665 0.000363 -5.6e-05
-0.002715 0.000341 -3.8e-05
-0.002757 0.000323 -1.9e-05
-0.002794 0.000307 1e-06
-0.002831 0.000291 2.1e-05
-0.002866 0.000276 4.1e-05
-0.002898 0.000263 6.1e-05
-0.002929 0.00025 8.1e-05
-0.002961 0.000237 0.000101
-0.002507 0.000489 -0.001648
-0.00252 0.000488 -0.001626
-0.002374 0.00069 -0.001319
-0.002652 0.000678 -0.000904
-0.002814 0.000643 -0.000868
-0.002321 0.000659 -0.001731
-0.002898 0.000182 -0.000784
-0.002904 0.000181 -0.00076
-0.00291 0.00018 -0.000736
-0.002913 0.00018 -0.000711
-0.002909 0.000183 -0.000686
-0.002889 0.000194 -0.000658
-0.002864 0.000208 -0.00063
-0.002835 0.000223 -0.000601
-0.002806 0.000238 -0.000572
-0.002773 0.000255 -0.000543
-0.002731 0.000276 -0.000513
-0.002687 0.000299 -0.000482
-0.002635 0.000324 -0.00045
-0.002581 0.000351 -0.000418
-0.002456 0.000413 -0.000351
-0.002428 0.000428 -0.000323
-0.002415 0.000436 -0.000296
-0.002409 0.000441 -0.00027
-0.002407 0.000443 -0.000245
-0.00241 0.000443 -0.000221
-0.002414 0.000443 -0.000196
-0.002423 0.00044 -0.000173
-0.002436 0.000436 -0.00015
-0.002455 0.000428 -0.000127
-0.002487 0.000415 -0.000107
-0.002545 0.000389 -9e-05
-0.002607 0.000362 -7.3e-05
-0.002663 0.000337 -5.6e-05
-0.002714 0.000314 -3.8e-05
-0.002756 0.000296 -1.9e-05
-0.002794 0.00028 1e-06
-0.002831 0.000264 2.1e-05
-0.002866 0.000249 4.1e-05
-0.002898 0.000236 6.1e-05
-0.00293 0.000223 8.1e-05
-0.002961 0.00021 0.000101
-0.002887 0.000513 -0.000819
-0.002894 0.000514 -0.000795
-0.002491 0.000496 -0.001506
-0.002893 0.000596 -0.000795
-0.0029 0.000625 -0.000771
-0.002696 0.000715 -0.000896
-0.002897 0.000155 -0.000783
-0.002903 0.000154 -0.00076
-0.002908 0.000153 -0.000735
-0.002911 0.000154 -0.000711
-0.002908 0.000157 -0.000686
-0.002889 0.000167 -0.000658
-0.002863 0.000181 -0.00063
-0.002835 0.000195 -0.000601
-0.002806 0.000211 -0.000572
-0.002773 0.000228 -0.000543
-0.002731 0.000249 -0.000513
-0.002635 0.000297 -0.00045
-0.002583 0.000324 -0.000418
-0.002455 0.000387 -0.000351
-0.002428 0.000401 -0.000323
-0.002415 0.000409 -0.000296
-0.002409 0.000413 -0.00027
-0.002407 0.000416 -0.000245
-0.00241 0.000416 -0.000221
-0.002414 0.000415 -0.000196
-0.002423 0.000413 -0.000173
-0.002436 0.000408 -0.00015
-0.002455 0.000401 -0.000127
-0.002487 0.000388 -0.000107
-0.002546 0.000361 -9e-05
-0.002608 0.000334 -7.3e-05
-0.002662 0.00031 -5.6e-05
-0.002714 0.000287 -3.8e-05
-0.002756 0.000269 -1.9e-05
-0.002794 0.000253 1e-06
-0.00283 0.000237 2.1e-05
-0.002866 0.000222 4.1e-05
-0.002897 0.000209 6.1e-05
-0.002929 0.000196 8.1e-05
-0.002961 0.000183 0.000101
-0.002986 0.000172 0.000124
-0.002199 0.000756 -0.001079
-0.00285 0.000521 -0.000857
-0.002374 0.000635 -0.001319
-0.002885 0.000595 -0.000819
-0.002905 0.000627 -0.000747
-0.002737 0.000699 -0.000888
-0.002894 0.00013 -0.000783
-0.0029 0.000128 -0.000759
-0.002905 0.000128 -0.000735
-0.002907 0.000128 -0.00071
-0.002905 0.000131 -0.000685
-0.002889 0.00014 -0.000658
-0.002863 0.000153 -0.00063
-0.002835 0.000169 -0.000601
-0.002806 0.000184 -0.000572
-0.002773 0.000201 -0.000543
-0.002732 0.000222 -0.000513
-0.002685 0.000245 -0.000482
-0.002636 0.00027 -0.00045
-0.002581 0.000297 -0.000418
-0.002518 0.000328 -0.000384
-0.002456 0.000359 -0.000351
-0.002428 0.000374 -0.000323
-0.002415 0.000382 -0.000296
-0.002409 0.000386 -0.00027
-0.002408 0.000388 -0.000245
-0.00241 0.000389 -0.000221
-0.002414 0.000388 -0.000197
-0.002423 0.000386 -0.000173
-0.002435 0.000381 -0.00015
-0.002455 0.000374 -0.000127
-0.002487 0.00036 -0.000107
-0.002545 0.000334 -9e-05
-0.002662 0.000283 -5.6e-05
-0.002716 0.000259 -3.8e-05
-0.002756 0.000242 -1.9e-05
-0.002795 0.000225 1e-06
-0.00283 0.00021 2.1e-05
-0.002866 0.000195 4.1e-05
-0.002897 0.000182 6.2e-05
-0.002929 0.000168 8.2e-05
-0.00296 0.000156 0.000102
-0.002984 0.000146 0.000124
-0.001826 0.000709 -0.002054
-0.001784 0.000747 -0.001889
-0.002696 0.000633 -0.000896
-0.0029 0.000598 -0.000771
-0.00187 0.000543 -0.002285
-0.002776 0.000684 -0.000878
-0.002888 0.000105 -0.000782
-0.002894 0.000104 -0.000758
-0.002899 0.000103 -0.000734
-0.002901 0.000104 -0.00071
-0.0029 0.000106 -0.000685
-0.002888 0.000113 -0.000658
-0.002863 0.000127 -0.00063
-0.002835 0.000141 -0.000601
-0.002806 0.000156 -0.000572
-0.002774 0.000173 -0.000543
-0.002731 0.000195 -0.000513
-0.002687 0.000217 -0.000482
-0.002634 0.000244 -0.00045
-0.00258 0.00027 -0.000418
-0.002517 0.000301 -0.000384
-0.002455 0.000332 -0.000351
-0.002428 0.000347 -0.000323
-0.002415 0.000355 -0.000296
-0.002409 0.000359 -0.00027
-0.002407 0.000361 -0.000245
-0.00241 0.000362 -0.000221
-0.002414 0.000361 -0.000197
-0.002423 0.000359 -0.000173
-0.002436 0.000354 -0.00015
-0.002455 0.000347 -0.000127
-0.002487 0.000333 -0.000107
-0.002547 0.000307 -9e-05
-0.002663 0.000255 -5.6e-05
-0.002716 0.000232 -3.8e-05
-0.002756 0.000215 -1.9e-05
-0.002793 0.000199 1e-06
-0.002831 0.000183 2.1e-05
-0.002866 0.000168 4.1e-05
-0.002897 0.000155 6.2e-05
-0.002929 0.000141 8.2e-05
-0.002959 0.000129 0.000102
-0.00298 0.00012 0.000125
-0.0022 0.00075 -0.001107
-0.001809 0.000675 -0.002007
-0.002776 0.000603 -0.000878
-0.002492 0.000573 -0.001668
-0.002492 0.000631 -0.001507
-0.00288 0.000652 -0.000817
-0.002777 0.000711 -0.000878
-0.002885 8.1e-05 -0.000757
-0.00289 8.1e-05 -0.000733
-0.002893 8.1e-05 -0.000708
-0.002893 8.2e-05 -0.000683
-0.002885 8.8e-05 -0.000657
-0.002863 9.9e-05 -0.00063
-0.002835 0.000114 -0.000601
-0.002806 0.000129 -0.000572
-0.002773 0.000146 -0.000543
-0.002731 0.000167 -0.000513
-0.002686 0.00019 -0.000482
-0.002634 0.000216 -0.00045
-0.002581 0.000243 -0.000418
-0.002456 0.000305 -0.000351
-0.002428 0.00032 -0.000322
-0.002414 0.000327 -0.000296
-0.002408 0.000332 -0.00027
-0.002407 0.000334 -0.000245
-0.00241 0.000335 -0.000221
-0.002414 0.000334 -0.000196
-0.002423 0.000332 -0.000173
-0.002436 0.000327 -0.00015
-0.002455 0.000319 -0.000127
-0.002487 0.000306 -0.000107
-0.002546 0.00028 -9e-05
-0.002607 0.000253 -7.3e-05
-0.002716 0.000205 -3.8e-05
-0.002756 0.000188 -1.9e-05
-0.002795 0.000171 1e-06
-0.002831 0.000155 2.1e-05
-0.002865 0.000141 4.1e-05
-0.002897 0.000127 6.2e-05
-0.002928 0.000114 8.2e-05
-0.002958 0.000102 0.000103
-0.002975 9.6e-05 0.000125
-0.002192 0.000715 -0.001022
-0.002435 0.00054 -0.0014
-0.002406 0.000559 -0.00136
-0.002527 0.000462 -0.001603
-0.002526 0.000571 -0.001603
-0.002518 0.000597 -0.001626
-0.002848 0.000658 -0.000856
-0.002446 0.000676 -0.001708
-0.002513 0.000687 -0.001597
-0.002861 0.000684 -0.000835
-0.002402 0.000493 -0.001735
-0.002882 6e-05 -0.000682
-0.002877 6.4e-05 -0.000656
-0.002861 7.3e-05 -0.000629
-0.002835 8.7e-05 -0.000601
-0.002805 0.000102 -0.000572
-0.002774 0.000119 -0.000543
-0.002733 0.00014 -0.000513
-0.002686 0.000163 -0.000482
-0.002635 0.000189 -0.00045
-0.002519 0.000246 -0.000384
-0.002456 0.000278 -0.000351
-0.002428 0.000293 -0.000322
-0.002414 0.0003 -0.000296
-0.002408 0.000305 -0.00027
-0.002407 0.000307 -0.000245
-0.002409 0.000308 -0.000221
-0.002414 0.000307 -0.000196
-0.002423 0.000304 -0.000173
-0.002435 0.0003 -0.000149
-0.002455 0.000292 -0.000127
-0.002487 0.000279 -0.000107
-0.002546 0.000253 -9e-05
-0.002606 0.000226 -7.3e-05
-0.002716 0.000178 -3.8e-05
-0.002756 0.00016 -1.9e-05
-0.002795 0.000144 1e-06
-0.002831 0.000128 2.1e-05
-0.002865 0.000114 4.1e-05
-0.002897 0.0001 6.2e-05
-0.002928 8.7e-05 8.2e-05
-0.002954 7.7e-05 0.000103
-0.002966 7.2e-05 0.000127
-0.002201 0.000715 -0.001
-0.002187 0.000712 -0.001047
-0.002493 0.000464 -0.001668
-0.002507 0.000591 -0.00154
-0.002435 0.000675 -0.0014
-0.002777 0.000657 -0.000878
-0.002894 0.000687 -0.000742
-0.002504 0.000686 -0.00162
-0.002493 0.000712 -0.001507
-0.00252 0.000656 -0.0016
-0.002488 0.000656 -0.001666
-0.002501 0.000655 -0.001645
-0.002864 4.3e-05 -0.000655
-0.002855 4.9e-05 -0.000629
-0.002833 6.1e-05 -0.000601
-0.002806 7.5e-05 -0.000572
-0.002773 9.2e-05 -0.000543
-0.002733 0.000113 -0.000513
-0.002635 0.000161 -0.00045
-0.002579 0.00019 -0.000417
-0.00252 0.000219 -0.000385
-0.002456 0.00025 -0.000351
-0.002428 0.000265 -0.000322
-0.002414 0.000273 -0.000296
-0.002408 0.000278 -0.00027
-0.002407 0.00028 -0.000245
-0.00241 0.00028 -0.000221
-0.002414 0.00028 -0.000196
-0.002423 0.000277 -0.000173
-0.002435 0.000273 -0.000149
-0.002456 0.000265 -0.000127
-0.002487 0.000252 -0.000107
-0.002545 0.000226 -9e-05
-0.002605 0.000199 -7.3e-05
-0.002666 0.000172 -5.6e-05
-0.002715 0.000151 -3.8e-05
-0.002756 0.000133 -1.9e-05
-0.002794 0.000117 1e-06
-0.002831 0.000101 2.1e-05
-0.002864 8.7e-05 4.1e-05
-0.002896 7.4e-05 6.2e-05
-0.002926 6.1e-05 8.2e-05
-0.002945 5.3e-05 0.000105
-0.002814 0.000534 -0.000868
-0.002303 0.000689 -0.00091
-0.00184 0.000691 -0.002099
-0.002511 0.000676 -0.001539
-0.001857 0.000634 -0.002177
-0.002456 0.00066 -0.001437
-0.002868 0.000653 -0.000838
-0.002486 0.000508 -0.001677
-0.002814 0.000697 -0.000868
-0.002434 0.000703 -0.0014
-0.002522 0.000633 -0.001573
-0.002476 0.000671 -0.001472
-0.002845 2.5e-05 -0.000652
-0.00284 2.8e-05 -0.000626
-0.002826 3.7e-05 -0.0006
-0.002803 4.9e-05 -0.000572
-0.002772 6.5e-05 -0.000543
-0.002734 8.5e-05 -0.000513
-0.002635 0.000134 -0.00045
-0.002578 0.000163 -0.000417
-0.002518 0.000193 -0.000384
-0.002455 0.000224 -0.000351
-0.002428 0.000238 -0.000322
-0.002414 0.000246 -0.000296
-0.002408 0.000251 -0.00027
-0.002407 0.000253 -0.000245
-0.00241 0.000253 -0.000221
-0.002414 0.000253 -0.000196
-0.002423 0.00025 -0.000173
-0.002435 0.000246 -0.000149
-0.002455 0.000238 -0.000127
-0.002487 0.000224 -0.000107
-0.002605 0.000172 -7.3e-05
-0.002665 0.000146 -5.6e-05
-0.002715 0.000123 -3.8e-05
-0.002753 0.000107 -1.8e-05
-0.002794 8.9e-05 1e-06
-0.002829 7.5e-05 2.1e-05
-0.002865 6e-05 4.1e-05
-0.002893 4.8e-05 6.2e-05
-0.002917 3.8e-05 8.4e-05
-0.00293 3.3e-05 0.000107
-0.002508 0.000537 -0.00154
-0.002521 0.000524 -0.001573
-0.00256 0.00066 -0.000917
-0.00187 0.000597 -0.002285
-0.002402 0.000656 -0.001737
-0.002186 0.000708 -0.001074
-0.001871 0.000533 -0.002318
-0.002493 0.000658 -0.001507
-0.002521 0.000661 -0.001573
-0.002559 0.000742 -0.000916
-0.001867 0.000582 -0.00225
-0.001827 0.000655 -0.002055
-0.002303 0.000743 -0.00091
-0.001426 0.000726 -0.002277
-0.002814 1.3e-05 -0.000623
-0.002808 1.8e-05 -0.000597
-0.002793 2.7e-05 -0.00057
-0.002769 3.9e-05 -0.000542
-0.002733 5.8e-05 -0.000513
-0.002632 0.000108 -0.000449
-0.002579 0.000135 -0.000417
-0.002455 0.000197 -0.000351
-0.002428 0.000211 -0.000322
-0.002414 0.000219 -0.000296
-0.002408 0.000223 -0.00027
-0.002407 0.000226 -0.000245
-0.002409 0.000226 -0.00022
-0.002414 0.000226 -0.000196
-0.002423 0.000223 -0.000173
-0.002435 0.000218 -0.000149
-0.002455 0.000211 -0.000127
-0.002487 0.000197 -0.000107
-0.002096 -2.3e-05 -4e-06
-0.002715 9.6e-05 -3.8e-05
-0.002753 8e-05 -1.8e-05
-0.002794 6.3e-05 1e-06
-0.002828 4.8e-05 2.1e-05
-0.00286 3.5e-05 4.2e-05
-0.002883 2.5e-05 6.3e-05
-0.002898 2e-05 8.6e-05
-0.002907 1.7e-05 0.00011
-0.002918 1.7e-05 0.000183
-0.002919 1.8e-05 0.000208
-0.002875 0.000513 -0.000841
-0.002527 0.000516 -0.001603
0.00045 -1.7e-05 0.002075
-0.002507 0.000462 -0.001648
-0.002901 0.00057 -0.000771
-0.002814 0.000616 -0.000868
-0.002456 0.000687 -0.001437
-0.002749 8e-06 -0.000763
-0.002752 8e-06 -0.000739
-0.002227 0.000712 -0.000957
-0.002763 8e-06 -0.000666
-0.002765 8e-06 -0.000641
-0.002769 8e-06 -0.000617
-0.002769 9e-06 -0.000592
-0.002766 1.2e-05 -0.000567
-0.002755 1.9e-05 -0.000541
-0.002728 3.3e-05 -0.000512
-0.002455 0.000169 -0.000351
-0.002427 0.000184 -0.000322
-0.002414 0.000192 -0.000296
-0.002408 0.000196 -0.00027
-0.002407 0.000198 -0.000245
-0.00241 0.000199 -0.00022
-0.002414 0.000199 -0.000196
-0.002422 0.000196 -0.000173
