0.00254 0.000397 -0.001594
0.002913 0.000554 -0.000722
0.00243 0.000749 0.000825
0.002704 0.000729 -0.000387
0.00292 0.000663 -0.000673
0.002872 0.000396 -0.000771
0.002839 0.000408 -0.000782
0.002804 0.00042 -0.000792
0.00277 0.000433 -0.000802
0.002732 0.000447 -0.000811
0.002692 0.000462 -0.00082
0.002649 0.000479 -0.000826
0.0026 0.000498 -0.00083
0.002553 0.000517 -0.000835
0.002501 0.000539 -0.000837
0.002445 0.000562 -0.000837
0.002386 0.000587 -0.000836
0.002336 0.000608 -0.000839
0.002304 0.000618 -0.000851
0.002281 0.000625 -0.000868
0.002265 0.000628 -0.000887
0.002252 0.000629 -0.000908
0.002242 0.000628 -0.000931
0.002235 0.000626 -0.000955
0.002231 0.000623 -0.00098
0.002232 0.000617 -0.001008
0.002241 0.000607 -0.00104
0.002272 0.000586 -0.001082
0.002332 0.000549 -0.001138
0.002381 0.000518 -0.001189
0.002423 0.000491 -0.001237
0.002453 0.00047 -0.001279
0.002481 0.00045 -0.001319
0.002505 0.000432 -0.001358
0.002527 0.000415 -0.001396
0.002548 0.000399 -0.001434
0.002565 0.000384 -0.001469
0.00258 0.000371 -0.001504
0.002577 0.000367 -0.00153
0.002566 0.000368 -0.001552
0.002553 0.000369 -0.001573
0.00254 0.00037 -0.001594
0.002688 0.000687 4e-05
0.002902 0.000471 0.000436
0.002792 0.000684 -0.000452
0.002894 0.000669 -0.000743
0.002872 0.000369 -0.000771
0.002839 0.000381 -0.000782
0.002805 0.000393 -0.000792
0.002769 0.000406 -0.000802
0.002732 0.000419 -0.000812
0.002693 0.000434 -0.00082
0.002649 0.000451 -0.000826
0.0026 0.000471 -0.00083
0.002553 0.00049 -0.000835
0.002501 0.000511 -0.000837
0.002446 0.000534 -0.000838
0.002387 0.000559 -0.000837
0.002335 0.00058 -0.000839
0.002303 0.000592 -0.000851
0.002281 0.000598 -0.000868
0.002265 0.000601 -0.000887
0.002252 0.000602 -0.000908
0.002242 0.000601 -0.000931
0.002235 0.000599 -0.000955
0.00223 0.000596 -0.00098
0.002232 0.00059 -0.001008
0.002242 0.00058 -0.00104
0.002381 0.000491 -0.001189
0.002423 0.000464 -0.001237
0.002453 0.000443 -0.001279
0.00248 0.000423 -0.001319
0.002504 0.000405 -0.001358
0.002527 0.000388 -0.001396
0.002548 0.000371 -0.001434
0.002566 0.000357 -0.00147
0.002581 0.000344 -0.001504
0.002577 0.00034 -0.00153
0.002565 0.000341 -0.001552
0.002553 0.000342 -0.001573
0.00254 0.000343 -0.001594
0.002925 0.000552 -0.000674
0.002671 0.000748 1.8e-05
0.002865 0.000646 -0.000514
0.002876 0.000676 -0.000765
0.002872 0.000342 -0.000771
0.002838 0.000354 -0.000782
0.002805 0.000366 -0.000792
0.00277 0.000378 -0.000802
0.002733 0.000392 -0.000812
0.002693 0.000407 -0.00082
0.002649 0.000424 -0.000826
0.002601 0.000444 -0.00083
0.002552 0.000463 -0.000834
0.002501 0.000484 -0.000837
0.002446 0.000507 -0.000838
0.002387 0.000532 -0.000837
0.002336 0.000553 -0.000839
0.002304 0.000564 -0.000852
0.002282 0.00057 -0.000868
0.002265 0.000573 -0.000887
0.002252 0.000574 -0.000909
0.002242 0.000574 -0.000931
0.002235 0.000572 -0.000955
0.00223 0.000569 -0.00098
0.002232 0.000563 -0.001008
0.002242 0.000552 -0.00104
0.002382 0.000463 -0.00119
0.002423 0.000437 -0.001237
0.002454 0.000415 -0.001279
0.00248 0.000396 -0.001319
0.002505 0.000378 -0.001358
0.002527 0.000361 -0.001396
0.002548 0.000344 -0.001434
0.002566 0.00033 -0.00147
0.00258 0.000317 -0.001504
0.002577 0.000313 -0.00153
0.002566 0.000313 -0.001552
0.002553 0.000315 -0.001573
0.00254 0.000316 -0.001594
0.002925 0.000586 -0.000574
0.00265 0.000729 -0.000354
0.002935 0.000607 -0.000601
0.002932 0.000634 -0.000625
0.002872 0.000315 -0.000771
0.002838 0.000327 -0.000782
0.002804 0.000339 -0.000792
0.00277 0.000351 -0.000802
0.002732 0.000365 -0.000812
0.002693 0.00038 -0.00082
0.002649 0.000397 -0.000826
0.002602 0.000416 -0.000831
0.002552 0.000436 -0.000834
0.002501 0.000457 -0.000837
0.002386 0.000505 -0.000836
0.002336 0.000526 -0.000839
0.002305 0.000536 -0.000852
0.002282 0.000543 -0.000868
0.002265 0.000546 -0.000887
0.002252 0.000547 -0.000909
0.002242 0.000547 -0.000931
0.002234 0.000545 -0.000955
0.002231 0.000541 -0.00098
0.002232 0.000535 -0.001008
0.002241 0.000525 -0.00104
0.000576 -3e-06 0.002065
0.000552 -3e-06 0.002072
0.002423 0.000409 -0.001237
0.002453 0.000388 -0.001279
0.00248 0.000369 -0.001319
0.002505 0.00035 -0.001358
0.002527 0.000334 -0.001396
0.002547 0.000318 -0.001433
0.002566 0.000302 -0.00147
0.00258 0.000289 -0.001504
0.002577 0.000286 -0.00153
0.002566 0.000286 -0.001552
0.002553 0.000287 -0.001573
0.00254 0.000289 -0.001594
0.002545 0.000695 -1.2e-05
0.00261 0.00075 -0.000322
0.002897 0.000629 -0.000544
0.002924 0.000634 -0.000674
0.002872 0.000288 -0.000771
0.002838 0.0003 -0.000782
0.002803 0.000312 -0.000792
0.00277 0.000324 -0.000803
0.002732 0.000338 -0.000812
0.002693 0.000353 -0.00082
0.002649 0.00037 -0.000826
0.002601 0.000389 -0.00083
0.002552 0.000409 -0.000834
0.002501 0.00043 -0.000837
0.002445 0.000453 -0.000837
0.002336 0.000499 -0.000839
0.002304 0.000509 -0.000852
0.002282 0.000516 -0.000868
0.002265 0.000519 -0.000887
0.002252 0.00052 -0.000908
0.002242 0.00052 -0.000931
0.002235 0.000518 -0.000955
0.002231 0.000514 -0.00098
0.002232 0.000508 -0.001008
0.002241 0.000498 -0.00104
0.000529 -3e-06 0.002079
0.002422 0.000383 -0.001236
0.002452 0.000362 -0.001278
0.00248 0.000342 -0.001319
0.002504 0.000324 -0.001358
0.002527 0.000306 -0.001396
0.002547 0.00029 -0.001433
0.002567 0.000275 -0.00147
0.00258 0.000263 -0.001504
0.002577 0.000259 -0.00153
0.002565 0.000259 -0.001552
0.002553 0.00026 -0.001573
0.00254 0.000262 -0.001594
0.002643 0.000679 2.2e-05
0.002692 0.00074 3.9e-05
0.002751 0.000706 -0.00042
0.002841 0.000691 -0.000783
0.002871 0.000261 -0.000771
0.002838 0.000273 -0.000782
0.002804 0.000284 -0.000792
0.00277 0.000297 -0.000803
0.002733 0.00031 -0.000812
0.002694 0.000325 -0.000821
0.002648 0.000343 -0.000826
0.002601 0.000362 -0.00083
0.002551 0.000382 -0.000834
0.0025 0.000403 -0.000837
0.002446 0.000426 -0.000838
0.002386 0.000451 -0.000836
0.002336 0.000472 -0.000839
0.002305 0.000482 -0.000852
0.002282 0.000489 -0.000868
0.002265 0.000492 -0.000887
0.002252 0.000493 -0.000908
0.002242 0.000492 -0.000931
0.002234 0.000491 -0.000955
0.00223 0.000487 -0.00098
0.002232 0.000481 -0.001008
0.002241 0.000471 -0.00104
0.002382 0.000382 -0.00119
0.002423 0.000355 -0.001237
0.002452 0.000334 -0.001279
0.00248 0.000315 -0.001319
0.002505 0.000296 -0.001358
0.002527 0.000279 -0.001397
0.002547 0.000263 -0.001434
0.002567 0.000248 -0.00147
0.00258 0.000236 -0.001504
0.002576 0.000232 -0.00153
0.002565 0.000232 -0.001552
0.002552 0.000233 -0.001573
0.002539 0.000235 -0.001594
0.002526 0.000236 -0.001615
0.002645 0.000733 2.2e-05
0.002919 0.000607 -0.000698
0.002666 0.000749 -0.000356
0.002914 0.000664 -0.000697
0.002871 0.000234 -0.000771
0.002837 0.000246 -0.000781
0.002804 0.000257 -0.000792
0.00277 0.000269 -0.000803
0.002732 0.000283 -0.000812
0.002693 0.000298 -0.00082
0.002648 0.000316 -0.000826
0.002601 0.000335 -0.00083
0.002551 0.000355 -0.000834
0.0025 0.000376 -0.000837
0.002444 0.000399 -0.000837
0.002386 0.000424 -0.000836
0.002335 0.000445 -0.000839
0.002304 0.000455 -0.000852
0.002281 0.000462 -0.000868
0.002264 0.000465 -0.000887
0.002252 0.000466 -0.000908
0.002242 0.000465 -0.000931
0.002234 0.000464 -0.000955
0.00223 0.00046 -0.00098
0.002232 0.000454 -0.001008
0.002242 0.000443 -0.00104
0.00233 0.000387 -0.001137
0.002382 0.000355 -0.00119
0.002423 0.000328 -0.001237
0.002453 0.000307 -0.001279
0.002479 0.000288 -0.001319
0.002505 0.000269 -0.001358
0.002527 0.000252 -0.001397
0.002548 0.000236 -0.001434
0.002567 0.00022 -0.00147
0.002579 0.000209 -0.001503
0.002576 0.000205 -0.001529
0.002565 0.000205 -0.001551
0.002552 0.000206 -0.001573
0.002539 0.000207 -0.001594
0.002526 0.000209 -0.001615
0.002706 0.000701 -0.000388
0.002729 0.000724 5.8e-05
0.002687 0.000741 -0.000335
0.002906 0.000666 -0.000721
0.002871 0.000207 -0.00077
0.002837 0.000219 -0.000781
0.002803 0.000231 -0.000791
0.00277 0.000242 -0.000803
0.002732 0.000256 -0.000812
0.002694 0.000271 -0.000821
0.002649 0.000288 -0.000826
0.002601 0.000308 -0.00083
0.002551 0.000328 -0.000834
0.002501 0.000348 -0.000837
0.002445 0.000372 -0.000837
0.002386 0.000397 -0.000836
0.002335 0.000418 -0.000839
0.002304 0.000428 -0.000851
0.002281 0.000435 -0.000868
0.002264 0.000438 -0.000887
0.002252 0.000439 -0.000908
0.002242 0.000438 -0.000931
0.002234 0.000437 -0.000955
0.00223 0.000433 -0.00098
0.002233 0.000427 -0.001009
0.002241 0.000416 -0.00104
0.002422 0.000301 -0.001237
0.002453 0.00028 -0.001279
0.002479 0.000261 -0.001319
0.002505 0.000242 -0.001358
0.002527 0.000225 -0.001397
0.002548 0.000208 -0.001434
0.002567 0.000193 -0.00147
0.002578 0.000182 -0.001503
0.002574 0.000178 -0.001529
0.002564 0.000178 -0.001551
0.002552 0.000179 -0.001573
0.002539 0.00018 -0.001594
0.002526 0.000182 -0.001615
0.002649 0.000648 -0.000354
0.002873 0.000664 0.000133
0.002761 0.000733 3e-06
0.002928 0.000663 -0.000624
0.002871 0.00018 -0.00077
0.002837 0.000191 -0.000781
0.002803 0.000204 -0.000791
0.00277 0.000215 -0.000802
0.002732 0.000229 -0.000812
0.002695 0.000243 -0.000821
0.002648 0.000262 -0.000826
0.002601 0.00028 -0.000831
0.00255 0.000301 -0.000833
0.0025 0.000321 -0.000837
0.002445 0.000345 -0.000837
0.002386 0.00037 -0.000836
0.002335 0.00039 -0.000839
0.002303 0.000401 -0.000851
0.002281 0.000407 -0.000868
0.002264 0.000411 -0.000887
0.002252 0.000412 -0.000908
0.002242 0.000411 -0.000931
0.002234 0.000409 -0.000955
0.00223 0.000406 -0.00098
0.002232 0.0004 -0.001008
0.002241 0.000389 -0.00104
0.002422 0.000274 -0.001237
0.002452 0.000253 -0.001278
0.002479 0.000234 -0.001319
0.002505 0.000215 -0.001358
0.002527 0.000198 -0.001397
0.002548 0.000181 -0.001434
0.002566 0.000166 -0.00147
0.002577 0.000155 -0.001503
0.002572 0.000152 -0.001528
0.002563 0.000152 -0.00155
0.002551 0.000152 -0.001572
0.002538 0.000154 -0.001593
0.002524 0.000155 -0.001614
0.002706 0.00062 -0.000388
0.002971 0.000605 0.000394
0.002771 0.000726 -2.4e-05
0.002925 0.000662 -0.000649
0.002871 0.000152 -0.00077
0.002838 0.000164 -0.000782
0.002803 0.000176 -0.000791
0.002768 0.000189 -0.000802
0.002732 0.000202 -0.000812
0.002694 0.000216 -0.000821
0.002648 0.000234 -0.000826
0.002602 0.000253 -0.000831
0.002551 0.000274 -0.000834
0.0025 0.000294 -0.000837
0.002445 0.000318 -0.000837
0.002386 0.000342 -0.000837
0.002335 0.000363 -0.000839
0.002304 0.000374 -0.000852
0.002281 0.00038 -0.000868
0.002265 0.000383 -0.000887
0.002251 0.000384 -0.000908
0.002242 0.000384 -0.000931
0.002234 0.000382 -0.000955
0.00223 0.000378 -0.000981
0.002232 0.000372 -0.001009
0.002242 0.000362 -0.00104
0.001738 -2e-05 -0.001154
0.002331 0.000305 -0.001138
0.002383 0.000272 -0.001191
0.002423 0.000246 -0.001237
0.002452 0.000226 -0.001278
0.002479 0.000207 -0.001318
0.002505 0.000187 -0.001358
0.002528 0.00017 -0.001397
0.002549 0.000154 -0.001434
0.002566 0.00014 -0.00147
0.002574 0.00013 -0.001501
0.002568 0.000127 -0.001526
0.002559 0.000127 -0.001548
0.002548 0.000127 -0.001571
0.002535 0.000128 -0.001592
0.002521 0.00013 -0.001612
0.002688 0.000633 4e-05
0.002912 0.000609 -0.000722
0.002902 0.00068 0.000152
0.002928 0.000665 -0.000599
0.00287 0.000126 -0.000769
0.002838 0.000137 -0.000782
0.002803 0.000149 -0.000792
0.002769 0.000161 -0.000802
0.002732 0.000175 -0.000812
0.002693 0.00019 -0.00082
0.002649 0.000206 -0.000827
0.0026 0.000226 -0.00083
0.002551 0.000246 -0.000834
0.002499 0.000268 -0.000836
0.002445 0.00029 -0.000838
0.002386 0.000315 -0.000836
0.002334 0.000336 -0.000839
0.002303 0.000347 -0.000851
0.002281 0.000353 -0.000868
0.002264 0.000356 -0.000887
0.002252 0.000357 -0.000909
0.002242 0.000357 -0.000931
0.002234 0.000355 -0.000955
0.002231 0.000351 -0.000981
0.002232 0.000345 -0.001008
0.002241 0.000335 -0.00104
0.002333 0.000277 -0.001139
0.002383 0.000245 -0.00119
0.002423 0.000219 -0.001237
0.002452 0.000199 -0.001278
0.002478 0.000179 -0.001318
0.002504 0.00016 -0.001358
0.002527 0.000143 -0.001397
0.002548 0.000127 -0.001434
0.002565 0.000113 -0.001469
0.002569 0.000105 -0.001499
0.002562 0.000103 -0.001523
0.002553 0.000103 -0.001546
0.002542 0.000103 -0.001568
0.002529 0.000104 -0.001589
0.002598 0.000726 5e-06
0.00293 0.000606 -0.00065
0.002842 0.000663 -0.000783
0.002897 0.000683 -0.000544
0.002866 0.0001 -0.000768
0.002838 0.000109 -0.000782
0.002803 0.000122 -0.000792
0.002769 0.000134 -0.000802
0.002732 0.000148 -0.000812
0.002692 0.000163 -0.00082
0.002649 0.00018 -0.000826
0.002599 0.0002 -0.00083
0.002549 0.00022 -0.000833
0.0025 0.00024 -0.000837
0.002445 0.000263 -0.000838
0.002385 0.000288 -0.000836
0.002334 0.000309 -0.000839
0.002303 0.00032 -0.000851
0.002281 0.000326 -0.000868
0.002264 0.000329 -0.000887
0.002252 0.00033 -0.000908
0.002242 0.000329 -0.000931
0.002234 0.000328 -0.000955
0.00223 0.000324 -0.000981
0.002232 0.000318 -0.001008
0.002241 0.000308 -0.00104
0.002384 0.000218 -0.001191
0.002423 0.000192 -0.001237
0.002452 0.000171 -0.001278
0.002479 0.000152 -0.001319
0.002505 0.000133 -0.001358
0.002526 0.000116 -0.001396
0.002548 0.0001 -0.001434
0.002561 8.7e-05 -0.001468
0.002561 8.2e-05 -0.001495
0.002553 8.1e-05 -0.001519
0.002544 8e-05 -0.001541
0.002533 8e-05 -0.001564
0.002963 0.000539 0.000195
0.002759 0.000711 -0.000297
0.002792 0.000712 -0.000452
0.002962 0.000485 0.000195
0.00286 7.6e-05 -0.000764
0.002837 8.3e-05 -0.000781
0.002803 9.5e-05 -0.000792
0.002769 0.000107 -0.000802
0.002733 0.00012 -0.000812
0.002692 0.000135 -0.00082
0.002648 0.000153 -0.000826
0.0026 0.000172 -0.00083
0.00255 0.000193 -0.000833
0.002499 0.000214 -0.000836
0.002445 0.000236 -0.000838
0.002386 0.000261 -0.000836
0.002334 0.000282 -0.000839
0.002303 0.000293 -0.000851
0.00228 0.000299 -0.000868
0.002264 0.000302 -0.000887
0.002251 0.000303 -0.000908
0.002241 0.000303 -0.000931
0.002234 0.000301 -0.000955
0.002231 0.000297 -0.000981
0.002232 0.000291 -0.001008
0.002241 0.000281 -0.00104
0.002381 0.000192 -0.001189
0.002423 0.000165 -0.001237
0.002452 0.000144 -0.001279
0.002479 0.000125 -0.001319
0.002505 0.000106 -0.001358
0.002526 9e-05 -0.001396
0.002546 7.3e-05 -0.001433
0.002553 6.4e-05 -0.001464
0.00255 6.1e-05 -0.00149
0.002542 5.9e-05 -0.001513
0.002532 5.9e-05 -0.001536
0.00277 0.000679 7.6e-05
0.002725 0.000725 -0.000316
0.002872 5.4e-05 -0.000715
0.002862 5.4e-05 -0.000738
0.002849 5.5e-05 -0.000759
0.00283 5.9e-05 -0.000778
0.002802 6.8e-05 -0.000792
0.002769 8e-05 -0.000802
0.002732 9.3e-05 -0.000812
0.002693 0.000108 -0.00082
0.002648 0.000125 -0.000826
0.0026 0.000145 -0.00083
0.00255 0.000165 -0.000833
0.002498 0.000187 -0.000836
0.002445 0.000209 -0.000838
0.002385 0.000234 -0.000836
0.002334 0.000255 -0.000839
0.002303 0.000265 -0.000851
0.00228 0.000272 -0.000867
0.002264 0.000275 -0.000887
0.002251 0.000276 -0.000908
0.002242 0.000275 -0.000931
0.002234 0.000273 -0.000955
0.002231 0.00027 -0.000981
0.002232 0.000264 -0.001008
0.002241 0.000254 -0.00104
0.002268 0.000234 -0.00108
0.002379 0.000166 -0.001189
0.002422 0.000138 -0.001237
0.002453 0.000117 -0.001279
0.00248 9.7e-05 -0.001319
0.002504 7.9e-05 -0.001358
0.002526 6.2e-05 -0.001396
0.002539 5e-05 -0.00143
0.00254 4.4e-05 -0.001457
0.002535 4.1e-05 -0.001482
0.002527 4e-05 -0.001506
0.00175 -2e-05 -0.001132
0.00293 0.000579 -0.00065
0.002918 0.000635 -0.000698
0.002855 3.6e-05 -0.000707
0.002845 3.5e-05 -0.00073
0.002833 3.6e-05 -0.000751
0.002817 3.8e-05 -0.000771
0.002796 4.4e-05 -0.000788
0.002767 5.3e-05 -0.000802
0.002732 6.6e-05 -0.000812
0.002693 8.1e-05 -0.00082
0.002649 9.8e-05 -0.000827
0.002601 0.000117 -0.000831
0.00255 0.000138 -0.000834
0.002498 0.000159 -0.000836
0.002444 0.000182 -0.000837
0.002385 0.000207 -0.000836
0.002334 0.000228 -0.000839
0.002303 0.000238 -0.000851
0.00228 0.000245 -0.000868
0.002264 0.000248 -0.000887
0.002251 0.000249 -0.000908
0.002242 0.000248 -0.000931
0.002234 0.000246 -0.000955
0.002231 0.000243 -0.000981
0.002232 0.000237 -0.001008
0.002241 0.000226 -0.00104
0.002268 0.000207 -0.00108
0.002422 0.000111 -0.001237
0.002453 8.9e-05 -0.001279
0.002479 7e-05 -0.001319
0.002502 5.3e-05 -0.001357
0.002519 3.9e-05 -0.001393
0.002523 3.1e-05 -0.001422
0.002521 2.7e-05 -0.001448
0.002514 2.5e-05 -0.001473
0.002505 2.4e-05 -0.001495
0.001762 -2.1e-05 -0.00111
0.002751 0.000678 -0.00042
0.00291 0.000637 -0.000721
0.002831 2.1e-05 -0.000696
0.002821 2.1e-05 -0.000718
0.002809 2.1e-05 -0.00074
0.002796 2.3e-05 -0.000761
0.002779 2.5e-05 -0.00078
0.002757 3.1e-05 -0.000797
0.002728 4.1e-05 -0.00081
0.002692 5.4e-05 -0.00082
0.002649 7.1e-05 -0.000827
0.002601 9e-05 -0.000831
0.00255 0.000111 -0.000834
0.002497 0.000133 -0.000835
0.002442 0.000156 -0.000836
0.002386 0.000179 -0.000837
0.002334 0.000201 -0.000839
0.002303 0.000211 -0.000852
0.00228 0.000218 -0.000868
0.002264 0.000221 -0.000887
0.002251 0.000222 -0.000908
0.002242 0.000221 -0.000931
0.002234 0.000219 -0.000955
0.00223 0.000216 -0.00098
0.002232 0.00021 -0.001008
0.002241 0.000199 -0.00104
0.002269 0.000179 -0.001081
0.002421 8.4e-05 -0.001237
0.002453 6.2e-05 -0.001279
0.002476 4.5e-05 -0.001318
0.002494 3e-05 -0.001353
0.002499 2.2e-05 -0.001383
0.002495 1.8e-05 -0.001409
0.002488 1.6e-05 -0.001433
0.002479 1.6e-05 -0.001456
0.001773 -2.2e-05 -0.001089
0.002787 1.6e-05 -0.000674
0.002777 1.6e-05 -0.000697
0.002767 1.5e-05 -0.00072
0.002758 1.5e-05 -0.000742
0.002747 1.5e-05 -0.000765
0.002732 1.7e-05 -0.000785
0.002713 2.2e-05 -0.000803
0.002685 3.1e-05 -0.000816
0.002648 4.4e-05 -0.000826
0.002601 6.3e-05 -0.000831
0.002551 8.3e-05 -0.000834
0.002497 0.000106 -0.000835
0.002443 0.000128 -0.000837
0.002334 0.000174 -0.000839
0.002303 0.000184 -0.000851
0.00228 0.00019 -0.000868
0.002263 0.000194 -0.000887
0.002251 0.000194 -0.000908
0.002241 0.000194 -0.000931
0.002234 0.000192 -0.000955
0.00223 0.000189 -0.00098
0.002232 0.000182 -0.001008
0.002241 0.000172 -0.00104
0.002268 0.000153 -0.00108
0.00242 5.7e-05 -0.001236
0.002449 3.7e-05 -0.001277
0.002466 2.3e-05 -0.001312
0.002468 1.6e-05 -0.001341
0.002377 1.4e-05 -0.001543
0.002366 1.4e-05 -0.001565
0.002355 1.4e-05 -0.001587
0.002343 1.5e-05 -0.001609
0.002329 1.8e-05 -0.001629
0.002913 0.000499 -0.000722
0.002496 0.000716 -2.8e-05
0.002771 0.000598 7.6e-05
0.002809 0.000582 9.4e-05
0.002718 1.4e-05 -0.000696
0.002708 1.4e-05 -0.000718
0.002696 1.4e-05 -0.00074
0.002686 1.4e-05 -0.000762
0.002675 1.4e-05 -0.000785
0.002661 1.6e-05 -0.000805
0.002636 2.3e-05 -0.000821
0.0026 3.6e-05 -0.00083
0.002551 5.6e-05 -0.000834
0.002499 7.7e-05 -0.000837
0.002442 0.000101 -0.000837
0.002384 0.000126 -0.000836
0.002333 0.000147 -0.000838
0.002302 0.000157 -0.000851
0.00228 0.000163 -0.000868
0.002263 0.000166 -0.000887
0.002251 0.000167 -0.000908
0.002241 0.000167 -0.000931
0.002234 0.000165 -0.000955
0.00223 0.000161 -0.00098
0.002231 0.000155 -0.001008
0.00224 0.000145 -0.00104
0.002266 0.000126 -0.00108
0.002419 3.1e-05 -0.001235
0.002433 1.8e-05 -0.00127
0.002433 1.2e-05 -0.001297
0.002349 1.2e-05 -0.001475
0.002338 1.2e-05 -0.001497
0.002329 1.1e-05 -0.00152
0.002316 1.3e-05 -0.001541
0.002304 1.3e-05 -0.001563
0.002292 1.4e-05 -0.001584
0.002281 1.4e-05 -0.001607
0.002925 0.000497 -0.000674
0.00292 0.000498 -0.000698
0.002677 1.3e-05 -0.000649
0.002669 1.2e-05 -0.000672
0.00266 1.1e-05 -0.000695
0.002648 1.2e-05 -0.000717
0.002638 1.1e-05 -0.000739
0.002627 1.2e-05 -0.000761
0.002616 1.2e-05 -0.000783
0.002602 1.3e-05 -0.000804
0.002584 1.8e-05 -0.000822
0.00255 2.9e-05 -0.000834
0.002444 7.3e-05 -0.000837
0.002384 9.9e-05 -0.000836
0.002333 0.000119 -0.000839
0.002302 0.00013 -0.000851
0.00228 0.000136 -0.000868
0.002263 0.000139 -0.000887
0.00225 0.00014 -0.000908
0.002241 0.00014 -0.000931
0.002233 0.000138 -0.000955
0.002229 0.000135 -0.00098
0.002231 0.000128 -0.001008
0.002238 0.000119 -0.001039
0.002383 2.8e-05 -0.001191
0.002398 1.5e-05 -0.001225
0.002391 1.3e-05 -0.001249
0.001785 -2.2e-05 -0.001067
0.002317 1.2e-05 -0.001405
0.002306 1.3e-05 -0.001427
0.002296 1.2e-05 -0.001449
0.002284 1.3e-05 -0.001471
0.002643 0.000707 2.2e-05
0.002791 0.000603 -0.000452
0.002925 0.000525 -0.000674
0.002627 1.2e-05 -0.000625
0.002615 1.3e-05 -0.000646
0.002605 1.2e-05 -0.000669
0.002595 1.2e-05 -0.000691
0.002585 1.1e-05 -0.000714
0.002575 1.1e-05 -0.000737
0.002564 1.1e-05 -0.000759
0.002555 1.1e-05 -0.000781
0.002897 0.000574 -0.000544
0.002842 0.000622 0.000113
0.002444 4.6e-05 -0.000837
0.00238 7.3e-05 -0.000834
0.002333 9.2e-05 -0.000839
0.002302 0.000103 -0.000851
0.00228 0.000109 -0.000868
0.002263 0.000112 -0.000887
0.00225 0.000113 -0.000908
0.002241 0.000112 -0.000931
0.002233 0.000111 -0.000955
0.002229 0.000107 -0.00098
0.002231 0.000101 -0.001008
0.00224 9.1e-05 -0.00104
0.001796 -2.3e-05 -0.001045
0.001808 -2.3e-05 -0.001024
0.001819 -2.3e-05 -0.001002
0.001831 -2.4e-05 -0.00098
0.002258 1.1e-05 -0.001404
0.002247 1.1e-05 -0.001426
0.002235 1.1e-05 -0.001448
0.002224 1.1e-05 -0.001469
0.002191 1.2e-05 -0.001536
0.00218 1.2e-05 -0.001558
0.002168 1.2e-05 -0.00158
0.002611 9e-06 -0.000535
0.002601 9e-06 -0.000558
0.002591 9e-06 -0.00058
0.00258 9e-06 -0.000602
0.002567 1e-05 -0.000623
0.002559 9e-06 -0.000647
0.002547 1e-05 -0.000668
0.002912 0.000702 -0.000572
0.002511 1.2e-05 -0.000733
0.002505 9e-06 -0.000757
0.002481 1.1e-05 -0.0008
0.002468 1.2e-05 -0.000822
0.00244 2.1e-05 -0.000835
0.002383 4.5e-05 -0.000835
0.002301 7.6e-05 -0.000851
0.002279 8.2e-05 -0.000867
0.002263 8.5e-05 -0.000887
0.00225 8.6e-05 -0.000908
0.00224 8.6e-05 -0.000931
0.002233 8.4e-05 -0.000954
0.002229 8e-05 -0.00098
0.00223 7.4e-05 -0.001008
0.002239 6.5e-05 -0.001039
0.002316 1.3e-05 -0.001131
0.00231 1.1e-05 -0.001156
0.002299 1.1e-05 -0.001178
0.002248 1.1e-05 -0.00129
0.002234 1.2e-05 -0.00131
0.002193 1.1e-05 -0.0014
0.002183 1.1e-05 -0.001422
0.002173 1e-05 -0.001445
0.002154 1.1e-05 -0.001491
0.002144 9e-06 -0.001513
0.002133 9e-06 -0.001535
0.002554 1.2e-05 -0.000507
0.002545 1.1e-05 -0.00053
0.002535 1.1e-05 -0.000553
0.001842 -2.4e-05 -0.000958
0.002897 0.000602 -0.000544
0.002731 0.000652 0.001128
0.002427 0.000765 -0.000167
0.002424 1.3e-05 -0.000773
0.002414 1.3e-05 -0.000796
0.002407 1.1e-05 -0.000819
0.002381 1.9e-05 -0.000834
0.002333 3.8e-05 -0.000839
0.002302 4.9e-05 -0.000851
0.002279 5.5e-05 -0.000867
0.002263 5.8e-05 -0.000887
0.002874 0.000718 0.000134
0.00224 5.9e-05 -0.00093
0.002232 5.7e-05 -0.000954
0.002229 5.3e-05 -0.00098
0.00223 4.8e-05 -0.001008
0.002239 3.7e-05 -0.001039
0.002273 9e-06 -0.00111
0.00226 1e-05 -0.001132
0.002249 1e-05 -0.001154
0.001853 -2.4e-05 -0.000936
0.002183 1.1e-05 -0.001286
0.002139 1.2e-05 -0.001374
0.002127 1.2e-05 -0.001396
0.002117 1.2e-05 -0.001418
0.002107 1.2e-05 -0.001441
0.002098 1.1e-05 -0.001464
0.002085 1.2e-05 -0.001485
0.002501 1.1e-05 -0.000482
0.002491 1.2e-05 -0.000504
0.002466 0.000728 -4.8e-05
0.002471 1.1e-05 -0.00055
0.002462 1e-05 -0.000573
0.002872 0.000556 0.000133
0.002905 0.000501 -0.000745
0.00243 0.000762 -0.000192
0.002457 0.000758 -7.2e-05
0.002936 0.000496 -0.000626
0.002395 6e-06 -0.000732
0.002385 6e-06 -0.000755
0.00273 0.000642 5.8e-05
0.002905 0.000696 -0.000695
0.002331 1.2e-05 -0.000838
0.002301 2.2e-05 -0.000851
0.002904 0.000529 -0.000745
0.002897 0.000547 -0.000544
0.002919 0.000553 -0.000698
0.00224 3.2e-05 -0.00093
0.002232 3e-05 -0.000954
0.002229 2.6e-05 -0.00098
0.002232 1.9e-05 -0.001009
0.002238 1.1e-05 -0.001039
0.002237 5e-06 -0.001066
0.002225 6e-06 -0.001087
0.002213 7e-06 -0.001109
0.002203 6e-06 -0.001132
0.001864 -2.4e-05 -0.000914
0.001874 -2.4e-05 -0.000891
0.002119 6e-06 -0.00131
0.002109 6e-06 -0.001333
0.002099 6e-06 -0.001355
0.002087 6e-06 -0.001376
0.002075 7e-06 -0.001398
0.002064 7e-06 -0.00142
0.002052 8e-06 -0.001441
0.00204 8e-06 -0.001463
0.002028 8e-06 -0.001485
0.001995 1e-05 -0.001551
0.001979 1.2e-05 -0.001571
0.002919 0.000695 -0.000623
0.002451 5e-06 -0.000485
0.002441 5e-06 -0.000508
0.00243 5e-06 -0.00053
0.002419 5e-06 -0.000552
0.002406 6e-06 -0.000573
0.002985 0.000574 0.000346
0.002842 0.000568 0.000114
0.002437 0.000766 -9.3e-05
0.002352 7e-06 -0.000684
0.002342 7e-06 -0.000706
0.002329 8e-06 -0.000728
0.002428 0.000737 -0.000167
0.002829 0.000556 -0.000483
0.002791 0.000576 -0.000452
0.002275 8e-06 -0.000838
0.002262 1e-05 -0.000859
0.002229 1e-05 -0.000925
0.002218 1e-05 -0.000948
0.00221 9e-06 -0.000971
0.0022 8e-06 -0.000993
0.00219 8e-06 -0.001016
0.002179 9e-06 -0.001038
0.002167 9e-06 -0.001059
0.002154 1e-05 -0.001081
0.002145 1e-05 -0.001103
0.001885 -2.4e-05 -0.000869
0.001895 -2.4e-05 -0.000847
0.000481 -2e-06 0.002093
0.002065 7e-06 -0.001284
0.002052 8e-06 -0.001305
0.002043 7e-06 -0.001328
0.002032 7e-06 -0.00135
0.002021 7e-06 -0.001372
0.002012 7e-06 -0.001395
0.002002 7e-06 -0.001417
0.001992 6e-06 -0.00144
0.001981 6e-06 -0.001462
0.001972 6e-06 -0.001485
0.00196 6e-06 -0.001507
0.001951 5e-06 -0.001529
0.001938 7e-06 -0.001551
0.00279 0.000658 -0.000452
0.002867 0.000727 -0.000514
0.002382 8e-06 -0.000479
0.00237 9e-06 -0.000501
0.002361 8e-06 -0.000524
0.002348 9e-06 -0.000545
0.002328 9e-06 -0.00059
0.002916 0.000694 -0.000647
0.002752 0.000596 -0.00042
0.00229 1.2e-05 -0.000654
0.002282 1e-05 -0.000677
0.002271 1.1e-05 -0.0007
0.002262 1e-05 -0.000723
0.002843 0.00073 0.000114
0.002982 0.000465 0.000371
0.00222 9e-06 -0.000812
0.00221 9e-06 -0.000834
0.001906 -2.4e-05 -0.000824
0.001916 -2.4e-05 -0.000802
0.002178 9e-06 -0.000901
0.002167 1e-05 -0.000923
0.002157 9e-06 -0.000945
0.002146 9e-06 -0.000967
0.002136 9e-06 -0.00099
0.002125 9e-06 -0.001012
0.002115 9e-06 -0.001035
0.002104 9e-06 -0.001056
0.000458 -2e-06 0.0021
0.000434 -1e-06 0.002106
0.001973 1.1e-05 -0.001322
0.001962 1.1e-05 -0.001344
0.001951 1.1e-05 -0.001366
0.00192 1e-05 -0.001433
0.001909 1.1e-05 -0.001455
0.001903 8e-06 -0.001479
0.001894 8e-06 -0.001502
0.001882 8e-06 -0.001524
0.001926 -2.4e-05 -0.000779
0.001936 -2.3e-05 -0.000757
0.002911 0.000694 -0.000671
0.002317 9e-06 -0.000475
0.002306 9e-06 -0.000498
0.002297 9e-06 -0.000521
0.002287 8e-06 -0.000543
0.002278 7e-06 -0.000566
0.002269 7e-06 -0.000589
0.002931 0.000497 -0.00065
0.002874 0.00061 0.000132
0.002239 5e-06 -0.000657
0.00223 4e-06 -0.00068
0.00222 4e-06 -0.000703
0.002913 0.000527 -0.000722
0.002919 0.000526 -0.000698
0.002963 0.000511 0.000195
0.001946 -2.3e-05 -0.000734
0.002123 5e-06 -0.000902
0.002112 5e-06 -0.000924
0.002102 5e-06 -0.000946
0.002091 5e-06 -0.000968
0.002081 4e-06 -0.000991
0.002071 4e-06 -0.001013
0.002059 5e-06 -0.001035
0.002039 4e-06 -0.00108
0.00203 4e-06 -0.001103
0.001955 -2.2e-05 -0.000711
0.00193 6e-06 -0.001301
0.001919 6e-06 -0.001323
0.001884 8e-06 -0.001388
0.001873 8e-06 -0.00141
0.001859 9e-06 -0.001431
0.001837 1e-05 -0.001475
0.001827 9e-06 -0.001497
0.001965 -2.2e-05 -0.000689
0.001975 -2.1e-05 -0.000666
0.001984 -2.1e-05 -0.000644
0.002438 0.000738 -9.4e-05
0.00245 0.000734 -7.1e-05
0.00244 0.000755 -0.000219
0.002253 4e-06 -0.0005
0.002241 5e-06 -0.000521
0.002229 5e-06 -0.000543
0.002222 4e-06 -0.000567
0.002687 0.000661 4e-05
0.00293 0.000524 -0.00065
0.002936 0.000523 -0.000626
0.002499 0.000742 -2.9e-05
0.002477 0.00075 -5e-05
0.002751 0.000624 -0.00042
0.002705 0.000647 -0.000388
0.00265 0.000676 -0.000354
0.00283 0.000583 -0.000483
0.002866 0.000564 -0.000514
0.002926 0.000532 -0.000574
0.002057 6e-06 -0.000897
0.002047 6e-06 -0.00092
0.002022 8e-06 -0.000963
0.002012 8e-06 -0.000985
0.002005 6e-06 -0.001009
0.001982 7e-06 -0.001053
0.001972 6e-06 -0.001075
0.00196 7e-06 -0.001097
0.00195 7e-06 -0.001119
0.00185 4e-06 -0.001344
0.001838 4e-06 -0.001366
0.001825 5e-06 -0.001387
0.001814 6e-06 -0.001409
0.001808 3e-06 -0.001434
0.001797 3e-06 -0.001456
0.001786 3e-06 -0.001478
0.001773 5e-06 -0.001499
0.002829 0.000637 -0.000483
0.002728 0.000616 5.8e-05
0.002926 0.000505 -0.000574
0.002897 0.00052 -0.000545
0.002185 6e-06 -0.000494
0.002175 6e-06 -0.000516
0.002161 8e-06 -0.000537
0.002905 0.000728 -0.00062
0.00293 0.000551 -0.00065
0.002873 0.000637 0.000132
0.002872 0.000583 0.000133
0.002078 7e-06 -0.000716
0.002066 8e-06 -0.000737
0.002056 7e-06 -0.00076
0.002046 6e-06 -0.000783
0.002037 6e-06 -0.000806
0.002027 5e-06 -0.000828
0.002016 6e-06 -0.00085
0.002005 6e-06 -0.000872
0.001994 6e-06 -0.000894
0.001984 6e-06 -0.000917
0.001973 6e-06 -0.000939
0.001962 7e-06 -0.000961
0.001951 6e-06 -0.000983
0.00194 5e-06 -0.001005
0.00193 6e-06 -0.001027
0.001919 7e-06 -0.001049
0.001909 6e-06 -0.001072
0.001899 6e-06 -0.001095
0.001809 8e-06 -0.00127
0.001801 7e-06 -0.001294
0.00179 7e-06 -0.001316
0.00178 7e-06 -0.001338
0.001771 6e-06 -0.001361
0.001761 6e-06 -0.001383
0.001752 5e-06 -0.001406
0.001739 6e-06 -0.001428
0.002545 0.000722 -1.2e-05
0.002809 0.000636 9.4e-05
0.002549 0.000747 -1.2e-05
0.002729 0.00067 5.8e-05
0.00243 0.000734 -0.000193
0.002857 0.000491 0.000455
0.002866 0.000537 -0.000514
0.002809 0.000663 9.4e-05
0.002919 0.000696 -0.000598
0.002124 5e-06 -0.000492
0.002114 5e-06 -0.000515
0.002104 4e-06 -0.000537
0.002872 0.000691 0.000134
0.002597 0.000699 5e-06
0.002927 0.000665 0.000166
0.002808 0.000609 9.5e-05
0.00277 0.000625 7.6e-05
0.002592 0.000693 0.000969
0.002037 1e-06 -0.000696
0.002028 -0.0 -0.000719
0.002019 -1e-06 -0.000742
0.002009 -1e-06 -0.000765
0.001997 -0.0 -0.000786
0.001986 -1e-06 -0.000809
0.001977 -1e-06 -0.000831
0.001966 -1e-06 -0.000854
0.001956 -1e-06 -0.000876
0.001945 -1e-06 -0.000898
0.001936 -2e-06 -0.000921
0.001925 -2e-06 -0.000943
0.001914 -2e-06 -0.000965
0.001903 -1e-06 -0.000987
0.001892 -1e-06 -0.001009
0.00188 -1e-06 -0.001031
0.001869 -0.0 -0.001053
0.001858 -0.0 -0.001075
0.001847 -0.0 -0.001097
0.001812 1e-06 -0.001162
0.001801 2e-06 -0.001184
0.00179 2e-06 -0.001206
0.001779 2e-06 -0.001228
0.001767 3e-06 -0.00125
0.001754 4e-06 -0.001271
0.001741 5e-06 -0.001292
0.00173 5e-06 -0.001314
0.001719 6e-06 -0.001336
0.001708 6e-06 -0.001358
0.002567 0.000706 0.000941
0.002771 0.000652 7.6e-05
0.002649 0.000703 -0.000353
0.002529 0.000739 0.000533
0.002919 0.00058 -0.000698
0.002989 0.00047 0.000223
0.002895 0.000698 -0.000719
0.002088 -3e-06 -0.000475
0.002078 -4e-06 -0.000497
0.002865 0.000709 -0.000764
0.002842 0.000704 0.000114
0.002809 0.000717 9.5e-05
0.002843 0.000649 0.000113
0.002866 0.000618 -0.000514
0.002883 0.000702 -0.000742
0.002014 -9e-06 -0.000658
0.002005 -9e-06 -0.000681
0.001994 -1e-05 -0.000703
0.001984 -1e-05 -0.000726
0.001975 -1.1e-05 -0.000748
0.001965 -1.1e-05 -0.000771
0.001955 -1.1e-05 -0.000793
0.001945 -1.2e-05 -0.000816
0.001934 -1.2e-05 -0.000838
0.001924 -1.2e-05 -0.000861
0.001914 -1.2e-05 -0.000883
0.001903 -1.2e-05 -0.000905
0.001892 -1.2e-05 -0.000927
0.001881 -1.2e-05 -0.000949
0.00187 -1.2e-05 -0.000971
0.001859 -1.2e-05 -0.000994
0.001848 -1.1e-05 -0.001016
0.001837 -1.1e-05 -0.001037
0.001825 -1e-05 -0.001059
0.001814 -1e-05 -0.001081
0.001803 -1e-05 -0.001103
0.001791 -9e-06 -0.001125
0.001779 -9e-06 -0.001146
0.001768 -8e-06 -0.001168
0.001756 -8e-06 -0.00119
0.001744 -7e-06 -0.001211
0.001731 -6e-06 -0.001232
0.001719 -5e-06 -0.001254
0.001707 -4e-06 -0.001276
0.001695 -3e-06 -0.001297
0.002867 0.000591 -0.000514
0.00283 0.00061 -0.000483
0.002791 0.00063 -0.000452
0.002926 0.000559 -0.000574
0.002425 0.000697 0.000825
0.002924 0.000579 -0.000674
0.002913 0.000581 -0.000722
0.002964 0.000647 0.000195
0.002989 0.000498 0.000223
0.002366 0.000728 0.000768
0.002707 0.000592 -0.000388
0.002752 0.000569 -0.000421
0.002792 0.000548 -0.000452
0.002829 0.000529 -0.000483
0.002865 0.00051 -0.000514
0.002898 0.000492 -0.000545
0.002926 0.000477 -0.000574
0.002939 0.00047 -0.000601
0.002936 0.000469 -0.000626
0.002931 0.00047 -0.00065
0.002925 0.00047 -0.000674
0.002919 0.000471 -0.000698
0.002913 0.000472 -0.000722
0.002905 0.000474 -0.000745
0.002883 0.000482 -0.000765
0.002354 0.000751 0.000726
0.00299 0.000574 0.000297
0.002871 0.000529 0.000133
0.002841 0.000541 0.000114
0.002809 0.000554 9.4e-05
0.002771 0.00057 7.6e-05
0.002729 0.000588 5.8e-05
0.002688 0.000606 4e-05
0.002643 0.000625 2.2e-05
0.002596 0.000645 5e-06
0.002545 0.000668 -1.2e-05
0.002497 0.000689 -2.9e-05
0.002467 0.000701 -4.9e-05
0.002449 0.000707 -7.1e-05
0.002438 0.000711 -9.4e-05
0.00299 0.000632 0.000248
0.00299 0.000629 0.000297
0.002427 0.00071 -0.000167
0.002429 0.000707 -0.000193
0.002943 0.000644 0.000416
0.002359 0.000704 0.000767
0.002386 0.000717 0.000795
0.002752 0.000542 -0.000421
0.002792 0.000521 -0.000452
0.002829 0.000501 -0.000483
0.002865 0.000483 -0.000514
0.002898 0.000465 -0.000545
0.002927 0.00045 -0.000574
0.002939 0.000442 -0.000601
0.002936 0.000442 -0.000626
0.00293 0.000443 -0.00065
0.002925 0.000443 -0.000674
0.002919 0.000444 -0.000698
0.002913 0.000445 -0.000722
0.002905 0.000447 -0.000745
0.002883 0.000455 -0.000765
0.002251 0.000735 -0.000912
0.002973 0.000495 0.000395
0.002963 0.000593 0.000195
0.002871 0.000502 0.000133
0.002842 0.000514 0.000114
0.002808 0.000528 9.5e-05
0.00277 0.000544 7.6e-05
0.00273 0.000561 5.8e-05
0.002688 0.000579 4e-05
0.002642 0.000598 2.2e-05
0.002597 0.000618 5e-06
0.002544 0.000641 -1.1e-05
0.002497 0.000662 -2.9e-05
0.002468 0.000673 -4.9e-05
0.002449 0.00068 -7.1e-05
0.002438 0.000684 -9.4e-05
0.002431 0.000685 -0.000118
0.002808 0.000703 0.000474
0.00297 0.000697 0.000221
0.002986 0.000661 0.000247
0.002987 0.000601 0.000322
0.002748 0.000628 0.001216
0.002707 0.000538 -0.000388
0.002752 0.000515 -0.00042
0.002793 0.000494 -0.000452
0.00283 0.000474 -0.000483
0.002866 0.000455 -0.000514
0.002898 0.000438 -0.000545
0.002926 0.000423 -0.000574
0.002939 0.000415 -0.000601
0.002936 0.000415 -0.000626
0.002931 0.000415 -0.00065
0.002925 0.000416 -0.000674
0.002919 0.000417 -0.000698
0.002913 0.000418 -0.000722
0.002905 0.00042 -0.000746
0.002883 0.000428 -0.000766
0.002251 0.000708 -0.000912
0.002242 0.000711 -0.000935
0.002881 0.000552 0.000138
0.002737 0.000723 -0.000254
0.002872 0.000474 0.000133
0.002842 0.000486 0.000114
0.002808 0.000501 9.5e-05
0.002769 0.000517 7.6e-05
0.00273 0.000534 5.8e-05
0.002688 0.000552 4e-05
0.002641 0.000572 2.2e-05
0.002596 0.000591 5e-06
0.002544 0.000614 -1.1e-05
0.002496 0.000635 -2.8e-05
0.002467 0.000647 -4.9e-05
0.002449 0.000653 -7.1e-05
0.002437 0.000657 -9.4e-05
0.00243 0.000658 -0.000117
0.002427 0.000658 -0.000142
0.002976 0.000692 0.000246
0.002978 0.00063 0.00037
0.002724 0.00073 -0.00028
0.002655 0.000734 -0.000264
0.002706 0.000511 -0.000388
0.002752 0.000487 -0.000421
0.002792 0.000466 -0.000452
0.002829 0.000447 -0.000483
0.002865 0.000429 -0.000514
0.002898 0.000411 -0.000545
0.002926 0.000396 -0.000574
0.002939 0.000388 -0.000601
0.002936 0.000387 -0.000626
0.00293 0.000388 -0.00065
0.002925 0.000389 -0.000674
0.002919 0.00039 -0.000698
0.002913 0.000391 -0.000722
0.002905 0.000392 -0.000746
0.002884 0.0004 -0.000766
0.00275 0.000637 0.001163
0.002988 0.00058 0.000223
0.002872 0.000447 0.000133
0.002842 0.000459 0.000114
0.002807 0.000474 9.5e-05
0.00277 0.00049 7.6e-05
0.00273 0.000506 5.8e-05
0.002688 0.000524 4e-05
0.002642 0.000544 2.2e-05
0.002595 0.000565 5e-06
0.002544 0.000587 -1.2e-05
0.002495 0.000608 -2.8e-05
0.002467 0.000619 -4.9e-05
0.002449 0.000626 -7.1e-05
0.002437 0.00063 -9.4e-05
0.00243 0.000631 -0.000117
0.002427 0.000631 -0.000142
0.002903 0.000689 0.000436
0.002807 0.000676 0.000474
0.0025 0.00074 0.000884
0.002902 0.000526 0.000436
0.002943 0.000508 0.000416
0.002706 0.000484 -0.000388
0.002752 0.00046 -0.000421
0.002793 0.000439 -0.000452
0.00283 0.00042 -0.000483
0.002865 0.000401 -0.000514
0.002898 0.000384 -0.000545
0.002927 0.000368 -0.000574
0.002939 0.000361 -0.000601
0.002936 0.00036 -0.000626
0.002931 0.000361 -0.00065
0.002925 0.000362 -0.000674
0.002919 0.000363 -0.000698
0.002913 0.000364 -0.000722
0.002905 0.000365 -0.000746
0.002884 0.000373 -0.000766
0.002348 0.000711 0.000741
0.002993 0.000576 0.000248
0.002872 0.00042 0.000133
0.002841 0.000432 0.000114
0.002807 0.000446 9.5e-05
0.00277 0.000462 7.6e-05
0.00273 0.000479 5.8e-05
0.002686 0.000498 4e-05
0.002643 0.000516 2.2e-05
0.002595 0.000537 5e-06
0.002543 0.00056 -1.1e-05
0.002496 0.00058 -2.8e-05
0.002466 0.000593 -4.9e-05
0.002448 0.000599 -7.1e-05
0.002437 0.000603 -9.4e-05
0.002429 0.000604 -0.000117
0.002427 0.000604 -0.000142
0.002941 0.000672 0.000416
0.002537 0.000749 0.000913
0.002902 0.00058 0.000436
0.002985 0.000492 0.000346
0.002705 0.000457 -0.000388
0.002752 0.000433 -0.000421
0.002793 0.000412 -0.000452
0.00283 0.000393 -0.000483
0.002865 0.000374 -0.000514
0.002898 0.000357 -0.000545
0.002927 0.000341 -0.000575
0.002938 0.000334 -0.000601
0.002936 0.000333 -0.000626
0.00293 0.000334 -0.00065
0.002925 0.000335 -0.000674
0.002919 0.000336 -0.000698
0.002913 0.000337 -0.000722
0.002905 0.000338 -0.000746
0.002884 0.000346 -0.000766
0.002574 0.000721 -0.000323
0.002926 0.000612 0.000166
0.002871 0.000393 0.000133
0.002842 0.000405 0.000114
0.002807 0.000419 9.5e-05
0.002769 0.000435 7.6e-05
0.002729 0.000453 5.8e-05
0.002686 0.000471 4e-05
0.002643 0.000489 2.2e-05
0.002596 0.00051 5e-06
0.002543 0.000533 -1.1e-05
0.002495 0.000554 -2.8e-05
0.002465 0.000566 -4.8e-05
0.002448 0.000572 -7.1e-05
0.002437 0.000576 -9.4e-05
0.00243 0.000577 -0.000117
0.002427 0.000576 -0.000142
0.002956 0.000705 0.000194
0.002594 0.00072 0.000969
0.002981 0.000547 0.000371
0.002754 0.000591 0.000492
0.002705 0.00043 -0.000388
0.002752 0.000406 -0.000421
0.002793 0.000385 -0.000453
0.00283 0.000365 -0.000484
0.002865 0.000347 -0.000514
0.002898 0.000329 -0.000545
0.002927 0.000314 -0.000575
0.002939 0.000307 -0.000601
0.002936 0.000306 -0.000626
0.00293 0.000307 -0.00065
0.002925 0.000307 -0.000674
0.002919 0.000308 -0.000698
0.002913 0.000309 -0.000722
0.002905 0.000311 -0.000746
0.002885 0.000318 -0.000766
0.002426 0.000724 0.000825
0.002988 0.000574 0.000322
0.002872 0.000366 0.000133
0.002841 0.000378 0.000114
0.002808 0.000392 9.4e-05
0.002768 0.000409 7.6e-05
0.00273 0.000425 5.7e-05
0.002687 0.000443 4e-05
0.002642 0.000463 2.2e-05
0.002595 0.000483 5e-06
0.002542 0.000506 -1.1e-05
0.002494 0.000527 -2.8e-05
0.002465 0.000539 -4.8e-05
0.002448 0.000545 -7.1e-05
0.002436 0.000549 -9.4e-05
0.002429 0.00055 -0.000117
0.002426 0.000549 -0.000142
0.002923 0.000722 0.000165
0.002882 0.00066 0.000139
0.002943 0.000563 0.000416
0.00246 0.000743 -0.000263
0.002705 0.000403 -0.000388
0.002752 0.000379 -0.000421
0.002793 0.000357 -0.000452
0.002829 0.000339 -0.000483
0.002864 0.00032 -0.000514
0.002897 0.000303 -0.000545
0.002926 0.000287 -0.000574
0.002938 0.00028 -0.000601
0.002936 0.000279 -0.000626
0.002931 0.000279 -0.00065
0.002925 0.00028 -0.000674
0.002919 0.000281 -0.000698
0.002913 0.000282 -0.000722
0.002905 0.000284 -0.000746
0.002885 0.000291 -0.000766
0.002373 0.000734 0.000595
0.002981 0.000574 0.000371
0.002873 0.000338 0.000132
0.002842 0.00035 0.000114
0.002808 0.000364 9.4e-05
0.00277 0.000381 7.6e-05
0.002729 0.000398 5.8e-05
0.002687 0.000416 4e-05
0.002642 0.000435 2.2e-05
0.002594 0.000456 5e-06
0.002543 0.000478 -1.1e-05
0.002494 0.0005 -2.8e-05
0.002465 0.000511 -4.8e-05
0.002448 0.000518 -7.1e-05
0.002436 0.000521 -9.4e-05
0.002429 0.000523 -0.000117
0.002426 0.000522 -0.000142
0.002857 0.000709 0.000455
0.002964 0.000619 0.000195
0.002972 0.00055 0.000395
0.002903 0.000553 0.000436
0.002705 0.000376 -0.000388
0.002752 0.000352 -0.000421
0.002792 0.000331 -0.000452
0.00283 0.000311 -0.000484
0.002863 0.000293 -0.000514
0.002897 0.000276 -0.000545
0.002926 0.00026 -0.000575
0.002938 0.000253 -0.000601
0.002936 0.000252 -0.000626
0.002931 0.000252 -0.00065
0.002925 0.000253 -0.000674
0.002919 0.000254 -0.000698
0.002913 0.000255 -0.000722
0.002905 0.000257 -0.000746
0.002884 0.000264 -0.000766
0.002592 0.000612 0.000969
0.002985 0.000601 0.000346
0.002872 0.000311 0.000132
0.002842 0.000323 0.000113
0.002808 0.000337 9.4e-05
0.00277 0.000353 7.6e-05
0.002729 0.000371 5.7e-05
0.002686 0.000389 4e-05
0.002642 0.000408 2.2e-05
0.002594 0.000429 5e-06
0.002544 0.000451 -1.2e-05
0.002493 0.000473 -2.8e-05
0.002466 0.000484 -4.9e-05
0.002448 0.000491 -7.1e-05
0.002436 0.000494 -9.4e-05
0.00243 0.000495 -0.000117
0.002427 0.000495 -0.000142
0.002984 0.000657 0.000322
0.002547 0.000757 0.00054
0.002926 0.000585 0.000166
0.002528 0.000714 -0.000304
0.002705 0.000348 -0.000388
0.002751 0.000325 -0.000421
0.002793 0.000303 -0.000453
0.002829 0.000284 -0.000484
0.002864 0.000266 -0.000514
0.002896 0.000249 -0.000545
0.002926 0.000233 -0.000575
0.002938 0.000226 -0.000601
0.002936 0.000225 -0.000626
0.002931 0.000225 -0.00065
0.002925 0.000226 -0.000674
0.002919 0.000227 -0.000698
0.002913 0.000228 -0.000722
0.002904 0.00023 -0.000746
0.002884 0.000237 -0.000765
0.002729 0.000724 0.001181
0.00299 0.000602 0.000297
0.002872 0.000284 0.000132
0.002843 0.000296 0.000113
0.002808 0.00031 9.4e-05
0.00277 0.000326 7.6e-05
0.00273 0.000343 5.7e-05
0.002686 0.000362 4e-05
0.002643 0.000381 2.2e-05
0.002594 0.000402 5e-06
0.002543 0.000424 -1.1e-05
0.002494 0.000446 -2.8e-05
0.002466 0.000457 -4.9e-05
0.002448 0.000463 -7.1e-05
0.002436 0.000467 -9.4e-05
0.00243 0.000468 -0.000118
0.002427 0.000468 -0.000142
0.002425 0.000466 -0.000167
0.002567 0.000734 0.000941
0.002883 0.000606 0.000138
0.002991 0.000466 0.000297
0.002753 0.000297 -0.000421
0.002792 0.000277 -0.000452
0.002829 0.000257 -0.000484
0.002863 0.000239 -0.000514
0.002896 0.000222 -0.000545
0.002926 0.000206 -0.000575
0.002937 0.000199 -0.000601
0.002935 0.000198 -0.000626
0.002931 0.000198 -0.00065
0.002925 0.000199 -0.000674
0.002919 0.0002 -0.000698
0.002913 0.000201 -0.000722
0.002903 0.000203 -0.000745
0.002883 0.000211 -0.000765
0.0025 0.000659 0.000883
0.002901 0.000246 0.000152
0.002872 0.000257 0.000133
0.002842 0.000269 0.000113
0.002808 0.000283 9.4e-05
0.002771 0.000299 7.6e-05
0.002728 0.000317 5.8e-05
0.002686 0.000335 4e-05
0.002643 0.000353 2.2e-05
0.002595 0.000374 5e-06
0.002543 0.000397 -1.1e-05
0.002494 0.000418 -2.8e-05
0.002466 0.00043 -4.9e-05
0.002448 0.000436 -7.1e-05
0.002436 0.00044 -9.4e-05
0.00243 0.000441 -0.000118
0.002426 0.000441 -0.000142
0.002426 0.000439 -0.000167
0.00298 0.000602 0.000371
0.002963 0.000566 0.000195
0.002347 0.000764 0.000669
0.002648 0.000323 -0.000354
0.002705 0.000294 -0.000388
0.002752 0.00027 -0.000421
0.002793 0.000249 -0.000452
0.00283 0.00023 -0.000484
0.002863 0.000212 -0.000514
0.002897 0.000194 -0.000545
0.002924 0.000179 -0.000574
0.002935 0.000173 -0.000601
0.002934 0.000171 -0.000626
0.00293 0.000171 -0.00065
0.002925 0.000172 -0.000674
0.002919 0.000173 -0.000698
0.002911 0.000174 -0.000722
0.002902 0.000177 -0.000745
0.002882 0.000184 -0.000765
0.002342 0.000715 0.000715
0.0029 0.000218 0.000154
0.002872 0.00023 0.000134
0.002841 0.000242 0.000114
0.002808 0.000256 9.4e-05
0.002771 0.000272 7.6e-05
0.002728 0.00029 5.8e-05
0.002686 0.000308 4e-05
0.002643 0.000326 2.2e-05
0.002594 0.000347 5e-06
0.002545 0.000369 -1.2e-05
0.002494 0.000391 -2.8e-05
0.002466 0.000403 -4.9e-05
0.002448 0.000409 -7.1e-05
0.002436 0.000413 -9.4e-05
0.002429 0.000414 -0.000118
0.002426 0.000413 -0.000142
0.002426 0.000412 -0.000167
0.002987 0.000607 0.000223
0.002988 0.000552 0.000223
0.002856 0.000519 0.000455
0.002648 0.000296 -0.000354
0.002706 0.000267 -0.000388
0.002752 0.000243 -0.000421
0.002793 0.000222 -0.000453
0.002829 0.000203 -0.000484
0.002864 0.000184 -0.000514
0.002897 0.000167 -0.000545
0.002924 0.000152 -0.000574
0.002932 0.000147 -0.0006
0.002931 0.000145 -0.000625
0.002928 0.000145 -0.00065
0.002923 0.000145 -0.000674
0.002917 0.000146 -0.000698
0.002909 0.000148 -0.000722
0.002899 0.000151 -0.000745
0.002881 0.000157 -0.000765
0.002576 0.000747 -0.000323
0.002899 0.000191 0.000154
0.002872 0.000202 0.000134
0.002841 0.000215 0.000114
0.002809 0.000228 9.4e-05
0.00277 0.000245 7.6e-05
0.002728 0.000263 5.8e-05
0.002684 0.000282 4e-05
0.002642 0.000299 2.2e-05
0.002595 0.00032 5e-06
0.002544 0.000342 -1.2e-05
0.002495 0.000364 -2.8e-05
0.002465 0.000375 -4.9e-05
0.002448 0.000382 -7.1e-05
0.002436 0.000386 -9.4e-05
0.002429 0.000387 -0.000118
0.002427 0.000386 -0.000142
0.002425 0.000385 -0.000167
0.002599 0.000629 0.000965
0.002994 0.000549 0.000248
0.002628 0.000748 -0.000317
0.002576 0.000304 -0.000317
0.002647 0.000269 -0.000353
0.002706 0.000239 -0.000388
0.002752 0.000216 -0.000421
0.002793 0.000194 -0.000453
0.00283 0.000175 -0.000484
0.002865 0.000157 -0.000514
0.002897 0.00014 -0.000545
0.002921 0.000126 -0.000574
0.002927 0.000122 -0.0006
0.002926 0.00012 -0.000625
0.002923 0.00012 -0.000649
0.002918 0.00012 -0.000673
0.002912 0.000121 -0.000697
0.002904 0.000123 -0.000721
0.002894 0.000126 -0.000744
0.002878 0.000132 -0.000765
0.002928 0.000155 0.000169
0.002899 0.000164 0.000154
0.00287 0.000176 0.000134
0.002841 0.000188 0.000114
0.002808 0.000202 9.4e-05
0.002769 0.000218 7.6e-05
0.002728 0.000235 5.8e-05
0.002684 0.000254 4e-05
0.002642 0.000273 2.2e-05
0.002595 0.000293 5e-06
0.002545 0.000314 -1.2e-05
0.002495 0.000336 -2.9e-05
0.002466 0.000348 -4.9e-05
0.002448 0.000355 -7.1e-05
0.002436 0.000358 -9.4e-05
0.002429 0.00036 -0.000118
0.002426 0.000359 -0.000142
0.002425 0.000357 -0.000167
0.002925 0.000639 0.000166
0.002808 0.000622 0.000474
0.002879 0.000526 0.000138
0.002706 0.000212 -0.000388
0.002752 0.000188 -0.000421
0.002793 0.000167 -0.000453
0.002829 0.000148 -0.000484
0.002864 0.00013 -0.000514
0.002897 0.000113 -0.000545
0.002916 0.000102 -0.000573
0.002919 9.8e-05 -0.000598
0.002918 9.7e-05 -0.000623
0.002915 9.6e-05 -0.000648
0.002911 9.7e-05 -0.000672
0.002905 9.7e-05 -0.000696
0.002897 9.9e-05 -0.00072
0.002888 0.000102 -0.000743
0.002873 0.000107 -0.000765
0.002928 0.000127 0.00017
0.002899 0.000137 0.000154
0.00287 0.000149 0.000134
0.002841 0.000161 0.000114
0.002808 0.000174 9.4e-05
0.002769 0.000191 7.6e-05
0.002727 0.000209 5.8e-05
0.002684 0.000227 4e-05
0.002642 0.000245 2.2e-05
0.002595 0.000266 5e-06
0.002543 0.000288 -1.2e-05
0.002495 0.000309 -2.9e-05
0.002466 0.000321 -4.9e-05
0.002448 0.000328 -7.1e-05
0.002436 0.000331 -9.4e-05
0.002429 0.000332 -0.000118
0.002426 0.000332 -0.000142
0.002425 0.00033 -0.000167
0.002857 0.000654 0.000455
0.002754 0.000645 0.000492
0.002465 0.00065 0.000854
0.002705 0.000186 -0.000388
0.002752 0.000161 -0.000421
0.002793 0.00014 -0.000453
0.00283 0.000121 -0.000484
0.002864 0.000103 -0.000514
0.002895 8.6e-05 -0.000544
0.002907 7.9e-05 -0.000572
0.002909 7.6e-05 -0.000597
0.002907 7.5e-05 -0.000621
0.002905 7.4e-05 -0.000646
0.0029 7.4e-05 -0.00067
0.002895 7.5e-05 -0.000694
0.002887 7.7e-05 -0.000718
0.002878 7.9e-05 -0.000741
0.002865 8.4e-05 -0.000764
0.001991 -2e-05 -0.00062
0.002564 0.000599 0.000941
0.002899 0.00011 0.000154
0.002869 0.000122 0.000134
0.002841 0.000134 0.000114
0.002807 0.000148 9.4e-05
0.002769 0.000164 7.6e-05
0.002728 0.000181 5.7e-05
0.002685 0.0002 4e-05
0.002641 0.000218 2.2e-05
0.002595 0.000239 5e-06
0.002544 0.000261 -1.2e-05
0.002495 0.000282 -2.9e-05
0.002466 0.000294 -4.9e-05
0.002448 0.0003 -7.1e-05
0.002436 0.000304 -9.4e-05
0.002429 0.000305 -0.000118
0.002426 0.000305 -0.000142
0.002964 0.000663 0.000394
0.002903 0.000634 0.000436
0.002482 0.000751 0.000857
0.002973 0.000468 0.000395
0.002753 0.000134 -0.000421
0.002793 0.000113 -0.000453
0.00283 9.4e-05 -0.000484
0.002862 7.6e-05 -0.000514
0.002887 6.3e-05 -0.000543
0.002895 5.7e-05 -0.000569
0.002895 5.5e-05 -0.000595
0.002894 5.4e-05 -0.000619
0.002891 5.4e-05 -0.000644
0.002886 5.4e-05 -0.000668
0.002881 5.5e-05 -0.000692
0.002874 5.6e-05 -0.000716
0.002865 5.8e-05 -0.000739
0.002466 0.000677 0.000855
0.002899 8.3e-05 0.000153
0.00287 9.5e-05 0.000133
0.002841 0.000106 0.000114
0.002806 0.000121 9.4e-05
0.00277 0.000136 7.6e-05
0.002727 0.000154 5.8e-05
0.002684 0.000173 4e-05
0.002641 0.000191 2.2e-05
0.002595 0.000211 5e-06
0.002544 0.000233 -1.2e-05
0.002494 0.000255 -2.9e-05
0.002466 0.000266 -4.9e-05
0.002448 0.000273 -7.1e-05
0.002436 0.000277 -9.4e-05
0.002429 0.000278 -0.000118
0.002426 0.000277 -0.000142
0.002987 0.000659 0.000272
0.002992 0.000602 0.000273
0.002506 0.000742 0.00081
0.002926 0.000503 0.000166
0.002705 0.000131 -0.000388
0.002752 0.000107 -0.000421
0.002794 8.5e-05 -0.000453
0.002828 6.7e-05 -0.000484
0.002858 5.1e-05 -0.000514
0.002873 4.2e-05 -0.000541
