0.002948 0.000359 -0.000578
0.002943 0.000359 -0.000602
0.002938 0.000359 -0.000626
0.002933 0.00036 -0.00065
0.002927 0.000361 -0.000674
0.002921 0.000362 -0.000698
0.002913 0.000364 -0.000722
0.002889 0.000373 -0.000742
0.002894 0.000413 0.00018
0.002869 0.000423 0.000159
0.002839 0.000435 0.000139
0.002807 0.000448 0.00012
0.00277 0.000464 0.000101
0.002727 0.000483 8.3e-05
0.002687 0.000499 6.5e-05
0.002642 0.000519 4.7e-05
0.002598 0.000538 2.9e-05
0.002546 0.00056 1.3e-05
0.002506 0.000577 -5e-06
0.002482 0.000587 -2.6e-05
0.002467 0.000592 -4.9e-05
0.002457 0.000595 -7.2e-05
0.002452 0.000595 -9.6e-05
0.00245 0.000594 -0.000121
0.002841 0.000713 0.000503
0.002786 0.000656 0.00052
0.002981 0.000546 0.000396
0.002356 0.000761 0.000742
0.002955 0.000721 0.000393
0.002694 0.000466 -0.000336
0.002744 0.000441 -0.000369
0.002786 0.000419 -0.000401
0.00283 0.000396 -0.000434
0.002866 0.000377 -0.000465
0.002899 0.00036 -0.000495
0.002933 0.000342 -0.000526
0.002949 0.000333 -0.000553
0.002948 0.000331 -0.000578
0.002943 0.000332 -0.000602
0.002938 0.000332 -0.000626
0.002933 0.000333 -0.00065
0.002927 0.000334 -0.000674
0.002921 0.000334 -0.000698
0.002913 0.000336 -0.000722
0.00289 0.000345 -0.000741
0.002895 0.000385 0.00018
0.002868 0.000396 0.000159
0.002839 0.000408 0.000139
0.002807 0.000421 0.00012
0.002769 0.000438 0.000101
0.002729 0.000455 8.3e-05
0.002687 0.000472 6.5e-05
0.002643 0.000491 4.7e-05
0.002597 0.000511 3e-05
0.002547 0.000533 1.3e-05
0.002506 0.00055 -5e-06
0.002482 0.00056 -2.6e-05
0.002466 0.000565 -4.9e-05
0.002457 0.000568 -7.2e-05
0.002452 0.000568 -9.6e-05
0.00245 0.000567 -0.000121
0.002985 0.00066 0.000272
0.002921 0.00064 0.00019
0.002965 0.00055 0.000443
0.00235 0.000764 0.000716
0.002553 0.000603 0.000964
0.002694 0.000439 -0.000336
0.002745 0.000413 -0.000369
0.002787 0.000391 -0.000401
0.002828 0.00037 -0.000433
0.002866 0.00035 -0.000465
0.0029 0.000332 -0.000495
0.002933 0.000315 -0.000526
0.002949 0.000305 -0.000553
0.002948 0.000304 -0.000578
0.002943 0.000305 -0.000602
0.002938 0.000305 -0.000626
0.002933 0.000306 -0.00065
0.002927 0.000306 -0.000674
0.002921 0.000307 -0.000699
0.002913 0.000309 -0.000722
0.002888 0.000318 -0.000741
0.002896 0.000358 0.00018
0.002868 0.000369 0.000159
0.002839 0.000381 0.000139
0.002807 0.000394 0.00012
0.002769 0.00041 0.000101
0.002729 0.000427 8.3e-05
0.002686 0.000445 6.5e-05
0.002597 0.000484 3e-05
0.002547 0.000506 1.3e-05
0.002505 0.000523 -5e-06
0.002482 0.000532 -2.6e-05
0.002466 0.000538 -4.9e-05
0.002456 0.000541 -7.2e-05
0.002452 0.000541 -9.6e-05
0.00245 0.00054 -0.000121
0.002979 0.000664 0.000247
0.002758 0.000616 0.000523
0.002984 0.000546 0.000371
0.002169 0.000574 0.00209
0.002369 0.000759 0.000669
0.002356 0.000764 0.000693
0.002786 0.000364 -0.000401
0.002827 0.000343 -0.000433
0.002868 0.000322 -0.000465
0.0029 0.000305 -0.000495
0.002933 0.000288 -0.000526
0.002949 0.000278 -0.000553
0.002948 0.000277 -0.000578
0.002943 0.000277 -0.000602
0.002938 0.000278 -0.000626
0.002933 0.000278 -0.00065
0.002927 0.000279 -0.000675
0.002922 0.00028 -0.000699
0.002913 0.000282 -0.000722
0.002887 0.000292 -0.000741
0.002958 0.000539 0.000219
0.002869 0.000342 0.000158
0.00284 0.000353 0.000139
0.002806 0.000367 0.00012
0.002768 0.000383 0.000101
0.002729 0.0004 8.3e-05
0.002687 0.000418 6.5e-05
0.002642 0.000437 4.7e-05
0.002596 0.000457 3e-05
0.002547 0.000478 1.3e-05
0.002504 0.000497 -5e-06
0.002482 0.000505 -2.6e-05
0.002466 0.000511 -4.9e-05
0.002456 0.000514 -7.2e-05
0.002452 0.000514 -9.6e-05
0.002449 0.000513 -0.000121
0.002731 0.000735 0.000539
0.002958 0.000621 0.000219
0.002987 0.000546 0.000347
0.002981 0.000492 0.000396
0.002695 0.000384 -0.000336
0.002744 0.000359 -0.000369
0.002786 0.000337 -0.000401
0.002827 0.000316 -0.000433
0.002868 0.000295 -0.000465
0.0029 0.000278 -0.000495
0.002933 0.00026 -0.000526
0.002949 0.000251 -0.000553
0.002948 0.00025 -0.000578
0.002944 0.00025 -0.000602
0.002938 0.00025 -0.000626
0.002933 0.000251 -0.00065
0.002927 0.000252 -0.000675
0.002922 0.000253 -0.000699
0.002913 0.000255 -0.000722
0.002887 0.000265 -0.000741
0.002898 0.000304 0.000174
0.002869 0.000314 0.000159
0.002839 0.000326 0.000139
0.002806 0.00034 0.00012
0.002768 0.000356 0.000101
0.002729 0.000373 8.3e-05
0.002688 0.00039 6.4e-05
0.002642 0.00041 4.7e-05
0.002596 0.00043 3e-05
0.002548 0.000451 1.3e-05
0.002505 0.000469 -5e-06
0.002481 0.000479 -2.6e-05
0.002466 0.000484 -4.9e-05
0.002456 0.000487 -7.2e-05
0.002451 0.000487 -9.6e-05
0.00245 0.000486 -0.000121
0.002931 0.000647 0.000464
0.002984 0.000573 0.000371
0.002958 0.000567 0.000219
0.002839 0.000578 0.000503
0.002695 0.000357 -0.000336
0.002744 0.000332 -0.00037
0.002786 0.00031 -0.000401
0.002826 0.000289 -0.000433
0.002868 0.000268 -0.000465
0.002902 0.00025 -0.000496
0.002934 0.000233 -0.000526
0.002948 0.000224 -0.000553
0.002948 0.000223 -0.000578
0.002943 0.000223 -0.000602
0.002938 0.000223 -0.000626
0.002933 0.000224 -0.000651
0.002927 0.000225 -0.000675
0.002921 0.000226 -0.000699
0.002912 0.000228 -0.000722
0.002887 0.000238 -0.000741
0.002467 0.000755 -6.3e-05
0.002869 0.000287 0.000159
0.00284 0.000299 0.000139
0.002806 0.000313 0.00012
0.002767 0.000329 0.000101
0.002728 0.000346 8.3e-05
0.002687 0.000364 6.5e-05
0.002643 0.000382 4.7e-05
0.002596 0.000403 3e-05
0.002546 0.000424 1.3e-05
0.002505 0.000442 -5e-06
0.002481 0.000452 -2.6e-05
0.002466 0.000457 -4.9e-05
0.002456 0.000459 -7.2e-05
0.002451 0.00046 -9.6e-05
0.00245 0.000459 -0.000121
0.002886 0.000666 0.000483
0.002981 0.000573 0.000396
0.002921 0.000585 0.00019
0.002358 0.000708 0.000693
0.002695 0.00033 -0.000336
0.002744 0.000305 -0.00037
0.002786 0.000283 -0.000402
0.002826 0.000262 -0.000433
0.002867 0.000241 -0.000465
0.002901 0.000223 -0.000495
0.002934 0.000206 -0.000526
0.002948 0.000197 -0.000553
0.002947 0.000196 -0.000578
0.002943 0.000196 -0.000602
0.002939 0.000196 -0.000627
0.002933 0.000197 -0.000651
0.002927 0.000198 -0.000675
0.002921 0.000199 -0.000699
0.002912 0.000201 -0.000722
0.002887 0.000211 -0.000741
0.00274 0.000501 0.001185
0.002868 0.00026 0.000159
0.002839 0.000272 0.000139
0.002807 0.000285 0.000119
0.002768 0.000302 0.000101
0.002728 0.000319 8.3e-05
0.002688 0.000336 6.4e-05
0.002643 0.000355 4.7e-05
0.002597 0.000375 2.9e-05
0.002546 0.000397 1.3e-05
0.002505 0.000415 -5e-06
0.002481 0.000424 -2.6e-05
0.002466 0.00043 -4.9e-05
0.002456 0.000432 -7.2e-05
0.002451 0.000433 -9.6e-05
0.00245 0.000431 -0.000121
0.002981 0.000656 0.000371
0.002879 0.000661 0.000161
0.002987 0.000552 0.000247
0.002462 0.000765 -0.000188
0.002696 0.000302 -0.000337
0.002745 0.000277 -0.00037
0.002787 0.000255 -0.000402
0.002827 0.000235 -0.000433
0.002866 0.000214 -0.000465
0.002901 0.000196 -0.000496
0.002934 0.000179 -0.000526
0.002946 0.000171 -0.000553
0.002946 0.000169 -0.000578
0.002943 0.000169 -0.000602
0.002938 0.000169 -0.000627
0.002933 0.00017 -0.000651
0.002927 0.00017 -0.000675
0.00292 0.000172 -0.000698
0.00291 0.000175 -0.000722
0.002888 0.000183 -0.000742
0.002646 0.00066 -0.000315
0.002869 0.000233 0.000158
0.002839 0.000245 0.000139
0.002807 0.000258 0.000119
0.002768 0.000275 0.000101
0.002728 0.000292 8.3e-05
0.002688 0.000309 6.4e-05
0.002643 0.000328 4.7e-05
0.002598 0.000348 2.9e-05
0.002545 0.00037 1.3e-05
0.002504 0.000388 -5e-06
0.002481 0.000397 -2.6e-05
0.002465 0.000403 -4.9e-05
0.002456 0.000405 -7.2e-05
0.002451 0.000406 -9.6e-05
0.002449 0.000404 -0.000121
0.002987 0.000658 0.000297
0.002965 0.000578 0.000443
0.002993 0.000547 0.000273
0.002643 0.000715 -0.000315
0.002696 0.000275 -0.000337
0.002743 0.000251 -0.000369
0.002788 0.000228 -0.000402
0.002828 0.000207 -0.000433
0.002866 0.000187 -0.000465
0.002901 0.000169 -0.000496
0.002932 0.000152 -0.000526
0.002944 0.000145 -0.000553
0.002944 0.000143 -0.000577
0.002941 0.000142 -0.000602
0.002937 0.000142 -0.000626
0.002932 0.000143 -0.00065
0.002926 0.000144 -0.000674
0.002918 0.000146 -0.000698
0.002908 0.000149 -0.000721
0.002887 0.000156 -0.000742
0.002959 0.000721 0.000368
0.002868 0.000206 0.000159
0.00284 0.000217 0.000139
0.002806 0.000232 0.00012
0.002767 0.000248 0.000101
0.002729 0.000264 8.2e-05
0.002687 0.000282 6.4e-05
0.002644 0.0003 4.7e-05
0.002596 0.000321 3e-05
0.002547 0.000342 1.3e-05
0.002504 0.000361 -5e-06
0.002481 0.00037 -2.6e-05
0.002465 0.000376 -4.9e-05
0.002456 0.000378 -7.2e-05
0.002451 0.000379 -9.6e-05
0.002449 0.000377 -0.000121
0.002787 0.00071 0.000521
0.002987 0.000573 0.000347
0.002977 0.000547 0.00042
0.002749 0.000492 0.001216
0.002744 0.000223 -0.000369
0.002788 0.000201 -0.000402
0.002827 0.00018 -0.000433
0.002866 0.00016 -0.000465
0.002901 0.000142 -0.000495
0.00293 0.000126 -0.000525
0.002939 0.00012 -0.000552
0.002939 0.000118 -0.000577
0.002937 0.000117 -0.000601
0.002933 0.000117 -0.000626
0.002928 0.000117 -0.00065
0.002922 0.000118 -0.000674
0.002914 0.00012 -0.000697
0.002904 0.000123 -0.000721
0.002884 0.00013 -0.000741
0.002897 0.000169 0.000174
0.002868 0.000179 0.000159
0.00284 0.00019 0.000139
0.002806 0.000204 0.00012
0.002767 0.000221 0.000101
0.00273 0.000237 8.2e-05
0.002687 0.000255 6.4e-05
0.002644 0.000273 4.7e-05
0.002596 0.000294 3e-05
0.002546 0.000316 1.3e-05
0.002505 0.000334 -5e-06
0.002481 0.000343 -2.6e-05
0.002465 0.000348 -4.9e-05
0.002456 0.000351 -7.2e-05
0.002451 0.000351 -9.6e-05
0.002449 0.00035 -0.000121
0.00284 0.000687 0.000503
0.002931 0.000593 0.000464
0.002989 0.000546 0.000322
0.002553 0.000657 0.000964
0.002696 0.00022 -0.000337
0.002744 0.000196 -0.00037
0.002786 0.000174 -0.000402
0.002828 0.000153 -0.000433
0.002867 0.000132 -0.000465
0.0029 0.000115 -0.000495
0.002926 0.0001 -0.000525
0.002933 9.6e-05 -0.000551
0.002933 9.4e-05 -0.000576
0.002931 9.3e-05 -0.0006
0.002927 9.3e-05 -0.000625
0.002922 9.3e-05 -0.000649
0.002916 9.4e-05 -0.000673
0.002908 9.6e-05 -0.000696
0.002898 9.9e-05 -0.00072
0.002881 0.000105 -0.000741
0.002683 0.000643 0.000545
0.002868 0.000152 0.000159
0.00284 0.000163 0.000139
0.002806 0.000177 0.00012
0.002769 0.000193 0.000101
0.002729 0.00021 8.2e-05
0.002686 0.000228 6.5e-05
0.002643 0.000246 4.7e-05
0.002597 0.000266 2.9e-05
0.002547 0.000288 1.3e-05
0.002504 0.000307 -5e-06
0.002481 0.000316 -2.6e-05
0.002465 0.000321 -4.9e-05
0.002455 0.000324 -7.2e-05
0.00245 0.000325 -9.6e-05
0.002449 0.000323 -0.000121
0.002921 0.000694 0.00019
0.002886 0.000612 0.000483
0.002992 0.000547 0.000298
0.002552 0.00063 0.000964
0.002965 0.000469 0.000443
0.002694 0.000194 -0.000336
0.002744 0.000169 -0.00037
0.002787 0.000147 -0.000402
0.002828 0.000126 -0.000433
0.002867 0.000105 -0.000465
0.0029 8.8e-05 -0.000495
0.002919 7.7e-05 -0.000524
0.002924 7.3e-05 -0.000549
0.002923 7.1e-05 -0.000574
0.002921 7e-05 -0.000599
0.002917 7e-05 -0.000623
0.002912 7.1e-05 -0.000647
0.002906 7.2e-05 -0.000671
0.002898 7.3e-05 -0.000695
0.002889 7.6e-05 -0.000718
0.002874 8.1e-05 -0.00074
0.002892 0.000115 0.00018
0.002868 0.000125 0.000159
0.002839 0.000136 0.000139
0.002806 0.00015 0.000119
0.002768 0.000166 0.000101
0.002728 0.000183 8.2e-05
0.002686 0.000201 6.5e-05
0.002643 0.00022 4.7e-05
0.002597 0.000239 2.9e-05
0.002547 0.000261 1.3e-05
0.002504 0.000279 -5e-06
0.002481 0.000289 -2.6e-05
0.002465 0.000294 -4.9e-05
0.002455 0.000297 -7.2e-05
0.00245 0.000297 -9.6e-05
0.002449 0.000296 -0.000121
0.002958 0.000675 0.000219
0.002745 0.00063 0.001215
0.00284 0.000605 0.000503
0.002984 0.000492 0.000371
0.002746 0.000141 -0.00037
0.002787 0.000119 -0.000402
0.002828 9.8e-05 -0.000434
0.002867 7.8e-05 -0.000465
0.002896 6.2e-05 -0.000495
0.002909 5.4e-05 -0.000522
0.002911 5.1e-05 -0.000547
0.00291 5e-05 -0.000572
0.002908 4.9e-05 -0.000597
0.002904 4.9e-05 -0.000621
0.002899 5e-05 -0.000645
0.002893 5.1e-05 -0.000669
0.002886 5.2e-05 -0.000693
0.002877 5.5e-05 -0.000716
0.002863 5.9e-05 -0.000739
0.002893 8.7e-05 0.00018
0.002868 9.7e-05 0.000159
0.002838 0.000109 0.000139
0.002807 0.000123 0.000119
0.002769 0.000138 0.000101
0.002729 0.000155 8.2e-05
0.002687 0.000173 6.4e-05
0.002642 0.000193 4.7e-05
0.002597 0.000212 2.9e-05
0.002547 0.000234 1.3e-05
0.002504 0.000252 -5e-06
0.00248 0.000262 -2.6e-05
0.002465 0.000267 -4.9e-05
0.002455 0.00027 -7.2e-05
0.00245 0.00027 -9.6e-05
0.002449 0.000269 -0.000121
0.002986 0.000656 0.000322
0.002554 0.000738 0.000965
0.002931 0.000565 0.000464
0.002987 0.000492 0.000347
0.002421 0.000671 0.000849
0.002698 0.000138 -0.000337
0.002746 0.000114 -0.00037
0.002787 9.2e-05 -0.000402
0.002828 7.1e-05 -0.000433
0.002864 5.2e-05 -0.000464
0.002886 4e-05 -0.000493
0.002894 3.4e-05 -0.000519
0.002895 3.2e-05 -0.000545
0.002893 3.1e-05 -0.000569
0.002891 3e-05 -0.000594
0.002887 3e-05 -0.000618
0.002882 3.1e-05 -0.000642
0.002876 3.1e-05 -0.000666
0.002869 3.3e-05 -0.00069
0.00286 3.5e-05 -0.000714
0.002848 3.9e-05 -0.000736
0.002603 0.000733 -0.000295
0.002869 7e-05 0.000158
0.002838 8.2e-05 0.000139
0.002806 9.5e-05 0.000119
0.002768 0.000112 0.000101
0.002728 0.000129 8.2e-05
0.002686 0.000147 6.4e-05
0.002644 0.000165 4.6e-05
0.002597 0.000185 2.9e-05
0.002546 0.000207 1.3e-05
0.002505 0.000225 -5e-06
0.00248 0.000234 -2.6e-05
0.002465 0.00024 -4.9e-05
0.002456 0.000242 -7.2e-05
0.002451 0.000243 -9.6e-05
0.002449 0.000241 -0.000121
0.002985 0.000656 0.000346
0.002991 0.000603 0.000273
0.002496 0.000719 0.000572
0.002977 0.000465 0.00042
0.002451 0.000739 -0.000115
0.002989 0.000492 0.000322
0.002695 0.000112 -0.000337
0.002745 8.7e-05 -0.00037
0.002788 6.4e-05 -0.000402
0.002827 4.4e-05 -0.000433
0.002853 3e-05 -0.000463
0.002868 2.1e-05 -0.00049
0.002872 1.8e-05 -0.000516
0.002872 1.6e-05 -0.000541
0.002869 1.5e-05 -0.000565
0.002867 1.4e-05 -0.00059
0.002863 1.4e-05 -0.000614
0.002858 1.5e-05 -0.000638
0.002853 1.5e-05 -0.000662
0.002846 1.7e-05 -0.000686
0.002838 1.9e-05 -0.00071
0.002827 2.2e-05 -0.000733
0.002422 0.000724 0.000849
0.002867 4.4e-05 0.000157
0.002839 5.5e-05 0.000139
0.002804 6.9e-05 0.00012
0.002767 8.5e-05 0.000101
0.002728 0.000102 8.2e-05
0.002685 0.00012 6.5e-05
0.002644 0.000138 4.6e-05
0.002596 0.000158 2.9e-05
0.002545 0.000181 1.3e-05
0.002505 0.000198 -5e-06
0.002481 0.000207 -2.6e-05
0.002465 0.000213 -4.9e-05
0.002456 0.000215 -7.2e-05
0.002451 0.000216 -9.6e-05
0.002449 0.000214 -0.000121
0.002969 0.000659 0.000419
0.002991 0.000601 0.000298
0.002958 0.000594 0.000219
0.002602 0.000679 -0.000295
0.002454 0.000736 -9e-05
0.002459 0.000739 -0.000188
0.002745 6e-05 -0.00037
0.002786 3.9e-05 -0.000402
0.002817 2.2e-05 -0.000432
0.002832 1.3e-05 -0.000459
0.002839 8e-06 -0.000485
0.002838 6e-06 -0.00051
0.002835 6e-06 -0.000535
0.002832 6e-06 -0.000559
0.002828 5e-06 -0.000583
0.002824 5e-06 -0.000608
0.002819 6e-06 -0.000632
0.002814 6e-06 -0.000656
0.002809 7e-06 -0.00068
0.002804 8e-06 -0.000704
0.002527 0.000644 0.000936
0.002878 0.000688 0.000162
0.002834 3e-05 0.000139
0.002805 4.2e-05 0.00012
0.002767 5.8e-05 0.000101
0.002729 7.4e-05 8.2e-05
0.002685 9.3e-05 6.5e-05
0.002642 0.000111 4.7e-05
0.002596 0.000131 2.9e-05
0.002544 0.000154 1.3e-05
0.002505 0.00017 -5e-06
0.002481 0.00018 -2.6e-05
0.002466 0.000185 -4.9e-05
0.002456 0.000188 -7.2e-05
0.002451 0.000188 -9.6e-05
0.002449 0.000187 -0.000121
0.002976 0.000657 0.000395
0.002975 0.000602 0.00042
0.002992 0.000574 0.000298
0.002559 0.000698 -0.000276
0.002698 5.7e-05 -0.000337
0.002742 3.4e-05 -0.000369
0.002774 1.7e-05 -0.0004
0.00279 8e-06 -0.000427
0.002791 5e-06 -0.000452
0.002787 5e-06 -0.000477
0.002784 5e-06 -0.000501
0.002781 4e-06 -0.000526
0.002774 6e-06 -0.00055
0.002772 5e-06 -0.000574
0.002768 5e-06 -0.000598
0.002762 5e-06 -0.000623
0.002759 5e-06 -0.000647
0.002966 0.00072 0.00032
0.002829 7e-06 0.000166
0.002817 1.1e-05 0.000142
0.002797 1.8e-05 0.000121
0.002764 3.2e-05 0.000101
0.002729 4.7e-05 8.2e-05
0.002687 6.5e-05 6.4e-05
0.002642 8.4e-05 4.7e-05
0.002596 0.000104 2.9e-05
0.002544 0.000126 1.3e-05
0.002504 0.000143 -5e-06
0.002481 0.000153 -2.6e-05
0.002466 0.000158 -4.9e-05
0.002456 0.000161 -7.2e-05
0.002451 0.000161 -9.6e-05
0.002449 0.00016 -0.000121
0.00297 0.000695 0.000246
0.00299 0.000629 0.000298
0.00284 0.000632 0.000503
0.002516 0.000716 -0.000256
0.00295 0.000694 0.000442
0.002693 3.2e-05 -0.000336
0.002729 1.3e-05 -0.000367
0.002742 5e-06 -0.000394
0.002743 2e-06 -0.00042
0.002738 3e-06 -0.000444
0.002735 3e-06 -0.000468
0.002729 3e-06 -0.000492
0.002726 3e-06 -0.000517
0.002723 3e-06 -0.000541
0.002718 3e-06 -0.000565
0.002713 3e-06 -0.000589
0.00271 3e-06 -0.000614
0.002783 3e-06 0.000198
0.002779 3e-06 0.000174
0.002776 3e-06 0.000149
0.002768 5e-06 0.000126
0.002751 1.1e-05 0.000103
0.002725 2.1e-05 8.3e-05
0.002686 3.8e-05 6.4e-05
0.002642 5.7e-05 4.7e-05
0.002544 9.9e-05 1.3e-05
0.002504 0.000116 -5e-06
0.002481 0.000125 -2.6e-05
0.002465 0.000131 -4.9e-05
0.002456 0.000133 -7.2e-05
0.002451 0.000134 -9.6e-05
0.002449 0.000133 -0.000121
0.002931 0.000674 0.000464
0.002983 0.000635 0.000247
0.002976 0.000574 0.00042
0.002987 0.000497 0.000247
0.002681 1e-05 -0.000334
0.002692 3e-06 -0.000361
0.002688 3e-06 -0.000385
0.002684 3e-06 -0.00041
0.00268 3e-06 -0.000434
0.002676 3e-06 -0.000458
0.002672 3e-06 -0.000483
0.002668 3e-06 -0.000507
0.002663 4e-06 -0.000531
0.00266 3e-06 -0.000556
0.002656 3e-06 -0.00058
0.002651 4e-06 -0.000604
0.002647 4e-06 -0.000628
0.002636 4e-06 -0.000701
0.002632 4e-06 -0.000726
0.002717 4e-06 0.000159
0.002714 3e-06 0.000135
0.002712 2e-06 0.00011
0.002702 5e-06 8.7e-05
0.002681 1.3e-05 6.5e-05
0.002642 3e-05 4.7e-05
0.002595 5e-05 2.9e-05
0.002545 7.2e-05 1.3e-05
0.002504 8.9e-05 -5e-06
0.00248 9.8e-05 -2.6e-05
0.002465 0.000104 -4.9e-05
0.002456 0.000106 -7.2e-05
0.002451 0.000107 -9.6e-05
0.002449 0.000106 -0.000121
0.002979 0.000628 0.000395
0.002989 0.000573 0.000322
0.002921 0.000613 0.00019
0.002742 0.00049 0.00124
0.002958 0.000512 0.000219
0.002642 1e-06 -0.000328
0.002643 -1e-06 -0.000353
0.002638 -0.0 -0.000377
0.002635 -1e-06 -0.000402
0.002629 -0.0 -0.000426
0.002625 -0.0 -0.00045
0.002621 -0.0 -0.000474
0.002615 1e-06 -0.000498
0.002614 -0.0 -0.000523
0.002611 -1e-06 -0.000548
0.002605 -0.0 -0.000572
0.0026 1e-06 -0.000596
0.002596 1e-06 -0.00062
0.002592 1e-06 -0.000644
0.002586 -0.0 -0.000693
0.00258 1e-06 -0.000717
0.002666 0.0 0.000167
0.002664 -1e-06 0.000143
0.002657 1e-06 0.000119
0.002654 1e-06 9.5e-05
0.002645 3e-06 7.1e-05
0.00263 8e-06 4.9e-05
0.002596 2.2e-05 2.9e-05
0.002543 4.6e-05 1.3e-05
0.002503 6.2e-05 -5e-06
0.002479 7.2e-05 -2.6e-05
0.002465 7.7e-05 -4.9e-05
0.002456 7.9e-05 -7.2e-05
0.00245 8e-05 -9.6e-05
0.002958 0.000663 0.000443
0.002676 0.000494 0.001373
0.002495 0.000741 0.000908
0.002493 0.000634 0.000907
0.002461 0.00065 0.000879
0.002878 0.000525 0.000161
0.002839 0.000524 0.000503
0.002578 3e-06 -0.000342
0.002574 3e-06 -0.000367
0.002571 2e-06 -0.000391
0.002566 3e-06 -0.000415
0.002564 2e-06 -0.00044
0.002559 2e-06 -0.000464
0.002554 3e-06 -0.000488
0.002551 2e-06 -0.000513
0.002542 2e-06 -0.000561
0.002537 3e-06 -0.000585
0.002534 3e-06 -0.00061
0.002529 3e-06 -0.000634
0.002518 3e-06 -0.000707
0.002978 0.000686 0.000346
0.002601 2e-06 0.000153
0.002598 2e-06 0.000129
0.002595 1e-06 0.000104
0.002977 0.000492 0.00042
0.002588 1e-06 5.6e-05
0.002577 4e-06 3.2e-05
0.002541 1.9e-05 1.3e-05
0.002504 3.5e-05 -5e-06
0.002478 4.5e-05 -2.6e-05
0.002464 5e-05 -4.9e-05
0.002455 5.2e-05 -7.2e-05
0.00245 5.3e-05 -9.6e-05
0.002448 5.2e-05 -0.000121
0.002984 0.000628 0.000371
0.002986 0.000579 0.000247
0.002717 0.00072 0.00123
0.002003 -2.6e-05 -0.000622
0.002885 0.000504 0.000483
0.002538 -4e-06 -0.000311
0.002534 -4e-06 -0.000335
0.002009 -2.7e-05 -0.000598
0.002513 -3e-06 -0.000456
0.002509 -3e-06 -0.000481
0.002505 -3e-06 -0.000505
0.0025 -2e-06 -0.000529
0.002496 -2e-06 -0.000553
0.002492 -3e-06 -0.000578
0.002488 -3e-06 -0.000602
0.002483 -2e-06 -0.000626
0.002014 -2.7e-05 -0.000574
0.002293 6.7e-05 -0.000869
0.00228 7.1e-05 -0.000892
0.002261 7.3e-05 -0.000988
0.002886 0.000721 0.000484
0.00256 -2e-06 0.00021
0.002557 -3e-06 0.000185
0.002374 0.00075 0.000794
0.002643 0.000743 -0.000315
0.002878 0.000607 0.000161
0.002352 0.000709 0.000741
0.002487 0.000728 -0.000235
0.00248 1.7e-05 -2.6e-05
0.002466 2.2e-05 -5e-05
0.002454 2.6e-05 -7.2e-05
0.002449 2.6e-05 -9.6e-05
0.002447 2.5e-05 -0.000121
0.002887 0.000693 0.000484
0.002452 1.9e-05 -0.000172
0.002934 0.000728 0.00044
0.002362 0.000757 0.000768
0.00202 -2.8e-05 -0.000549
0.002446 -0.0 -0.00047
0.002441 -0.0 -0.000494
0.002436 0.0 -0.000519
0.002433 -0.0 -0.000543
0.00243 -0.0 -0.000567
0.002427 -1e-06 -0.000592
0.002416 -2e-06 -0.000665
0.002411 -1e-06 -0.000689
0.002024 -2.8e-05 -0.000525
0.00203 -2.9e-05 -0.000501
0.002292 4e-05 -0.000869
0.002279 4.4e-05 -0.000892
0.00227 4.7e-05 -0.000916
0.002259 4.6e-05 -0.000988
0.002265 4.2e-05 -0.001014
0.002926 0.000703 0.000464
0.002504 -2e-06 0.000219
0.002498 -2e-06 0.000195
0.002493 -1e-06 0.000171
0.002485 1e-06 0.000148
0.002484 -1e-06 0.000123
0.002383 0.000744 0.00082
0.002527 0.000671 0.000936
0.00292 0.000558 0.00019
0.002456 -1e-06 -4.7e-05
0.002444 3e-06 -7e-05
0.002437 5e-06 -9.4e-05
0.002434 5e-06 -0.000119
0.002431 5e-06 -0.000143
0.00243 3e-06 -0.000168
0.00243 1e-06 -0.000193
0.002424 1e-06 -0.000217
0.002034 -2.9e-05 -0.000477
0.002407 1e-06 -0.000314
0.002403 1e-06 -0.000338
0.0024 1e-06 -0.000363
0.002394 2e-06 -0.000387
0.002391 2e-06 -0.000411
0.002388 1e-06 -0.000436
0.002384 1e-06 -0.00046
0.002381 1e-06 -0.000484
0.002377 1e-06 -0.000509
0.002373 1e-06 -0.000533
0.002368 1e-06 -0.000557
0.002364 2e-06 -0.000581
0.002358 2e-06 -0.000606
0.002355 2e-06 -0.00063
0.002347 2e-06 -0.000679
0.002343 2e-06 -0.000703
0.002337 1e-06 -0.000752
0.002334 0.0 -0.000776
0.002334 -1e-06 -0.000801
0.00204 -3e-05 -0.000453
0.002309 7e-06 -0.000847
0.002292 1.3e-05 -0.000869
0.002269 2e-05 -0.000915
0.002267 1.3e-05 -0.001015
0.002044 -3e-05 -0.000429
0.00243 1e-06 0.000182
0.002428 0.0 0.000157
0.002423 1e-06 0.000133
0.00242 1e-06 0.000108
0.002493 0.000688 0.000907
0.002992 0.000519 0.000298
0.002987 0.000524 0.000247
0.002365 0.000699 0.000793
0.0024 -1e-06 -3.8e-05
0.002398 -2e-06 -6.3e-05
0.002981 0.000465 0.000395
0.002986 0.000465 0.000347
0.002644 0.000688 -0.000315
0.002931 0.000511 0.000464
0.002977 0.000519 0.00042
0.002379 -5e-06 -0.000209
0.002048 -3e-05 -0.000404
0.002053 -3e-05 -0.00038
0.002057 -3.1e-05 -0.000356
0.002365 -5e-06 -0.000307
0.002361 -6e-06 -0.000331
0.002357 -5e-06 -0.000356
0.002353 -5e-06 -0.00038
0.002349 -6e-06 -0.000404
0.002347 -6e-06 -0.000429
0.00234 -5e-06 -0.000453
0.002336 -5e-06 -0.000477
0.002333 -5e-06 -0.000501
0.002318 -4e-06 -0.000574
0.002314 -4e-06 -0.000598
0.00231 -4e-06 -0.000622
0.002061 -3.1e-05 -0.000332
0.00229 -2e-06 -0.000719
0.002285 -2e-06 -0.000743
0.002281 -2e-06 -0.000768
0.002275 -1e-06 -0.000792
0.00225 2e-06 -0.000912
0.00225 0.0 -0.000937
0.00224 1e-06 -0.000986
0.002234 2e-06 -0.001009
0.00246 0.000705 0.000879
0.002389 -3e-06 0.000238
0.002387 -4e-06 0.000214
0.002962 0.000689 0.000418
0.002382 -5e-06 0.000165
0.00238 -6e-06 0.00014
0.002377 -7e-06 0.000115
0.002993 0.00052 0.000273
0.002989 0.000519 0.000322
0.002974 0.000686 0.00037
0.002969 0.000688 0.000394
0.002348 -6e-06 -5.4e-05
0.002065 -3.1e-05 -0.000307
0.002069 -3e-05 -0.000283
0.002072 -3e-05 -0.000259
0.002301 -4e-06 -0.000321
0.002296 -4e-06 -0.000346
0.002076 -3e-05 -0.000234
0.002281 -4e-06 -0.000443
0.002276 -4e-06 -0.000467
0.002272 -4e-06 -0.000491
0.002238 -6e-06 -0.000735
0.002232 -5e-06 -0.000759
0.002228 -5e-06 -0.000784
0.002227 -7e-06 -0.000808
0.002207 -5e-06 -0.000905
0.002201 -4e-06 -0.000929
0.002194 -3e-06 -0.000953
0.002188 -2e-06 -0.000977
0.00234 -5e-06 0.000271
0.002334 -4e-06 0.000247
0.002332 -5e-06 0.000223
0.002325 -5e-06 0.000174
0.002318 -4e-06 0.00015
0.002313 -3e-06 0.000126
0.002309 -3e-06 0.000102
0.002302 -2e-06 7.8e-05
0.002079 -3e-05 -0.00021
0.00228 -1e-06 -4.3e-05
0.002279 -2e-06 -6.8e-05
0.002272 -1e-06 -9.2e-05
0.002268 -1e-06 -0.000116
0.002265 -1e-06 -0.000141
0.002258 -0.0 -0.000165
0.002993 0.000493 0.000273
0.002246 0.0 -0.000237
0.002243 -0.0 -0.000262
0.002717 0.000518 0.001149
0.002559 0.000725 -0.000276
0.002226 0.0 -0.000359
0.002223 -1e-06 -0.000383
0.00221 0.0 -0.000456
0.002208 -1e-06 -0.000481
0.002184 -0.0 -0.000627
0.002182 -1e-06 -0.000651
0.002174 -3e-06 -0.000725
0.002173 -4e-06 -0.00075
0.002169 -5e-06 -0.000774
0.002162 -3e-06 -0.000798
0.00216 -4e-06 -0.000822
0.002155 -4e-06 -0.000847
0.002153 -5e-06 -0.000871
0.002143 -6e-06 -0.000945
0.002141 -7e-06 -0.000969
0.002137 -7e-06 -0.000993
0.002278 -3e-06 0.000282
0.002268 0.0 0.000258
0.002261 2e-06 0.000235
0.002262 -1e-06 0.000209
0.002962 0.000725 0.000269
0.002247 0.0 0.000137
0.002246 -0.0 0.000112
0.002239 -0.0 8.8e-05
0.002966 0.000523 0.000443
0.002232 0.0 4e-05
0.002227 0.0 1.5e-05
0.002224 0.0 -9e-06
0.00222 0.0 -3.3e-05
0.002216 0.0 -5.8e-05
0.002212 -0.0 -8.2e-05
0.002211 -1e-06 -0.000107
0.002206 -1e-06 -0.000131
0.002203 -2e-06 -0.000155
0.002992 0.000492 0.000298
0.002191 -1e-06 -0.000228
0.002188 -1e-06 -0.000253
0.00274 0.000627 0.001239
0.002987 0.00047 0.000247
0.002559 0.000506 0.00139
0.002172 -2e-06 -0.00035
0.002168 -2e-06 -0.000374
0.002163 -2e-06 -0.000398
0.00216 -1e-06 -0.000423
0.002156 -1e-06 -0.000447
0.002153 -2e-06 -0.000472
0.002148 -1e-06 -0.000496
0.002143 -2e-06 -0.00052
0.002126 -0.0 -0.000617
0.002121 -0.0 -0.000641
0.002094 2e-06 -0.000786
0.002094 -0.0 -0.000811
0.002087 1e-06 -0.000835
0.002082 1e-06 -0.000859
0.002081 0.0 -0.000884
0.002078 -0.0 -0.000909
0.002077 -2e-06 -0.000933
0.002215 -0.0 0.000292
0.002211 -0.0 0.000268
0.002207 -0.0 0.000244
0.002205 -1e-06 0.000219
0.002964 0.000723 0.000294
0.002454 0.000763 -9e-05
0.002957 0.000486 0.000219
0.002878 0.000634 0.000161
0.002962 0.000634 0.000443
0.002185 -4e-06 7.2e-05
0.002184 -4e-06 4.8e-05
0.002181 -5e-06 2.3e-05
0.002178 -5e-06 -1e-06
0.002173 -5e-06 -2.6e-05
0.002171 -6e-06 -5e-05
0.002169 -6e-06 -7.5e-05
0.002165 -7e-06 -9.9e-05
0.002162 -7e-06 -0.000124
0.002985 0.000607 0.000247
0.002931 0.000538 0.000464
0.002527 0.000617 0.000936
0.002386 0.000688 0.00082
0.002986 0.000628 0.000347
0.002141 -8e-06 -0.00027
0.002137 -9e-06 -0.000294
0.002134 -9e-06 -0.000319
0.00213 -9e-06 -0.000343
0.002126 -9e-06 -0.000367
0.002122 -9e-06 -0.000392
0.002118 -9e-06 -0.000416
0.002113 -8e-06 -0.00044
0.002108 -8e-06 -0.000464
0.002104 -8e-06 -0.000489
0.0021 -8e-06 -0.000513
0.002085 -7e-06 -0.000585
0.00208 -6e-06 -0.000609
0.002076 -6e-06 -0.000634
0.002071 -5e-06 -0.000658
0.002046 -3e-06 -0.000779
0.002041 -3e-06 -0.000803
0.002036 -2e-06 -0.000827
0.002026 -1e-06 -0.000875
0.002022 -1e-06 -0.000899
0.002018 -1e-06 -0.000924
0.002012 0.0 -0.000948
0.002358 0.000736 0.000693
0.002922 0.000667 0.00019
0.002162 -6e-06 0.000251
0.002159 -7e-06 0.000226
0.002956 0.000729 0.000244
0.002958 0.000648 0.000219
0.002552 0.000712 0.000964
0.002932 0.000619 0.000464
0.002839 0.00066 0.000503
0.002885 0.00064 0.000483
0.002964 0.000606 0.000443
0.002787 0.000683 0.000521
0.002953 0.000705 0.000219
0.002788 0.000737 0.000521
0.002133 -1.5e-05 -4.4e-05
0.002131 -1.6e-05 -6.8e-05
0.002128 -1.6e-05 -9.3e-05
0.002125 -1.7e-05 -0.000117
0.002122 -1.7e-05 -0.000142
0.002119 -1.8e-05 -0.000166
0.002115 -1.8e-05 -0.000191
0.002112 -1.8e-05 -0.000215
0.002108 -1.8e-05 -0.00024
0.002105 -1.9e-05 -0.000264
0.002101 -1.9e-05 -0.000288
0.002097 -1.9e-05 -0.000313
0.002093 -1.9e-05 -0.000337
0.002089 -1.9e-05 -0.000361
0.002084 -1.8e-05 -0.000385
0.002081 -1.8e-05 -0.00041
0.002076 -1.8e-05 -0.000434
0.002072 -1.8e-05 -0.000458
0.002067 -1.8e-05 -0.000482
0.002062 -1.7e-05 -0.000507
0.002058 -1.7e-05 -0.000531
0.002053 -1.7e-05 -0.000555
0.002047 -1.6e-05 -0.000579
0.002043 -1.6e-05 -0.000603
0.002037 -1.5e-05 -0.000627
0.002032 -1.4e-05 -0.000651
0.001975 -6e-06 -0.000892
0.001969 -5e-06 -0.000916
0.002366 0.000733 0.000669
0.002878 0.000579 0.000161
0.002886 0.000558 0.000483
0.002528 0.000698 0.000936
0.002552 0.000685 0.000964
0.002931 0.000484 0.000464
0.00292 0.000504 0.00019
0.00247 0.000735 -0.000212
0.002993 0.000466 0.000273
0.002984 0.000465 0.000371
0.002353 0.000737 0.000717
0.002492 0.000661 0.000907
0.002602 0.000706 -0.000295
0.002353 0.00071 0.000717
0.002992 0.000465 0.000298
0.002097 -2.7e-05 -6.3e-05
0.002094 -2.8e-05 -8.7e-05
0.002092 -2.8e-05 -0.000112
0.002089 -2.9e-05 -0.000136
0.002086 -2.9e-05 -0.000161
0.002083 -3e-05 -0.000185
0.002365 0.000706 0.000669
0.002692 0.000726 0.001112
0.000884 -8e-06 0.001977
0.002758 0.000643 0.000524
0.00284 0.000496 0.000503
0.002884 0.000477 0.000483
0.002931 0.000457 0.000464
0.002966 0.000442 0.000443
0.002977 0.000438 0.00042
0.002981 0.000437 0.000396
0.002984 0.000437 0.000371
0.002987 0.000437 0.000347
0.00299 0.000437 0.000322
0.002992 0.000438 0.000298
0.002994 0.000438 0.000273
0.002987 0.000443 0.000247
0.002957 0.000458 0.000219
0.00292 0.000477 0.00019
0.002877 0.000498 0.000162
0.002453 0.000709 -9e-05
0.002451 0.000712 -0.000115
0.002451 0.000713 -0.00014
0.00246 0.000712 -0.000188
0.002471 0.000708 -0.000211
0.002487 0.000701 -0.000235
0.002516 0.000689 -0.000256
0.00256 0.00067 -0.000275
0.002602 0.000652 -0.000295
0.002645 0.000633 -0.000315
0.002554 0.000575 0.000964
0.002526 0.00059 0.000936
0.002492 0.000607 0.000907
0.002459 0.000624 0.000879
0.002421 0.000643 0.000849
0.002386 0.000661 0.00082
0.002365 0.000672 0.000793
0.002356 0.000678 0.000767
0.002352 0.000682 0.000741
0.002353 0.000682 0.000717
0.002357 0.000681 0.000693
0.00266 0.000693 0.001366
0.0026 0.000658 0.001391
0.002169 0.000667 0.001867
0.002742 0.000518 0.00124
0.002496 0.000746 0.000572
0.002748 0.000519 0.001216
0.00284 0.000469 0.000503
0.002884 0.00045 0.000483
0.002932 0.000429 0.000464
0.002965 0.000415 0.000443
0.002977 0.000411 0.00042
0.002981 0.00041 0.000395
0.002984 0.00041 0.000371
0.002987 0.00041 0.000347
0.00299 0.00041 0.000322
0.002992 0.00041 0.000298
0.002994 0.000411 0.000273
0.002987 0.000416 0.000247
0.002958 0.000431 0.000219
0.00292 0.00045 0.00019
0.002451 0.000685 -0.000115
0.00246 0.000685 -0.000188
0.002471 0.000681 -0.000211
0.002487 0.000674 -0.000234
0.002515 0.000662 -0.000256
0.002561 0.000642 -0.000275
0.002603 0.000624 -0.000295
0.002645 0.000606 -0.000315
0.002526 0.000562 0.000936
0.002493 0.00058 0.000907
0.002459 0.000597 0.000878
0.002421 0.000616 0.000849
0.002387 0.000633 0.00082
0.002366 0.000645 0.000793
0.002356 0.000651 0.000767
0.002352 0.000654 0.000741
0.002352 0.000655 0.000717
0.002357 0.000654 0.000693
0.002676 0.000689 0.001346
0.002718 0.000653 0.001149
0.002649 0.000584 0.001387
0.002063 0.000692 0.001365
0.002732 0.000518 0.001262
0.002722 0.000518 0.001285
0.00284 0.000442 0.000503
0.002885 0.000422 0.000483
0.002931 0.000402 0.000464
0.002966 0.000387 0.000443
0.002977 0.000383 0.00042
0.002981 0.000383 0.000395
0.002984 0.000383 0.000371
0.002987 0.000383 0.000347
0.002989 0.000383 0.000322
0.002992 0.000383 0.000298
0.002993 0.000384 0.000273
0.002987 0.000389 0.000247
0.002957 0.000404 0.000219
0.002921 0.000422 0.00019
0.00245 0.000659 -0.00014
0.002453 0.000659 -0.000164
0.00246 0.000658 -0.000188
0.002471 0.000654 -0.000211
0.002487 0.000647 -0.000234
0.002515 0.000635 -0.000256
0.002559 0.000616 -0.000276
0.002603 0.000597 -0.000295
0.002645 0.000579 -0.000315
0.002553 0.000521 0.000964
0.002526 0.000535 0.000936
0.002492 0.000553 0.000907
0.002458 0.00057 0.000878
0.002421 0.000589 0.000849
0.002385 0.000607 0.00082
0.002366 0.000618 0.000793
0.002355 0.000624 0.000767
0.002352 0.000627 0.000741
0.002353 0.000628 0.000717
0.002357 0.000627 0.000692
0.002716 0.000709 0.001149
0.002741 0.0006 0.00124
0.002689 0.000574 0.001351
0.002643 0.000713 0.000555
0.002684 0.000697 0.000546
0.002721 0.000723 0.001204
0.00284 0.000415 0.000503
0.002886 0.000395 0.000483
0.002931 0.000375 0.000464
0.002966 0.00036 0.000443
0.002977 0.000356 0.00042
0.002981 0.000356 0.000395
0.002984 0.000356 0.000371
0.002987 0.000356 0.000347
0.00299 0.000356 0.000322
0.002992 0.000356 0.000298
0.002994 0.000357 0.000273
0.002987 0.000361 0.000247
0.002957 0.000377 0.000219
0.00292 0.000396 0.00019
0.00245 0.000632 -0.00014
0.002453 0.000632 -0.000164
0.002459 0.000631 -0.000188
0.00247 0.000627 -0.000212
0.002487 0.00062 -0.000235
0.002516 0.000608 -0.000256
0.002559 0.000589 -0.000276
0.002603 0.00057 -0.000295
0.002644 0.000552 -0.000315
0.002553 0.000494 0.000964
0.002527 0.000508 0.000936
0.002492 0.000526 0.000907
0.002458 0.000543 0.000878
0.002422 0.000561 0.000849
0.002385 0.00058 0.00082
0.002365 0.000591 0.000793
0.002355 0.000597 0.000767
0.002351 0.0006 0.000741
0.002352 0.000601 0.000717
0.002357 0.0006 0.000692
0.002737 0.000656 0.001238
0.002722 0.000599 0.001285
0.002664 0.000636 0.001073
0.002722 0.000545 0.001285
0.002732 0.000545 0.001263
0.002787 0.000411 0.00052
0.002839 0.000388 0.000502
0.002886 0.000367 0.000483
0.002932 0.000348 0.000464
0.002966 0.000333 0.000443
0.002977 0.000329 0.00042
0.002982 0.000328 0.000395
0.002985 0.000328 0.000371
0.002987 0.000328 0.000347
0.00299 0.000329 0.000322
0.002992 0.000329 0.000297
0.002994 0.00033 0.000273
0.002987 0.000334 0.000247
0.002957 0.000349 0.000219
0.002919 0.000369 0.000189
0.00245 0.000605 -0.00014
0.002452 0.000605 -0.000164
0.002459 0.000603 -0.000188
0.00247 0.0006 -0.000212
0.002487 0.000593 -0.000235
0.002516 0.000581 -0.000256
0.002559 0.000562 -0.000276
0.002603 0.000542 -0.000295
0.002646 0.000525 -0.000312
0.002553 0.000467 0.000964
0.002527 0.000481 0.000936
0.002492 0.000498 0.000907
0.002457 0.000516 0.000878
0.00242 0.000535 0.000849
0.002384 0.000553 0.00082
0.002365 0.000564 0.000793
0.002355 0.00057 0.000767
0.002351 0.000573 0.000741
0.002352 0.000574 0.000717
0.002357 0.000573 0.000692
0.002709 0.000655 0.001306
0.00217 0.000721 0.001867
0.002741 0.000572 0.00124
0.002152 0.000575 0.002107
0.002677 0.000467 0.001373
0.002786 0.000384 0.00052
0.00284 0.00036 0.000502
0.002887 0.00034 0.000483
0.002932 0.00032 0.000464
0.002966 0.000306 0.000443
0.002977 0.000302 0.00042
0.002981 0.000301 0.000395
0.002984 0.000301 0.000371
0.002987 0.000301 0.000346
0.00299 0.000301 0.000322
0.002992 0.000302 0.000297
0.002993 0.000303 0.000273
0.002987 0.000307 0.000247
0.002958 0.000322 0.000219
0.002918 0.000342 0.000189
0.00245 0.000578 -0.00014
0.002452 0.000578 -0.000164
0.002458 0.000576 -0.000188
0.00247 0.000572 -0.000212
0.002487 0.000565 -0.000235
0.002515 0.000554 -0.000256
0.002559 0.000534 -0.000276
0.002604 0.000515 -0.000295
0.002553 0.00044 0.000964
0.002526 0.000454 0.000936
0.002493 0.000471 0.000907
0.002456 0.000489 0.000878
0.00242 0.000508 0.000849
0.002384 0.000526 0.00082
0.002364 0.000537 0.000793
0.002354 0.000543 0.000767
0.002351 0.000546 0.000741
0.002352 0.000547 0.000717
0.002357 0.000546 0.000692
0.002719 0.00068 0.00115
0.002711 0.0006 0.001307
0.002632 0.000657 0.001032
0.002599 0.000676 0.000563
0.00242 0.000747 0.000593
0.002399 0.000753 0.000611
0.002796 0.000629 0.000518
0.002787 0.000357 0.000521
0.00284 0.000333 0.000502
0.002886 0.000313 0.000483
0.002933 0.000293 0.000464
0.002966 0.000278 0.000443
0.002977 0.000275 0.00042
0.002981 0.000274 0.000395
0.002985 0.000274 0.000371
0.002988 0.000274 0.000347
0.00299 0.000274 0.000322
0.002992 0.000274 0.000297
0.002993 0.000275 0.000273
0.002987 0.00028 0.000247
0.002957 0.000295 0.000219
0.002919 0.000315 0.000189
0.002875 0.000336 0.000162
0.002449 0.000551 -0.00014
0.002452 0.000551 -0.000164
0.002459 0.000549 -0.000188
0.002469 0.000545 -0.000212
0.002487 0.000539 -0.000235
0.002515 0.000527 -0.000256
0.002558 0.000508 -0.000276
0.002604 0.000488 -0.000295
0.002647 0.00047 -0.000312
0.002552 0.000413 0.000964
0.002526 0.000427 0.000936
0.002493 0.000444 0.000907
0.002457 0.000462 0.000878
0.00242 0.000481 0.000849
0.002383 0.000499 0.00082
0.002364 0.00051 0.000792
0.002354 0.000516 0.000766
0.002351 0.000519 0.000741
0.002352 0.00052 0.000717
0.002357 0.000519 0.000692
0.002668 0.000661 0.001369
0.002647 0.000613 0.001387
0.002739 0.000583 0.001185
0.002717 0.000572 0.001149
0.002701 0.000519 0.001329
0.000861 -9e-06 0.001985
0.002787 0.00033 0.00052
0.002839 0.000306 0.000502
0.002887 0.000286 0.000483
0.002932 0.000266 0.000464
0.002966 0.000251 0.000443
0.002977 0.000247 0.00042
0.002981 0.000247 0.000395
0.002984 0.000247 0.000371
0.002987 0.000247 0.000346
0.00299 0.000247 0.000322
0.002992 0.000247 0.000297
0.002993 0.000248 0.000273
0.002986 0.000253 0.000247
0.002957 0.000268 0.000219
0.00292 0.000287 0.000189
0.002449 0.000524 -0.00014
0.002452 0.000524 -0.000165
0.002458 0.000522 -0.000188
0.00247 0.000518 -0.000212
0.002487 0.000511 -0.000235
0.002515 0.0005 -0.000256
0.002558 0.000481 -0.000276
0.002604 0.00046 -0.000295
0.002647 0.000442 -0.000312
0.002552 0.000386 0.000964
0.002527 0.000399 0.000936
0.002492 0.000417 0.000907
0.002457 0.000435 0.000878
0.002419 0.000454 0.000849
0.002383 0.000472 0.00082
0.002364 0.000483 0.000792
0.002354 0.000489 0.000766
0.00235 0.000492 0.000741
0.002352 0.000493 0.000717
0.002357 0.000492 0.000692
0.002596 0.000575 0.001389
0.0026 0.000631 0.001391
0.002691 0.000617 0.001111
0.002722 0.000463 0.001285
0.00269 0.000519 0.001352
0.002787 0.000302 0.00052
0.002839 0.00028 0.000502
0.002886 0.000259 0.000483
0.002931 0.000239 0.000464
0.002965 0.000224 0.000443
0.002977 0.00022 0.00042
0.002981 0.00022 0.000395
0.002984 0.00022 0.000371
0.002987 0.00022 0.000346
0.002989 0.00022 0.000322
0.002992 0.000221 0.000297
0.002993 0.000221 0.000273
0.002986 0.000226 0.000247
0.002956 0.000241 0.000219
0.002919 0.00026 0.000189
0.00245 0.000496 -0.00014
0.002452 0.000497 -0.000165
0.002458 0.000495 -0.000188
0.002469 0.000491 -0.000212
0.002486 0.000484 -0.000235
0.002514 0.000473 -0.000256
0.002558 0.000453 -0.000276
0.002604 0.000434 -0.000295
0.002645 0.000415 -0.000315
0.002552 0.000359 0.000964
0.002526 0.000372 0.000936
0.002492 0.00039 0.000907
0.002458 0.000407 0.000878
0.002419 0.000427 0.000849
0.002384 0.000445 0.00082
0.002363 0.000456 0.000792
0.002354 0.000462 0.000766
0.00235 0.000465 0.000741
0.002352 0.000466 0.000717
0.002356 0.000464 0.000692
0.002684 0.000658 0.001349
0.002732 0.000599 0.001263
0.002748 0.000574 0.001216
0.002599 0.000731 0.000563
0.002787 0.000274 0.000514
0.002839 0.000252 0.000502
0.002886 0.000231 0.000483
0.002932 0.000212 0.000464
0.002965 0.000197 0.000443
0.002976 0.000194 0.000419
0.002981 0.000193 0.000395
0.002984 0.000193 0.000371
0.002987 0.000193 0.000346
0.00299 0.000193 0.000322
0.002992 0.000193 0.000297
0.002992 0.000195 0.000273
0.002985 0.000199 0.000247
0.002956 0.000214 0.000219
0.002918 0.000233 0.000189
0.00245 0.000469 -0.00014
0.002452 0.000469 -0.000165
0.002458 0.000468 -0.000189
0.002469 0.000464 -0.000212
0.002486 0.000457 -0.000235
0.002514 0.000446 -0.000256
0.002558 0.000426 -0.000276
0.002602 0.000407 -0.000295
0.002645 0.000388 -0.000315
0.002553 0.000331 0.000964
0.002526 0.000345 0.000936
0.002494 0.000362 0.000907
0.002457 0.00038 0.000878
0.002419 0.0004 0.000849
0.002383 0.000418 0.00082
0.002363 0.000429 0.000792
0.002354 0.000435 0.000766
0.00235 0.000438 0.000741
0.002351 0.000438 0.000716
0.002356 0.000437 0.000692
0.002665 0.000717 0.001073
0.002691 0.000645 0.001111
0.002684 0.000725 0.000545
0.002692 0.000536 0.001111
0.002786 0.000247 0.000515
0.002839 0.000225 0.000502
0.002887 0.000204 0.000483
0.002931 0.000185 0.000464
0.002963 0.000171 0.000443
0.002975 0.000167 0.000419
0.00298 0.000166 0.000395
0.002984 0.000165 0.000371
0.002987 0.000165 0.000346
0.00299 0.000166 0.000322
0.002991 0.000166 0.000297
0.002991 0.000168 0.000272
0.002984 0.000173 0.000247
0.002956 0.000187 0.000219
0.002919 0.000206 0.000189
0.002876 0.000227 0.000162
0.00245 0.000442 -0.00014
0.002452 0.000442 -0.000165
0.002458 0.000441 -0.000189
0.002469 0.000437 -0.000212
0.002486 0.00043 -0.000235
0.002515 0.000418 -0.000256
0.002558 0.000399 -0.000276
0.002603 0.00038 -0.000295
0.002646 0.000361 -0.000315
0.002555 0.000303 0.000964
0.002525 0.000318 0.000936
0.002493 0.000335 0.000907
0.002457 0.000353 0.000878
0.00242 0.000372 0.000849
0.002383 0.000391 0.00082
0.002362 0.000402 0.000792
0.002354 0.000407 0.000766
0.00235 0.00041 0.000741
0.002351 0.000411 0.000716
0.002356 0.00041 0.000692
0.002692 0.000698 0.001112
0.002634 0.000684 0.001033
0.002721 0.000711 0.000534
0.002732 0.00049 0.001263
0.002598 0.00065 0.000562
0.002785 0.000221 0.000515
0.00284 0.000197 0.000502
0.002887 0.000177 0.000483
0.002931 0.000158 0.000464
0.002961 0.000145 0.000442
0.002972 0.000141 0.000419
0.002978 0.00014 0.000395
0.002983 0.000139 0.000371
0.002986 0.000139 0.000346
0.002988 0.000139 0.000322
0.002989 0.00014 0.000297
0.002988 0.000142 0.000272
0.002982 0.000146 0.000246
0.002956 0.00016 0.000219
0.002919 0.000179 0.000189
0.002449 0.000415 -0.00014
0.002452 0.000415 -0.000165
0.002458 0.000413 -0.000189
0.002469 0.00041 -0.000212
0.002486 0.000403 -0.000235
0.002514 0.000391 -0.000256
0.00256 0.000371 -0.000276
0.002604 0.000352 -0.000295
0.002645 0.000334 -0.000315
0.002554 0.000276 0.000964
0.002525 0.000291 0.000936
0.002493 0.000308 0.000907
0.002459 0.000325 0.000878
0.00242 0.000345 0.000849
0.002383 0.000363 0.00082
0.002363 0.000374 0.000792
0.002354 0.00038 0.000766
0.00235 0.000383 0.000741
0.002351 0.000384 0.000716
0.002356 0.000383 0.000692
0.002644 0.000668 0.001384
0.002718 0.000626 0.001149
0.002011 0.000722 0.001417
0.002689 0.000547 0.001352
0.002117 0.000522 0.002143
0.002788 0.000193 0.00052
0.002839 0.000171 0.000502
0.002887 0.000149 0.000483
0.002931 0.000131 0.000464
0.002958 0.000119 0.000442
0.002968 0.000116 0.000418
0.002974 0.000114 0.000394
0.002979 0.000114 0.00037
0.002982 0.000113 0.000346
0.002984 0.000114 0.000321
0.002984 0.000115 0.000296
0.002984 0.000117 0.000271
0.002978 0.000121 0.000246
0.002956 0.000133 0.000218
0.002919 0.000152 0.000189
0.002449 0.000388 -0.00014
0.002452 0.000388 -0.000165
0.002458 0.000386 -0.000189
0.002469 0.000383 -0.000212
0.002486 0.000376 -0.000235
0.002515 0.000364 -0.000256
0.002559 0.000344 -0.000276
0.002603 0.000325 -0.000295
0.002646 0.000307 -0.000315
0.002552 0.00025 0.000964
0.002525 0.000264 0.000936
0.002493 0.00028 0.000907
0.002458 0.000299 0.000878
0.00242 0.000318 0.000849
0.002383 0.000336 0.000819
0.002364 0.000347 0.000792
0.002354 0.000353 0.000766
0.00235 0.000356 0.000741
0.002351 0.000357 0.000716
0.002356 0.000356 0.000692
0.002633 0.000738 0.001033
0.002665 0.000663 0.001073
0.002643 0.00074 0.000555
0.002087 0.000687 0.001352
0.002152 0.00072 0.002076
0.002691 0.00059 0.001111
0.002788 0.000166 0.00052
0.00284 0.000143 0.000502
0.002888 0.000122 0.000483
0.002929 0.000104 0.000463
0.002951 9.5e-05 0.000441
0.002961 9.2e-05 0.000418
0.002966 9.1e-05 0.000393
0.002971 9e-05 0.000369
0.002975 9e-05 0.000345
0.002977 9e-05 0.00032
0.002977 9.1e-05 0.000295
0.002976 9.3e-05 0.000271
0.002972 9.6e-05 0.000245
0.002954 0.000106 0.000218
0.002918 0.000125 0.000189
0.002449 0.000361 -0.00014
0.002451 0.000361 -0.000165
0.002457 0.000359 -0.000189
0.002469 0.000355 -0.000212
0.002486 0.000349 -0.000235
0.002515 0.000336 -0.000256
0.00256 0.000317 -0.000276
0.002603 0.000298 -0.000295
0.002645 0.00028 -0.000315
0.002552 0.000223 0.000964
0.002524 0.000237 0.000936
0.002493 0.000253 0.000907
0.002457 0.000272 0.000878
0.002419 0.000291 0.000849
0.002382 0.00031 0.000819
0.002364 0.00032 0.000792
0.002354 0.000326 0.000766
0.00235 0.000329 0.000741
0.002351 0.00033 0.000716
0.002356 0.000329 0.000692
0.002737 0.000666 0.001185
0.002747 0.000602 0.001215
0.002608 0.000753 0.000567
0.002552 0.00075 0.000569
0.002635 0.000629 0.001033
0.002664 0.000609 0.001073
0.002785 0.000139 0.000515
0.002839 0.000116 0.000502
0.002888 9.5e-05 0.000483
0.002925 7.9e-05 0.000463
0.002942 7.2e-05 0.00044
0.00295 7e-05 0.000416
0.002956 6.8e-05 0.000392
0.002961 6.7e-05 0.000368
0.002965 6.7e-05 0.000344
0.002967 6.8e-05 0.000319
0.002967 6.9e-05 0.000294
0.002967 7e-05 0.000269
0.002964 7.3e-05 0.000244
0.002951 8.1e-05 0.000218
0.002449 0.000334 -0.00014
0.002451 0.000334 -0.000165
0.002457 0.000332 -0.000189
0.002468 0.000328 -0.000212
0.002486 0.000321 -0.000235
0.002514 0.00031 -0.000257
0.002561 0.000289 -0.000276
0.002603 0.000271 -0.000295
0.002646 0.000252 -0.000315
0.002552 0.000196 0.000964
0.002524 0.00021 0.000936
0.002493 0.000226 0.000907
0.002457 0.000244 0.000878
0.002419 0.000264 0.000849
0.002382 0.000282 0.000819
0.002363 0.000293 0.000792
0.002354 0.000299 0.000766
0.00235 0.000302 0.000741
0.002351 0.000303 0.000716
0.002356 0.000301 0.000692
0.002697 0.000656 0.001328
0.0027 0.0006 0.001329
0.002711 0.000573 0.001307
0.002445 0.000573 0.001392
0.002097 -2.7e-05 -3.4e-05
0.002711 0.000464 0.001307
0.00284 8.9e-05 0.000502
0.002887 6.8e-05 0.000483
0.002916 5.6e-05 0.000462
0.002929 5.1e-05 0.000439
0.002937 4.9e-05 0.000415
0.002943 4.7e-05 0.000391
0.002948 4.7e-05 0.000366
0.002951 4.6e-05 0.000342
0.002953 4.7e-05 0.000317
0.002954 4.8e-05 0.000293
0.002954 4.9e-05 0.000268
0.002952 5.2e-05 0.000243
0.002942 5.8e-05 0.000217
0.002916 7.1e-05 0.000189
0.002449 0.000307 -0.00014
0.002451 0.000307 -0.000165
0.002457 0.000305 -0.000189
0.002469 0.000301 -0.000212
0.002486 0.000294 -0.000235
0.002514 0.000282 -0.000257
0.00256 0.000262 -0.000276
0.002603 0.000244 -0.000295
0.002645 0.000225 -0.000315
0.002551 0.000169 0.000964
0.002524 0.000183 0.000936
0.002494 0.000199 0.000907
0.002457 0.000217 0.000878
0.002418 0.000237 0.000848
0.002382 0.000255 0.000819
0.002363 0.000266 0.000792
0.002354 0.000271 0.000766
0.00235 0.000275 0.000741
0.002351 0.000275 0.000716
0.002356 0.000274 0.000692
0.002599 0.000686 0.001391
0.002674 0.000604 0.001372
0.002722 0.000572 0.001285
0.002548 0.000697 0.000567
0.00245 0.000737 0.000579
0.002701 0.000491 0.00133
0.001992 0.000757 0.001536
0.002841 6.1e-05 0.000502
0.00288 4.4e-05 0.000482
0.002901 3.6e-05 0.00046
0.002913 3.2e-05 0.000437
0.00292 3e-05 0.000413
0.002926 2.8e-05 0.000388
0.00293 2.8e-05 0.000364
0.002934 2.8e-05 0.00034
0.002936 2.8e-05 0.000315
0.002937 2.9e-05 0.000291
0.002937 3e-05 0.000266
0.002936 3.2e-05 0.000241
0.002929 3.7e-05 0.000215
0.00291 4.7e-05 0.000188
0.002874 6.5e-05 0.000161
0.002449 0.000279 -0.00014
0.002451 0.00028 -0.000165
0.002458 0.000278 -0.000189
0.002469 0.000274 -0.000212
0.002486 0.000267 -0.000235
0.002515 0.000255 -0.000257
0.00256 0.000235 -0.000276
0.002605 0.000216 -0.000295
0.002643 0.000199 -0.000315
0.00255 0.000142 0.000963
0.002525 0.000155 0.000936
0.002493 0.000172 0.000907
0.002457 0.00019 0.000878
0.002417 0.00021 0.000848
0.002383 0.000228 0.000819
0.002363 0.000239 0.000792
0.002353 0.000244 0.000766
0.00235 0.000248 0.000741
0.002351 0.000248 0.000716
0.002356 0.000247 0.000692
0.00256 0.000587 0.00139
0.001446 0.000529 0.002412
0.002718 0.000599 0.001149
0.00274 0.000529 0.001185
0.002711 0.000518 0.001307
0.000838 -9e-06 0.001994
0.002787 5.8e-05 0.00052
0.002836 3.6e-05 0.000502
0.002864 2.4e-05 0.00048
0.00288 1.8e-05 0.000457
0.002889 1.6e-05 0.000434
0.002896 1.4e-05 0.00041
0.0029 1.3e-05 0.000385
0.002905 1.3e-05 0.000361
0.002908 1.3e-05 0.000337
0.00291 1.3e-05 0.000312
0.002912 1.3e-05 0.000288
0.002913 1.4e-05 0.000263
0.002912 1.6e-05 0.000238
0.002908 1.9e-05 0.000213
0.002897 2.6e-05 0.000186
0.00287 4e-05 0.00016
0.002449 0.000252 -0.00014
0.002451 0.000252 -0.000165
0.002458 0.000251 -0.000189
0.002469 0.000247 -0.000212
0.002486 0.00024 -0.000235
0.002514 0.000228 -0.000257
0.002561 0.000208 -0.000276
0.002603 0.000189 -0.000296
0.002644 0.000172 -0.000315
0.00255 0.000115 0.000963
0.002526 0.000128 0.000936
0.002492 0.000145 0.000907
0.002457 0.000163 0.000878
0.002418 0.000183 0.000848
0.002382 0.000201 0.000819
0.002363 0.000211 0.000792
0.002353 0.000217 0.000766
0.00235 0.00022 0.000741
0.002351 0.000221 0.000716
0.002356 0.00022 0.000692
0.00272 0.000655 0.001284
0.002739 0.00061 0.001185
0.002732 0.000572 0.001262
0.002759 0.000697 0.000527
0.002676 0.000549 0.001372
0.002783 3.3e-05 0.00052
0.002819 1.7e-05 0.0005
0.002837 1e-05 0.000477
