-0.002097 -1.3e-05 0.000489
-0.002089 -1.4e-05 0.000513
-0.002079 -1.4e-05 0.000535
-0.002071 -1.5e-05 0.000559
-0.002061 -1.5e-05 0.000581
-0.002052 -1.6e-05 0.000604
-0.002043 -1.6e-05 0.000627
-0.002034 -1.7e-05 0.00065
-0.002024 -1.7e-05 0.000673
-0.002015 -1.8e-05 0.000696
-0.002006 -1.9e-05 0.000719
-0.001997 -1.9e-05 0.000741
-0.001987 -2e-05 0.000764
-0.001977 -2e-05 0.000787
-0.001967 -2e-05 0.000809
-0.001957 -2e-05 0.000832
-0.001947 -2e-05 0.000854
-0.001937 -2e-05 0.000877
-0.001926 -2e-05 0.000899
-0.001916 -2e-05 0.000921
-0.001906 -2e-05 0.000944
-0.001895 -2e-05 0.000966
-0.001884 -2e-05 0.000988
-0.001873 -1.9e-05 0.00101
-0.001863 -1.9e-05 0.001032
-0.001852 -1.9e-05 0.001055
-0.001841 -1.9e-05 0.001077
-0.00183 -1.8e-05 0.001099
-0.001819 -1.8e-05 0.001121
-0.001807 -1.7e-05 0.001142
-0.001795 -1.7e-05 0.001164
-0.001784 -1.6e-05 0.001186
-0.001772 -1.5e-05 0.001208
-0.001761 -1.5e-05 0.001229
-0.001749 -1.4e-05 0.001251
-0.001737 -1.3e-05 0.001273
-0.001725 -1.2e-05 0.001294
-0.001713 -1.1e-05 0.001316
-0.001676 -9e-06 0.00138
-0.001665 -8e-06 0.001402
-0.002601 0.00064 0.000821
-0.002968 0.000506 0.000304
-0.002604 0.000584 0.000822
-0.002635 0.000568 0.000851
-0.002662 0.000553 0.00088
-0.002691 0.000538 0.00091
-0.002716 0.000525 0.000938
-0.002741 0.000511 0.000966
-0.002858 0.000509 -0.00063
-0.002885 0.0007 1.3e-05
-0.002458 0.000697 -0.000246
-0.002824 0.000687 -0.0009
-0.002893 0.00051 -0.000783
-0.001041 0.000726 -0.002321
-0.00295 0.000646 5.4e-05
-0.002885 0.000728 1.3e-05
-0.002997 0.000423 0.000134
-0.002996 0.000422 0.000158
-0.002995 0.000421 0.000183
-0.002994 0.00042 0.000208
-0.002992 0.000419 0.000233
-0.00299 0.000418 0.000257
-0.002986 0.000418 0.000281
-0.002968 0.000425 0.000304
-0.002933 0.00044 0.000323
-0.002895 0.000456 0.000342
-0.002856 0.000473 0.000361
-0.002811 0.000492 0.00038
-0.002769 0.00051 0.000398
-0.002709 0.000536 0.000414
-0.002646 0.000565 0.000429
-0.002576 0.000596 0.000444
-0.002412 0.000665 0.000544
-0.002407 0.000666 0.000568
-0.002404 0.000665 0.000592
-0.002404 0.000663 0.000617
-0.002408 0.00066 0.000642
-0.002419 0.000653 0.000669
-0.002442 0.00064 0.000698
-0.002483 0.000619 0.000729
-0.002571 0.000574 0.000792
-0.002603 0.000557 0.000822
-0.002635 0.000541 0.000851
-0.002663 0.000526 0.00088
-0.00269 0.000511 0.000909
-0.002716 0.000497 0.000938
-0.002742 0.000484 0.000966
-0.002829 0.000524 -0.000601
-0.002827 0.000631 -0.000901
-0.002734 0.000738 -6.6e-05
-0.002369 0.000521 -0.001771
-0.002919 0.000496 3.4e-05
-0.002479 0.000658 -0.000181
-0.002995 0.00063 0.000123
-0.00297 0.000693 7.6e-05
-0.002997 0.000396 0.000134
-0.002996 0.000395 0.000158
-0.002994 0.000394 0.000183
-0.002993 0.000393 0.000208
-0.002991 0.000392 0.000233
-0.00299 0.000391 0.000257
-0.002985 0.000391 0.000281
-0.002968 0.000397 0.000304
-0.002933 0.000412 0.000323
-0.002894 0.000429 0.000342
-0.002856 0.000445 0.000361
-0.002811 0.000465 0.00038
-0.00277 0.000482 0.000398
-0.002708 0.00051 0.000414
-0.002647 0.000537 0.00043
-0.002578 0.000568 0.000444
-0.002406 0.000639 0.000568
-0.002403 0.000638 0.000592
-0.002403 0.000636 0.000617
-0.002408 0.000632 0.000643
-0.002419 0.000626 0.000669
-0.002441 0.000613 0.000697
-0.002534 0.000566 0.000761
-0.002571 0.000547 0.000792
-0.002602 0.000531 0.000821
-0.002635 0.000514 0.000851
-0.002662 0.000499 0.00088
-0.00269 0.000484 0.000909
-0.002716 0.00047 0.000938
-0.002742 0.000457 0.000966
-0.002911 0.000452 -0.000711
-0.002899 0.000563 -0.000759
-0.002685 0.000707 -0.000482
-0.0029 0.000536 -0.000759
-0.00289 0.000625 -0.000794
-0.002994 0.000574 9.8e-05
-0.002776 0.000747 -4.7e-05
-0.002864 0.00065 -0.000863
-0.002997 0.000369 0.000134
-0.002996 0.000368 0.000158
-0.002994 0.000367 0.000183
-0.002993 0.000366 0.000208
-0.002992 0.000364 0.000233
-0.00299 0.000364 0.000257
-0.002985 0.000364 0.000281
-0.002967 0.000371 0.000304
-0.002933 0.000385 0.000323
-0.002895 0.000402 0.000343
-0.002856 0.000418 0.000362
-0.002811 0.000438 0.00038
-0.002769 0.000456 0.000398
-0.002406 0.000612 0.000568
-0.002403 0.000611 0.000592
-0.002403 0.000609 0.000617
-0.002408 0.000605 0.000643
-0.002419 0.000599 0.000669
-0.002442 0.000586 0.000698
-0.002538 0.000537 0.000762
-0.002571 0.00052 0.000792
-0.002602 0.000504 0.000821
-0.002635 0.000486 0.000851
-0.002663 0.000471 0.00088
-0.002689 0.000457 0.000909
-0.002716 0.000443 0.000938
-0.002741 0.00043 0.000966
-0.002766 0.000418 0.000993
-0.00246 0.000633 -0.001708
-0.002851 0.000634 -7e-06
-0.002634 0.000706 -0.00045
-0.001821 0.000577 -0.00205
-0.002579 0.000651 -0.000418
-0.00202 -2.7e-05 0.000585
-0.002403 0.000697 -0.001359
-0.002731 0.000684 -0.000513
-0.002983 0.00069 0.000124
-0.002997 0.000343 0.000109
-0.002996 0.000342 0.000134
-0.002996 0.000341 0.000158
-0.002995 0.000339 0.000183
-0.002993 0.000338 0.000208
-0.002992 0.000337 0.000233
-0.00299 0.000337 0.000257
-0.002986 0.000337 0.000282
-0.002967 0.000344 0.000304
-0.002933 0.000358 0.000323
-0.002894 0.000375 0.000342
-0.002856 0.000391 0.000362
-0.002812 0.00041 0.00038
-0.00277 0.000428 0.000398
-0.002711 0.000454 0.000414
-0.002642 0.000485 0.000429
-0.002406 0.000584 0.000568
-0.002403 0.000584 0.000592
-0.002404 0.000582 0.000617
-0.002408 0.000578 0.000642
-0.002418 0.000571 0.000669
-0.002442 0.000559 0.000698
-0.002482 0.000538 0.000729
-0.002535 0.000511 0.000762
-0.00257 0.000493 0.000792
-0.002604 0.000476 0.000822
-0.002635 0.000459 0.000851
-0.002663 0.000444 0.000881
-0.002688 0.000431 0.000909
-0.002716 0.000416 0.000938
-0.002741 0.000403 0.000967
-0.002765 0.00039 0.000994
-0.002523 0.0006 -0.001601
-0.002995 0.000547 9.8e-05
-0.002886 0.000619 1.3e-05
-0.002527 0.000748 -0.000956
-0.002633 0.000652 -0.00045
-0.002829 0.000443 -0.000601
-0.002485 0.000607 -0.001503
-0.00286 0.000698 -0.00063
-0.002969 0.000723 0.000126
-0.002997 0.000315 0.000134
-0.002996 0.000313 0.000159
-0.002995 0.000312 0.000183
-0.002993 0.000311 0.000208
-0.002992 0.00031 0.000233
-0.00299 0.000309 0.000257
-0.002986 0.00031 0.000282
-0.002967 0.000316 0.000304
-0.002932 0.000331 0.000323
-0.002895 0.000347 0.000343
-0.002856 0.000364 0.000362
-0.002812 0.000383 0.00038
-0.002769 0.000401 0.000398
-0.002712 0.000427 0.000415
-0.002025 -2.8e-05 0.00056
-0.002029 -2.8e-05 0.000536
-0.002406 0.000557 0.000568
-0.002403 0.000557 0.000592
-0.002403 0.000555 0.000617
-0.002408 0.000551 0.000642
-0.002419 0.000544 0.000669
-0.002441 0.000532 0.000697
-0.002483 0.00051 0.000729
-0.002531 0.000486 0.000761
-0.002569 0.000466 0.000792
-0.002605 0.000448 0.000822
-0.002635 0.000432 0.000851
-0.002663 0.000417 0.000881
-0.002689 0.000403 0.000909
-0.002717 0.000388 0.000938
-0.002741 0.000375 0.000967
-0.002765 0.000363 0.000994
-0.002791 0.000617 -0.000912
-0.002579 0.000733 -0.000418
-0.002993 0.000602 9.8e-05
-0.002979 0.000607 7.5e-05
-0.0029 0.000509 -0.000759
-0.002034 -2.9e-05 0.000512
-0.002637 0.000644 -0.000103
-0.002526 0.000693 -0.000137
-0.002829 0.000633 -0.000601
-0.002851 0.000715 -7e-06
-0.002861 0.000683 -0.000853
-0.002997 0.000287 0.000134
-0.002996 0.000286 0.000159
-0.002995 0.000285 0.000183
-0.002993 0.000284 0.000208
-0.002992 0.000283 0.000233
-0.00299 0.000282 0.000257
-0.002985 0.000283 0.000282
-0.002967 0.00029 0.000304
-0.002931 0.000304 0.000323
-0.002895 0.00032 0.000343
-0.002856 0.000337 0.000362
-0.002813 0.000355 0.00038
-0.002769 0.000374 0.000398
-0.002711 0.0004 0.000414
-0.002406 0.00053 0.000568
-0.002403 0.00053 0.000592
-0.002403 0.000528 0.000617
-0.002408 0.000524 0.000642
-0.002418 0.000517 0.000669
-0.002441 0.000505 0.000697
-0.002484 0.000483 0.000729
-0.002533 0.000458 0.000761
-0.002569 0.000439 0.000792
-0.002605 0.000421 0.000822
-0.002635 0.000405 0.000851
-0.002663 0.00039 0.000881
-0.002691 0.000375 0.00091
-0.002715 0.000362 0.000938
-0.002741 0.000348 0.000967
-0.002765 0.000336 0.000994
-0.002906 0.000508 -0.000735
-0.002829 0.000606 -0.000601
-0.002575 0.000647 -0.00095
-0.00295 0.000619 5.4e-05
-0.002464 0.000683 -0.000328
-0.002579 0.00067 -0.00012
-0.00269 0.000622 -8.5e-05
-0.00298 0.000579 7.5e-05
-0.002905 0.000589 -0.000735
-0.002879 0.000722 -0.000735
-0.002997 0.00026 0.000134
-0.002996 0.000259 0.000159
-0.002995 0.000258 0.000183
-0.002993 0.000257 0.000208
-0.002991 0.000256 0.000233
-0.002989 0.000255 0.000257
-0.002985 0.000256 0.000282
-0.002967 0.000262 0.000304
-0.002931 0.000278 0.000323
-0.002896 0.000293 0.000343
-0.002856 0.00031 0.000362
-0.002814 0.000328 0.00038
-0.002769 0.000347 0.000398
-0.002712 0.000372 0.000415
-0.002406 0.000503 0.000568
-0.002403 0.000503 0.000592
-0.002403 0.000501 0.000617
-0.002408 0.000497 0.000642
-0.002418 0.00049 0.000669
-0.002441 0.000478 0.000697
-0.002482 0.000457 0.000729
-0.002531 0.000432 0.000761
-0.002568 0.000413 0.000791
-0.002605 0.000394 0.000822
-0.002636 0.000377 0.000852
-0.002664 0.000362 0.000881
-0.002691 0.000348 0.00091
-0.002716 0.000335 0.000938
-0.002741 0.000321 0.000966
-0.002765 0.000309 0.000994
-0.002765 0.000476 -0.000542
-0.002798 0.000622 -0.000572
-0.002996 0.000602 0.000122
-0.002502 0.000621 -0.001538
-0.002906 0.000399 -0.000735
-0.002039 -2.9e-05 0.000488
-0.002899 0.0004 -0.000759
-0.002497 0.000651 -0.000158
-0.002778 0.000556 -4.7e-05
-0.002995 0.000631 0.000147
-0.002978 0.000698 0.000224
-0.002997 0.000233 0.000134
-0.002996 0.000232 0.000159
-0.002995 0.000231 0.000183
-0.002993 0.00023 0.000208
-0.002991 0.000229 0.000233
-0.002989 0.000228 0.000257
-0.002985 0.000228 0.000281
-0.002967 0.000235 0.000304
-0.002932 0.00025 0.000323
-0.002896 0.000265 0.000343
-0.002856 0.000282 0.000362
-0.002814 0.0003 0.00038
-0.00271 0.000346 0.000414
-0.002647 0.000374 0.00043
-0.002406 0.000476 0.000568
-0.002403 0.000476 0.000592
-0.002404 0.000474 0.000617
-0.002409 0.00047 0.000642
-0.002418 0.000463 0.000669
-0.00244 0.000451 0.000697
-0.002482 0.000429 0.000729
-0.002529 0.000405 0.000761
-0.002568 0.000386 0.000791
-0.002604 0.000367 0.000822
-0.002636 0.00035 0.000852
-0.002663 0.000335 0.000881
-0.002691 0.000321 0.00091
-0.002715 0.000308 0.000938
-0.002741 0.000294 0.000967
-0.002765 0.000281 0.000994
-0.002788 0.00027 0.001021
-0.002815 0.000513 -2.7e-05
-0.002886 0.000576 -0.000658
-0.002886 0.000646 1.3e-05
-0.002906 0.000562 -0.000735
-0.002711 0.000648 -0.00093
-0.002043 -3e-05 0.000464
-0.002734 0.000629 -6.6e-05
-0.002903 0.000665 -0.000692
-0.002889 0.000653 -0.000793
-0.002997 0.000206 0.000134
-0.002996 0.000204 0.000159
-0.002995 0.000203 0.000183
-0.002993 0.000202 0.000208
-0.002992 0.000201 0.000233
-0.002989 0.000201 0.000257
-0.002984 0.000202 0.000281
-0.002966 0.000208 0.000304
-0.002932 0.000222 0.000323
-0.002895 0.000238 0.000343
-0.002856 0.000255 0.000362
-0.002813 0.000273 0.00038
-0.002047 -3e-05 0.000439
0.001126 -1.2e-05 0.001846
-0.002406 0.000449 0.000568
-0.002403 0.000448 0.000592
-0.002404 0.000447 0.000617
-0.002408 0.000442 0.000642
-0.002419 0.000436 0.000669
-0.002441 0.000423 0.000698
-0.00253 0.000378 0.000761
-0.002568 0.000358 0.000792
-0.002604 0.000339 0.000822
-0.002636 0.000323 0.000852
-0.002663 0.000308 0.000881
-0.002691 0.000293 0.00091
-0.002715 0.000281 0.000938
-0.00274 0.000267 0.000967
-0.002765 0.000254 0.000995
-0.002788 0.000243 0.001021
-0.002799 0.000595 -0.000572
-0.002918 0.000632 3.3e-05
-0.00285 0.000661 -7e-06
-0.002893 0.000565 -0.000783
-0.002336 0.000714 -0.001275
-0.002052 -3e-05 0.000415
-0.002517 0.000581 -0.001571
-0.002474 0.000604 -0.001687
-0.002982 0.000695 0.000199
-0.002997 0.000178 0.000134
-0.002996 0.000177 0.000159
-0.002995 0.000176 0.000183
-0.002993 0.000175 0.000208
-0.002992 0.000174 0.000233
-0.002989 0.000174 0.000257
-0.002983 0.000175 0.000281
-0.002966 0.000181 0.000304
-0.002931 0.000196 0.000323
-0.002896 0.000211 0.000343
-0.002856 0.000228 0.000362
-0.002814 0.000246 0.00038
0.001103 -1.3e-05 0.001854
0.00108 -1.4e-05 0.001864
-0.002406 0.000421 0.000568
-0.002403 0.000421 0.000592
-0.002404 0.000419 0.000617
-0.002408 0.000415 0.000642
-0.002419 0.000408 0.000669
-0.00244 0.000397 0.000697
-0.002483 0.000375 0.000729
-0.002529 0.000351 0.000761
-0.002568 0.000331 0.000792
-0.002604 0.000313 0.000822
-0.002636 0.000296 0.000852
-0.002665 0.00028 0.000881
-0.002691 0.000266 0.00091
-0.002715 0.000253 0.000938
-0.002739 0.00024 0.000967
-0.002763 0.000227 0.000995
-0.002787 0.000215 0.001022
-0.002523 0.000573 -0.001601
-0.002586 0.000749 -0.000121
-0.002899 0.000591 -0.000759
-0.002892 0.000592 -0.000783
-0.002829 0.000551 -0.000601
-0.002056 -3.1e-05 0.000391
-0.002631 0.000544 -0.00045
-0.002859 0.000618 -0.00063
-0.002501 0.000703 -0.001538
-0.002996 0.000152 0.000134
-0.002996 0.00015 0.000159
-0.002995 0.000149 0.000183
-0.002993 0.000148 0.000208
-0.002991 0.000148 0.000233
-0.002987 0.000148 0.000257
-0.002981 0.000149 0.000281
-0.002965 0.000154 0.000304
-0.002931 0.000169 0.000323
-0.002895 0.000184 0.000343
-0.002855 0.000201 0.000362
-0.002815 0.000218 0.00038
-0.002059 -3e-05 0.000366
-0.002406 0.000394 0.000568
-0.002403 0.000394 0.000592
-0.002404 0.000392 0.000617
-0.002408 0.000388 0.000642
-0.002418 0.000381 0.000669
-0.00244 0.000369 0.000697
-0.002484 0.000347 0.000729
-0.00253 0.000324 0.000761
-0.002568 0.000304 0.000792
-0.002604 0.000285 0.000822
-0.002636 0.000268 0.000852
-0.002665 0.000253 0.000881
-0.002691 0.000239 0.00091
-0.002715 0.000226 0.000938
-0.00274 0.000213 0.000967
-0.002763 0.0002 0.000995
-0.002787 0.000188 0.001022
-0.002886 0.000522 -0.000658
-0.002639 0.000725 -0.000103
-0.002327 0.000537 -0.001768
-0.00248 0.000687 -0.001663
-0.002799 0.000568 -0.000572
-0.002064 -3.1e-05 0.000342
-0.002776 0.000584 -4.7e-05
-0.002734 0.000602 -6.6e-05
-0.002798 0.000649 -0.000572
-0.002906 0.000645 -0.000711
-0.002993 0.000126 0.000134
-0.002994 0.000124 0.000158
-0.002993 0.000123 0.000183
-0.002991 0.000122 0.000208
-0.002988 0.000122 0.000232
-0.002984 0.000122 0.000256
-0.002977 0.000123 0.00028
-0.002964 0.000128 0.000303
-0.002932 0.000141 0.000323
-0.002895 0.000157 0.000343
-0.002855 0.000174 0.000362
-0.002814 0.000191 0.00038
-0.002068 -3.1e-05 0.000318
-0.002071 -3.1e-05 0.000293
-0.002406 0.000367 0.000568
-0.002403 0.000367 0.000592
-0.002404 0.000365 0.000617
-0.002409 0.000361 0.000642
-0.002418 0.000354 0.000669
-0.00244 0.000342 0.000698
-0.002484 0.00032 0.000729
-0.002529 0.000297 0.000761
-0.002568 0.000277 0.000792
-0.002604 0.000258 0.000822
-0.002636 0.000241 0.000852
-0.002664 0.000226 0.000881
-0.002691 0.000212 0.00091
-0.002716 0.000199 0.000939
-0.002741 0.000185 0.000967
-0.002762 0.000173 0.000995
-0.002786 0.000161 0.001022
-0.002526 0.000666 -0.000137
-0.002479 0.000685 -0.000181
-0.002733 0.000684 -6.6e-05
-0.002441 0.000588 -0.001735
-0.002859 0.000563 -0.00063
-0.002766 0.000585 -0.000542
-0.002912 0.000425 -0.000711
-0.002906 0.000535 -0.000735
-0.002918 0.000605 3.3e-05
-0.00295 0.000673 5.4e-05
-0.002429 0.000733 -0.001398
-0.002988 0.000101 0.000133
-0.002989 9.9e-05 0.000158
-0.002988 9.8e-05 0.000182
-0.002986 9.7e-05 0.000207
-0.002983 9.7e-05 0.000231
-0.002978 9.8e-05 0.000256
-0.002972 9.9e-05 0.00028
-0.00296 0.000102 0.000303
-0.002932 0.000114 0.000323
-0.002895 0.00013 0.000343
-0.002854 0.000147 0.000362
-0.002814 0.000164 0.00038
-0.002074 -3.1e-05 0.000269
-0.002646 0.000239 0.00043
-0.002574 0.000271 0.000444
-0.002078 -3.1e-05 0.000245
-0.002406 0.00034 0.000568
-0.002403 0.00034 0.000592
-0.002404 0.000338 0.000617
-0.002409 0.000334 0.000642
-0.002418 0.000327 0.000669
-0.00244 0.000315 0.000697
-0.00253 0.000269 0.000761
-0.002567 0.00025 0.000792
-0.002604 0.000231 0.000822
-0.002637 0.000214 0.000852
-0.002664 0.000199 0.000881
-0.00269 0.000185 0.00091
-0.002716 0.000171 0.000939
-0.00274 0.000158 0.000967
-0.002761 0.000147 0.000995
-0.002786 0.000134 0.001022
-0.002497 0.000678 -0.000158
-0.00273 0.000657 -0.000513
-0.002766 0.000639 -0.000543
-0.002464 0.000737 -0.000328
-0.002682 0.000572 -0.000481
-0.00273 0.000549 -0.000513
-0.002868 0.00068 -0.000838
-0.002502 0.000675 -0.001538
-0.002979 0.00069 0.0001
-0.002978 8.1e-05 0.000107
-0.00298 7.8e-05 0.000132
-0.00298 7.6e-05 0.000156
-0.00298 7.5e-05 0.000181
-0.002978 7.4e-05 0.000206
-0.002974 7.4e-05 0.00023
-0.00297 7.4e-05 0.000254
-0.002963 7.5e-05 0.000278
-0.002953 7.9e-05 0.000302
-0.002931 8.7e-05 0.000323
-0.002894 0.000103 0.000343
-0.002854 0.00012 0.000362
-0.002814 0.000137 0.00038
-0.002645 0.000212 0.00043
-0.002577 0.000242 0.000444
-0.002406 0.000313 0.000568
-0.002403 0.000312 0.000592
-0.002404 0.00031 0.000617
-0.002409 0.000307 0.000642
-0.002418 0.0003 0.000669
-0.002441 0.000288 0.000698
-0.002081 -3.1e-05 0.00022
-0.002531 0.000241 0.000761
-0.002568 0.000223 0.000792
-0.002604 0.000204 0.000822
-0.002636 0.000187 0.000852
-0.002664 0.000172 0.000881
-0.002691 0.000158 0.00091
-0.002717 0.000144 0.000939
-0.00274 0.000131 0.000967
-0.002763 0.000119 0.000994
-0.002786 0.000107 0.001022
-0.00246 0.000664 -0.000228
-0.002579 0.000643 -0.00012
-0.002814 0.000649 -2.7e-05
-0.002907 0.000564 -0.000686
-0.002461 0.000691 -0.000228
-0.002765 0.000531 -0.000542
-0.002857 0.000483 -0.000629
-0.002479 0.000712 -0.000181
-0.002881 0.000731 -0.000682
-0.002792 0.000699 -0.000913
-0.002403 0.000751 -0.001359
-0.002968 5.6e-05 0.00013
-0.002968 5.5e-05 0.000155
-0.002968 5.3e-05 0.000179
-0.002966 5.2e-05 0.000204
-0.002962 5.2e-05 0.000228
-0.002958 5.2e-05 0.000253
-0.002952 5.4e-05 0.000277
-0.002943 5.6e-05 0.0003
-0.002926 6.2e-05 0.000323
-0.002894 7.6e-05 0.000343
-0.002854 9.3e-05 0.000362
-0.002814 0.00011 0.00038
-0.002769 0.000129 0.000399
-0.00271 0.000156 0.000414
-0.002643 0.000185 0.000429
-0.002574 0.000216 0.000444
-0.002406 0.000286 0.000568
-0.002403 0.000285 0.000592
-0.002404 0.000284 0.000617
-0.002408 0.00028 0.000642
-0.002419 0.000272 0.000669
-0.00244 0.000261 0.000698
-0.002531 0.000214 0.000761
-0.002568 0.000195 0.000792
-0.002604 0.000176 0.000822
-0.002636 0.00016 0.000852
-0.002664 0.000145 0.000881
-0.002691 0.00013 0.00091
-0.002716 0.000117 0.000939
-0.00274 0.000104 0.000967
-0.002764 9.2e-05 0.000994
-0.002468 0.000662 -0.000204
-0.002456 0.000665 -0.000252
-0.002688 0.000704 -8.5e-05
-0.002907 0.000592 -0.000686
-0.00291 0.000589 -0.000711
-0.002468 0.000689 -0.000204
-0.002579 0.000679 -0.000418
-0.002775 0.000666 -4.7e-05
-0.002867 0.000621 -0.000864
-0.002993 0.00066 0.000148
-0.002878 0.000717 -0.000762
-0.002874 0.00065 -0.00084
-0.002851 0.000742 -7e-06
-0.002952 3.3e-05 0.000177
-0.00295 3.3e-05 0.000202
-0.002947 3.2e-05 0.000226
-0.002942 3.3e-05 0.00025
-0.002937 3.4e-05 0.000274
-0.002929 3.6e-05 0.000298
-0.002916 4e-05 0.000321
-0.002892 5e-05 0.000342
-0.002852 6.7e-05 0.000361
-0.002813 8.3e-05 0.00038
-0.00277 0.000102 0.000399
-0.002709 0.000129 0.000414
-0.002644 0.000158 0.00043
-0.002406 0.000258 0.000568
-0.002403 0.000258 0.000592
-0.002404 0.000256 0.000617
-0.002408 0.000253 0.000642
-0.002419 0.000245 0.000669
-0.002441 0.000233 0.000698
-0.002485 0.000211 0.000729
-0.00253 0.000188 0.000761
-0.002569 0.000168 0.000792
-0.002604 0.000149 0.000822
-0.002636 0.000133 0.000852
-0.002664 0.000118 0.000881
-0.002691 0.000103 0.00091
-0.002716 9e-05 0.000939
-0.002741 7.7e-05 0.000967
-0.002762 6.5e-05 0.000994
-0.002335 0.000722 -0.000951
-0.002685 0.00068 -0.000482
-0.002886 0.000673 1.3e-05
-0.002887 0.000603 -0.000658
-0.002996 0.000465 9.8e-05
-0.002632 0.000571 -0.00045
-0.002859 0.000591 -0.00063
-0.002911 0.000561 -0.000711
-0.002766 0.000666 -0.000543
-0.002468 0.00073 -0.001469
-0.002985 0.00069 0.000149
-0.002887 0.00063 -0.000658
-0.002919 0.000686 3.3e-05
-0.002827 0.000658 -0.000902
-0.002925 1.5e-05 0.000223
-0.002921 1.6e-05 0.000247
-0.002916 1.6e-05 0.000271
-0.002909 1.8e-05 0.000295
-0.002898 2.1e-05 0.000318
-0.002881 2.8e-05 0.000341
-0.002851 4e-05 0.000361
-0.002812 5.7e-05 0.00038
-0.002708 0.000102 0.000414
-0.002645 0.00013 0.00043
-0.002574 0.000162 0.000444
-0.002406 0.000231 0.000568
-0.002403 0.000231 0.000592
-0.002403 0.000229 0.000617
-0.002408 0.000225 0.000642
-0.002419 0.000218 0.000669
-0.002441 0.000206 0.000698
-0.002486 0.000183 0.00073
-0.00253 0.00016 0.000761
-0.002568 0.000141 0.000792
-0.002604 0.000122 0.000822
-0.002636 0.000105 0.000852
-0.002664 9e-05 0.000881
-0.002691 7.6e-05 0.00091
-0.002716 6.3e-05 0.000939
-0.002739 5e-05 0.000967
-0.002755 4.1e-05 0.000994
-0.002526 0.000721 -0.000956
-0.002829 0.00066 -0.000601
-0.00285 0.000688 -7e-06
-0.002995 0.000492 9.8e-05
-0.002479 0.000701 -0.000355
-0.002908 0.000537 -0.000686
-0.002829 0.000497 -0.000601
-0.002799 0.000513 -0.000572
-0.002474 0.000631 -0.001687
-0.002689 0.000731 -8.5e-05
-0.002734 0.000711 -6.6e-05
-0.002579 0.000706 -0.000418
-0.002488 0.000752 -0.000356
-0.002885 0.000537 1.3e-05
-0.002894 3e-06 0.000218
-0.00289 3e-06 0.000242
-0.002885 4e-06 0.000267
-0.002879 5e-06 0.000291
-0.002871 7e-06 0.000314
-0.00286 1e-05 0.000338
-0.00284 1.8e-05 0.00036
-0.00281 3.1e-05 0.00038
-0.002084 -3e-05 0.000196
-0.002644 0.000103 0.00043
-0.00257 0.000137 0.000443
-0.002406 0.000204 0.000568
-0.002403 0.000204 0.000592
-0.002403 0.000202 0.000617
-0.002407 0.000198 0.000642
-0.002419 0.000191 0.000669
-0.002442 0.000178 0.000698
-0.002486 0.000156 0.00073
-0.00253 0.000133 0.000761
-0.002569 0.000113 0.000792
-0.002603 9.5e-05 0.000822
-0.002637 7.8e-05 0.000852
-0.002663 6.4e-05 0.000881
-0.002691 4.9e-05 0.00091
-0.002714 3.7e-05 0.000938
-0.002731 2.7e-05 0.000965
-0.002428 0.000598 -0.001397
-0.002849 0.000717 -0.000852
-0.002992 0.000661 0.000173
-0.002899 0.000618 -0.000759
-0.002858 0.000537 -0.000629
-0.002886 0.000549 -0.000658
-0.002911 0.000534 -0.000711
-0.002499 0.000656 -0.001644
-0.002918 0.000469 3.4e-05
-0.002798 0.00054 -0.000572
-0.00273 0.000576 -0.000513
-0.002516 0.000517 -0.001625
-0.002895 0.000655 -0.000769
-0.002838 2e-06 0.00021
-0.002835 2e-06 0.000234
-0.002831 2e-06 0.000258
-0.002827 2e-06 0.000283
-0.002823 2e-06 0.000307
-0.00282 2e-06 0.000332
-0.002812 4e-06 0.000355
-0.002794 1.1e-05 0.000377
-0.002088 -3e-05 0.000171
-0.002565 0.000112 0.000443
-0.002406 0.000177 0.000568
-0.002403 0.000177 0.000592
-0.002403 0.000175 0.000617
-0.002407 0.000171 0.000642
-0.002418 0.000164 0.000669
-0.002441 0.000152 0.000698
-0.002484 0.000129 0.000729
-0.00253 0.000106 0.000761
-0.002569 8.6e-05 0.000792
-0.002603 6.8e-05 0.000822
-0.002635 5.1e-05 0.000852
-0.002662 3.7e-05 0.000881
-0.002686 2.4e-05 0.000909
-0.002702 1.5e-05 0.000936
-0.00271 9e-06 0.000963
-0.002454 0.000187 -0.000297
-0.002454 0.000185 -0.000272
-0.002456 0.000182 -0.000247
-0.002461 0.000178 -0.00022
-0.002498 0.000733 -0.000158
-0.002528 0.00072 -0.000137
-0.002454 0.000691 -0.000277
-0.002457 0.000688 -0.000302
-0.002815 0.00054 -2.7e-05
-0.0029 0.000482 -0.000759
-0.002908 0.00051 -0.000686
-0.002911 0.000507 -0.000711
-0.002765 0.000558 -0.000542
-0.002796 -0.0 0.000129
-0.002964 0.000724 0.000102
-0.00271 0.000675 -0.000929
-0.002856 0.000728 -0.000629
-0.002782 -1e-06 0.000226
-0.002777 0.0 0.00025
-0.002769 -1e-06 0.000324
-0.002762 0.0 0.000348
-0.002754 3e-06 0.000371
-0.00274 7e-06 0.000394
-0.002705 2.2e-05 0.000414
-0.00209 -2.9e-05 0.000147
-0.002093 -2.9e-05 0.000122
-0.002405 0.00015 0.000568
-0.002402 0.00015 0.000592
-0.002403 0.000148 0.000617
-0.002407 0.000144 0.000642
-0.002419 0.000137 0.00067
-0.002441 0.000124 0.000698
-0.002485 0.000102 0.000729
-0.002531 7.9e-05 0.000761
-0.00257 5.9e-05 0.000792
-0.002603 4.1e-05 0.000822
-0.002633 2.5e-05 0.000851
-0.002655 1.3e-05 0.00088
-0.002667 6e-06 0.000906
-0.002671 2e-06 0.000932
-0.002669 1e-06 0.000957
-0.002665 2e-06 0.000981
-0.002454 0.000159 -0.000297
-0.002453 0.000158 -0.000272
-0.002457 0.000155 -0.000247
-0.002461 0.00015 -0.00022
-0.002581 0.000596 -0.000418
-0.00291 0.000745 3.4e-05
-0.002957 0.000726 7.8e-05
-0.002682 0.000654 -0.000482
-0.00273 0.00063 -0.000513
-0.002469 0.000745 -0.000957
-0.002997 0.000493 0.000122
-0.002096 -2.9e-05 9.8e-05
-0.002738 -0.0 0.00012
-0.002733 0.0 0.000144
-0.002731 0.0 0.000169
-0.002726 0.0 0.000193
-0.002719 -0.0 0.000242
-0.002717 -0.0 0.000266
-0.002713 -0.0 0.00029
-0.00271 -0.0 0.000315
-0.002706 -0.0 0.000339
-0.002702 -0.0 0.000364
-0.002699 -0.0 0.000388
-0.002683 5e-06 0.000411
-0.002648 2e-05 0.00043
-0.002411 0.000122 0.000544
-0.002405 0.000123 0.000568
-0.002402 0.000123 0.000592
-0.002402 0.000121 0.000617
-0.002406 0.000117 0.000643
-0.002418 0.00011 0.000669
-0.00244 9.7e-05 0.000698
-0.002482 7.6e-05 0.000729
-0.002532 5.1e-05 0.000761
-0.002568 3.2e-05 0.000792
-0.0026 1.6e-05 0.000822
-0.002618 5e-06 0.000849
-0.002622 2e-06 0.000875
-0.00262 1e-06 0.000899
-0.002617 0.0 0.000924
-0.002616 -1e-06 0.000949
-0.002611 -0.0 0.000973
-0.002607 0.0 0.000997
-0.002454 0.000132 -0.000297
-0.002453 0.000131 -0.000272
-0.002456 0.000128 -0.000246
-0.002461 0.000123 -0.00022
-0.002335 0.000749 -0.000951
-0.002908 0.000455 -0.000686
-0.002938 0.000733 5.6e-05
-0.002826 0.000743 -0.0006
-0.002098 -2.8e-05 7.3e-05
-0.002766 0.000611 -0.000543
-0.002683 -3e-06 0.000136
-0.00268 -4e-06 0.000161
-0.002679 -4e-06 0.000186
-0.002665 -3e-06 0.000258
-0.002663 -4e-06 0.000283
-0.002659 -4e-06 0.000307
-0.002654 -3e-06 0.000331
-0.002642 -2e-06 0.000404
-0.002626 3e-06 0.000427
-0.002099 -2.7e-05 4.9e-05
-0.002411 9.5e-05 0.000544
-0.002405 9.6e-05 0.000568
-0.002402 9.6e-05 0.000592
-0.002402 9.4e-05 0.000617
-0.002406 9e-05 0.000643
-0.002418 8.2e-05 0.00067
-0.002439 7.1e-05 0.000698
-0.002533 2.3e-05 0.000762
-0.002564 7e-06 0.000791
-0.002576 -1e-06 0.000818
-0.002563 -1e-06 0.000916
-0.002558 -1e-06 0.00094
-0.002554 -0.0 0.000964
-0.002549 0.0 0.000988
-0.002453 0.000106 -0.000297
-0.002452 0.000104 -0.000272
-0.002455 0.000101 -0.000246
-0.002468 0.000703 -0.001469
-0.002473 0.000659 -0.001686
-0.002829 0.000579 -0.000601
-0.002103 -2.7e-05 2.4e-05
-0.002852 0.000497 -7e-06
-0.002858 0.000455 -0.000629
-0.002886 0.00044 -0.000658
-0.002814 0.000595 -2.7e-05
-0.002591 -1e-06 0.000322
-0.002586 -0.0 0.000346
-0.002577 -1e-06 0.000419
-0.002566 3e-06 0.000443
-0.002405 6.9e-05 0.000568
-0.002401 6.9e-05 0.000592
-0.002402 6.7e-05 0.000617
-0.002405 6.3e-05 0.000643
-0.002417 5.6e-05 0.000669
-0.002439 4.4e-05 0.000698
-0.00252 2e-06 0.00076
-0.00252 -0.0 0.000785
-0.002519 -1e-06 0.000809
-0.002513 -3e-06 0.000883
-0.002508 -3e-06 0.000907
-0.002504 -2e-06 0.000932
-0.002502 -3e-06 0.000956
-0.0025 -4e-06 0.000981
-0.002494 -3e-06 0.001005
-0.002688 0.000649 -8.5e-05
-0.002798 0.000703 -0.000572
-0.002899 0.000678 -0.000685
-0.002512 0.000687 -0.001596
-0.002464 0.00071 -0.000328
-0.002601 -4e-06 -0.0001
-0.002594 -3e-06 -7.6e-05
-0.002764 0.000504 -0.000542
-0.002454 0.000664 -0.000277
-0.002893 0.000429 -0.000783
-0.002899 0.000427 -0.000759
-0.00269 0.000567 -8.5e-05
-0.002908 0.000483 -0.000686
-0.002893 0.000483 -0.000783
-0.002577 0.000698 -0.000119
-0.002569 -4e-06 0.000144
-0.002567 -6e-06 0.000169
-0.002563 -6e-06 0.000193
-0.002454 0.000723 -0.001679
-0.002775 0.000612 -4.7e-05
-0.002852 0.000579 -7e-06
-0.002541 -6e-06 0.000339
-0.002521 -3e-06 0.000436
-0.002409 4.1e-05 0.000544
-0.002404 4.2e-05 0.000568
-0.002401 4.2e-05 0.000592
-0.002401 4e-05 0.000617
-0.002405 3.6e-05 0.000643
-0.002417 2.8e-05 0.000669
-0.002476 -3e-06 0.000728
-0.002475 -4e-06 0.000753
-0.002465 -3e-06 0.000801
-0.002461 -2e-06 0.000825
-0.002454 -1e-06 0.000849
-0.002451 -1e-06 0.000874
-0.002446 -0.0 0.000898
-0.002441 0.0 0.000922
-0.002438 0.0 0.000947
-0.002578 0.000616 -0.000119
-0.002893 0.000537 -0.000783
-0.002686 0.000734 -0.000482
-0.002813 0.000731 -2.7e-05
-0.002731 0.000711 -0.000513
-0.002798 0.000486 -0.000572
-0.002906 0.000426 -0.000735
-0.002551 -7e-06 -0.000108
-0.002546 -6e-06 -8.3e-05
-0.002542 -6e-06 -5.9e-05
-0.002456 0.000661 -0.000302
-0.002456 0.000715 -0.000302
-0.002995 0.000519 9.8e-05
-0.002768 0.000719 -0.000543
-0.002507 -4e-06 0.000135
-0.002504 -4e-06 0.000159
-0.0025 -4e-06 0.000184
-0.002495 -3e-06 0.000208
-0.002465 -2e-06 0.000403
-0.002461 -2e-06 0.000427
-0.002403 1.5e-05 0.000568
-0.0024 1.5e-05 0.000592
-0.0024 1.3e-05 0.000617
-0.002404 9e-06 0.000642
-0.002415 2e-06 0.000669
-0.00273 0.000522 -0.000513
-0.002951 0.000482 5.4e-05
-0.002415 -5e-06 0.000794
-0.00241 -5e-06 0.000818
-0.002405 -5e-06 0.000842
-0.002401 -5e-06 0.000866
-0.002398 -5e-06 0.000891
-0.002396 -6e-06 0.000915
-0.002393 -6e-06 0.00094
-0.002387 -5e-06 0.000964
-0.002381 -4e-06 0.000988
-0.00295 0.00051 5.4e-05
-0.002978 0.000634 7.5e-05
-0.002775 0.000693 -4.7e-05
-0.002466 0.000649 -0.001468
-0.002237 0.000599 -0.001757
-0.002455 0.00048 -0.001715
-0.00295 0.000564 5.4e-05
-0.00248 -3e-06 -9.3e-05
-0.002474 -1e-06 -6.9e-05
-0.002886 0.000413 -0.000658
-0.002581 0.000569 -0.000418
-0.002906 0.000619 -0.000686
-0.002984 0.000692 0.000174
-0.00244 -1e-06 0.00015
-0.002436 -1e-06 0.000174
-0.002433 -1e-06 0.000199
-0.002997 0.000575 0.000122
-0.002858 0.000428 -0.000629
-0.00242 -1e-06 0.000296
-0.002415 -1e-06 0.00032
-0.002411 -1e-06 0.000345
-0.002408 -1e-06 0.000369
-0.002405 -2e-06 0.000394
-0.002402 -2e-06 0.000418
-0.002378 2e-06 0.000564
-0.002374 -1e-06 0.000588
-0.002372 -1e-06 0.000613
-0.002369 -1e-06 0.000637
-0.002363 -1e-06 0.000661
-0.002354 0.0 0.00071
-0.002343 -1e-06 0.000808
-0.002338 -1e-06 0.000832
-0.002336 -2e-06 0.000857
-0.002334 -2e-06 0.000881
-0.002331 -2e-06 0.000906
-0.00233 -3e-06 0.00093
-0.002326 -3e-06 0.000955
-0.002322 -3e-06 0.000979
-0.002995 0.000438 9.8e-05
-0.002649 0.000748 -0.000104
-0.002632 0.000754 -0.000127
-0.00251 0.000656 -0.001622
-0.002467 0.000676 -0.001468
-0.002426 -1e-06 -0.000151
-0.002424 -2e-06 -0.000127
-0.00242 -1e-06 -0.000103
-0.002415 -2e-06 -7.8e-05
-0.002412 -1e-06 -5.4e-05
-0.00241 -2e-06 -2.9e-05
-0.002407 -2e-06 -5e-06
-0.002405 -3e-06 2e-05
-0.002885 0.000468 -0.000658
-0.002918 0.000524 3.4e-05
-0.002633 0.000625 -0.00045
-0.00298 0.000525 7.5e-05
-0.00248 0.000739 -0.000181
-0.002457 0.000742 -0.000302
-0.002468 0.000744 -0.000204
-0.00273 0.000603 -0.000513
-0.002369 -5e-06 0.000289
-0.002366 -5e-06 0.000313
-0.002362 -5e-06 0.000337
-0.002359 -5e-06 0.000362
-0.002356 -5e-06 0.000386
-0.002351 -5e-06 0.00041
-0.002319 -4e-06 0.000605
-0.002314 -3e-06 0.000629
-0.00231 -2e-06 0.000653
-0.002918 0.000578 3.4e-05
-0.002302 -2e-06 0.000702
-0.002298 -2e-06 0.000726
-0.002293 -2e-06 0.00075
-0.002286 -2e-06 0.000799
-0.002282 -1e-06 0.000823
-0.002278 -1e-06 0.000848
-0.002273 -1e-06 0.000872
-0.00227 -0.0 0.000896
-0.002638 0.000698 -0.000103
-0.00258 0.000724 -0.00012
-0.002635 0.000732 -0.00045
-0.002813 0.000677 -2.7e-05
-0.002911 0.000398 -0.000711
-0.00248 0.000647 -0.000355
-0.00238 -5e-06 -0.000183
-0.002379 -6e-06 -0.000159
-0.002376 -6e-06 -0.000134
-0.002374 -7e-06 -0.000109
-0.002373 -8e-06 -8.5e-05
-0.00237 -8e-06 -6e-05
-0.002368 -9e-06 -3.6e-05
-0.002366 -1e-05 -1.1e-05
-0.002363 -1e-05 1.4e-05
-0.002361 -1.1e-05 3.8e-05
-0.002503 0.000518 -0.001646
-0.00298 0.000552 7.5e-05
-0.002734 0.000657 -6.6e-05
-0.002775 0.000639 -4.7e-05
-0.00248 0.000674 -0.000355
-0.002633 0.000597 -0.00045
-0.00298 0.000498 7.5e-05
-0.00283 0.000687 -0.0006
-0.002319 -1e-05 0.000306
-0.002316 -1e-05 0.00033
-0.002317 -1.3e-05 0.000355
-0.002309 -1.1e-05 0.000379
-0.002276 -1e-05 0.000598
-0.002275 -1.2e-05 0.000623
-0.002269 -1e-05 0.000647
-0.002262 -1e-05 0.000696
-0.002258 -1e-05 0.00072
-0.002252 -8e-06 0.000744
-0.002237 -7e-06 0.000817
-0.002231 -6e-06 0.000841
-0.002225 -5e-06 0.000865
-0.00248 0.000728 -0.000355
-0.002852 0.000524 -7e-06
-0.002502 0.0006 -0.001646
-0.002524 0.000518 -0.001601
-0.002468 0.000567 -0.001469
-0.002908 0.000401 -0.000686
-0.002463 0.000656 -0.000328
-0.002333 -1e-05 -0.00019
-0.002327 -8e-06 -0.000166
-0.002329 -1.1e-05 -0.000141
-0.002325 -1.1e-05 -0.000117
-0.002322 -1.1e-05 -9.2e-05
-0.002317 -9e-06 -6.8e-05
-0.002297 -8e-06 2.8e-05
-0.002292 -8e-06 5.3e-05
-0.002835 0.000722 -0.000875
-0.002477 0.000759 -0.000329
-0.002502 0.000758 -0.000159
-0.002884 0.000682 -0.000791
-0.00185 0.000666 -0.002171
-0.002729 0.000495 -0.000513
-0.002215 -7e-06 0.000564
-0.002213 -8e-06 0.000589
-0.002204 -7e-06 0.000637
-0.002201 -7e-06 0.000662
-0.002197 -7e-06 0.000686
-0.002193 -7e-06 0.00071
-0.002179 -7e-06 0.000808
-0.002178 -8e-06 0.000833
-0.002176 -9e-06 0.000857
-0.002458 0.000661 -0.001707
-0.002502 0.000594 -0.001538
-0.0023 0.000737 -0.001232
-0.002271 -7e-06 -0.0002
-0.002261 -5e-06 -0.000176
-0.002896 0.000627 -0.00077
-0.002252 -7e-06 -0.000103
-0.002877 0.000716 -0.000657
-0.002906 0.00048 -0.000735
-0.002239 -6e-06 -3e-05
-0.002237 -5e-06 -5e-06
-0.002233 -5e-06 1.9e-05
-0.002229 -5e-06 4.3e-05
-0.002226 -5e-06 6.8e-05
-0.002799 0.000459 -0.000572
-0.002633 0.000679 -0.00045
-0.002214 -6e-06 0.000141
-0.002209 -4e-06 0.000165
-0.002205 -4e-06 0.000189
-0.001997 -8e-06 0.000855
-0.002682 0.000546 -0.000481
-0.002187 -4e-06 0.000311
-0.002182 -3e-06 0.000335
-0.002141 -4e-06 0.000628
-0.002139 -5e-06 0.000652
-0.002136 -5e-06 0.000677
-0.002126 -3e-06 0.0007
-0.002119 -6e-06 0.000799
-0.002115 -6e-06 0.000823
-0.002109 -5e-06 0.000847
-0.002003 -9e-06 0.000831
-0.002008 -1e-05 0.000807
-0.002893 0.000402 -0.000783
-0.002997 0.000439 0.000122
-0.002777 0.000529 -4.7e-05
-0.002965 0.00073 0.000201
-0.002971 0.000726 0.000175
-0.002468 0.000594 -0.001469
-0.002908 0.000428 -0.000686
-0.002735 0.000574 -6.6e-05
-0.002689 0.000595 -8.5e-05
-0.002639 0.000616 -0.000103
-0.002893 0.000456 -0.000783
-0.002859 0.000644 -0.00063
-0.002181 -6e-06 -1.4e-05
-0.002179 -7e-06 1.1e-05
-0.002177 -7e-06 3.5e-05
-0.002174 -8e-06 6e-05
-0.00217 -8e-06 8.4e-05
-0.002167 -9e-06 0.000109
-0.002165 -9e-06 0.000133
-0.002162 -9e-06 0.000158
-0.002159 -9e-06 0.000182
-0.002155 -9e-06 0.000206
-0.002152 -1e-05 0.000231
-0.002393 0.000697 -0.00095
-0.002532 0.000745 -0.000138
-0.002142 -1e-05 0.000304
-0.002139 -1e-05 0.000329
-0.002127 -1e-05 0.000401
-0.002088 -7e-06 0.00062
-0.002083 -7e-06 0.000644
-0.002056 -4e-06 0.000789
-0.002052 -3e-06 0.000814
-0.002051 -5e-06 0.000838
-0.002046 -4e-06 0.000863
-0.002886 0.00051 1.3e-05
-0.002688 0.000677 -8.5e-05
-0.002847 0.000688 -0.000876
-0.002971 0.000724 0.000151
-0.00289 0.000571 -0.000794
-0.00298 0.00047 7.5e-05
-0.002469 0.000716 -0.000204
-0.002455 0.000718 -0.000277
-0.002886 0.000483 1.3e-05
-0.002639 0.000589 -0.000103
-0.002527 0.000639 -0.000137
-0.002766 0.000693 -0.000543
-0.002904 0.000648 -0.000686
-0.002139 -1.5e-05 5e-06
-0.002138 -1.6e-05 2.9e-05
-0.002136 -1.7e-05 5.4e-05
-0.002133 -1.8e-05 7.9e-05
-0.00213 -1.8e-05 0.000103
-0.002127 -1.8e-05 0.000127
-0.002124 -1.9e-05 0.000152
-0.002122 -1.9e-05 0.000176
-0.002119 -1.9e-05 0.000201
-0.002115 -1.9e-05 0.000225
-0.002112 -1.9e-05 0.00025
-0.002108 -2e-05 0.000274
-0.002105 -2e-05 0.000299
-0.002101 -2e-05 0.000323
-0.002099 -2e-05 0.000347
-0.002095 -2e-05 0.000372
-0.00209 -2e-05 0.000396
-0.002086 -1.9e-05 0.00042
-0.002082 -1.9e-05 0.000445
-0.002078 -1.9e-05 0.000469
-0.002073 -1.8e-05 0.000493
-0.00207 -1.8e-05 0.000517
-0.002064 -1.8e-05 0.000541
-0.00206 -1.7e-05 0.000566
-0.002055 -1.7e-05 0.00059
-0.002014 -1.1e-05 0.000783
-0.00248 0.00062 -0.000355
-0.002463 0.000629 -0.000328
-0.002456 0.000634 -0.000302
-0.002454 0.000637 -0.000277
-0.002456 0.000637 -0.000252
-0.00246 0.000637 -0.000228
-0.002467 0.000635 -0.000204
-0.002479 0.000631 -0.000181
-0.002497 0.000624 -0.000158
-0.002526 0.000612 -0.000137
-0.002578 0.000589 -0.000119
-0.002639 0.000562 -0.000103
-0.00269 0.00054 -8.5e-05
-0.002739 0.000518 -6.6e-05
-0.002778 0.000502 -4.7e-05
-0.002814 0.000486 -2.7e-05
-0.002851 0.00047 -7e-06
-0.002886 0.000456 1.3e-05
-0.002919 0.000442 3.3e-05
-0.002951 0.000428 5.4e-05
-0.00298 0.000416 7.5e-05
-0.002995 0.000411 9.8e-05
-0.002997 0.000411 0.000122
-0.00209 0.000741 -0.001729
-0.002751 0.000632 -0.000921
-0.00177 0.000746 -0.00191
-0.002521 0.000628 -0.0016
-0.00214 0.000721 -0.001739
-0.002893 0.000374 -0.000783
-0.002899 0.000373 -0.000759
-0.002906 0.000372 -0.000735
-0.002911 0.000371 -0.000711
-0.002908 0.000374 -0.000686
-0.002886 0.000386 -0.000658
-0.002858 0.0004 -0.000629
-0.002829 0.000416 -0.000601
-0.002799 0.000431 -0.000572
-0.002765 0.000449 -0.000542
-0.002729 0.000467 -0.000513
-0.002479 0.000593 -0.000355
-0.002463 0.000602 -0.000328
-0.002456 0.000607 -0.000302
-0.002454 0.000609 -0.000277
-0.002456 0.00061 -0.000252
-0.00246 0.00061 -0.000228
-0.002467 0.000608 -0.000204
-0.002479 0.000604 -0.000181
-0.002497 0.000597 -0.000158
-0.002526 0.000585 -0.000137
-0.002577 0.000563 -0.000119
-0.002639 0.000535 -0.000103
-0.002689 0.000513 -8.5e-05
-0.002737 0.000492 -6.6e-05
-0.002778 0.000475 -4.7e-05
-0.002814 0.000459 -2.7e-05
-0.002852 0.000443 -7e-06
-0.002888 0.000427 1.3e-05
-0.002921 0.000414 3.3e-05
-0.002951 0.000401 5.4e-05
-0.002981 0.000388 7.5e-05
-0.002995 0.000383 9.8e-05
-0.002997 0.000384 0.000123
-0.002223 0.000733 -0.001144
-0.002669 0.000664 -0.000938
-0.001861 0.00064 -0.002245
-0.002516 0.000636 -0.001571
-0.002455 0.000589 -0.001715
-0.002893 0.000347 -0.000783
-0.0029 0.000346 -0.000759
-0.002906 0.000344 -0.000735
-0.002912 0.000344 -0.000711
-0.002908 0.000347 -0.000686
-0.002886 0.000359 -0.000658
-0.002858 0.000374 -0.000629
-0.002828 0.000389 -0.000601
-0.002799 0.000404 -0.000572
-0.002766 0.000421 -0.000542
-0.002728 0.000441 -0.000512
-0.002681 0.000464 -0.000481
-0.002632 0.000489 -0.00045
-0.002577 0.000516 -0.000417
-0.002479 0.000566 -0.000354
-0.002463 0.000575 -0.000328
-0.002456 0.00058 -0.000302
-0.002454 0.000582 -0.000276
-0.002455 0.000583 -0.000252
-0.00246 0.000583 -0.000228
-0.002467 0.000581 -0.000204
-0.002479 0.000577 -0.00018
-0.002497 0.00057 -0.000158
-0.002526 0.000558 -0.000137
-0.002576 0.000536 -0.000119
-0.002639 0.000508 -0.000103
-0.002689 0.000486 -8.5e-05
-0.002737 0.000465 -6.6e-05
-0.002778 0.000447 -4.7e-05
-0.002815 0.000432 -2.7e-05
-0.002855 0.000414 -8e-06
-0.002889 0.0004 1.3e-05
-0.00292 0.000387 3.3e-05
-0.002951 0.000374 5.4e-05
-0.002981 0.000362 7.5e-05
-0.002995 0.000356 9.8e-05
-0.002483 0.000592 -0.001674
-0.002624 0.000682 -0.000945
-0.002488 0.000602 -0.001666
-0.002502 0.000648 -0.001538
-0.002282 0.000554 -0.001763
-0.002893 0.00032 -0.000783
-0.002899 0.000319 -0.000759
-0.002906 0.000317 -0.000735
-0.002912 0.000316 -0.000711
-0.002908 0.00032 -0.000686
-0.002885 0.000332 -0.000658
-0.002858 0.000346 -0.000629
-0.002829 0.000362 -0.000601
-0.002799 0.000377 -0.000572
-0.002766 0.000394 -0.000542
-0.002727 0.000414 -0.000512
-0.002679 0.000438 -0.000481
-0.002631 0.000462 -0.00045
-0.002578 0.000489 -0.000418
-0.002478 0.000539 -0.000354
-0.002463 0.000547 -0.000327
-0.002455 0.000553 -0.000302
-0.002454 0.000555 -0.000276
-0.002455 0.000556 -0.000252
-0.002459 0.000556 -0.000228
-0.002467 0.000554 -0.000204
-0.002479 0.00055 -0.00018
-0.002497 0.000543 -0.000158
-0.002525 0.000531 -0.000137
-0.00264 0.00048 -0.000103
-0.00269 0.000458 -8.5e-05
-0.002737 0.000438 -6.6e-05
-0.002778 0.00042 -4.7e-05
-0.002815 0.000404 -2.7e-05
-0.002853 0.000388 -7e-06
-0.002888 0.000373 1.3e-05
-0.002919 0.00036 3.4e-05
-0.002951 0.000347 5.4e-05
-0.002981 0.000334 7.4e-05
-0.002995 0.000329 9.8e-05
-0.002302 0.000761 -0.000963
-0.002576 0.000701 -0.000951
-0.001854 0.000618 -0.002345
-0.002485 0.000662 -0.001503
-0.002894 0.000697 -0.000688
-0.002893 0.000293 -0.000783
-0.0029 0.000291 -0.000759
-0.002906 0.00029 -0.000735
-0.002911 0.000289 -0.000711
-0.002908 0.000293 -0.000686
-0.002886 0.000304 -0.000658
-0.002858 0.000319 -0.000629
-0.002829 0.000334 -0.000601
-0.002799 0.00035 -0.000572
-0.002767 0.000367 -0.000542
-0.002728 0.000387 -0.000512
-0.002679 0.000411 -0.000481
-0.002633 0.000434 -0.00045
-0.002578 0.000462 -0.000418
-0.002478 0.000512 -0.000354
-0.002463 0.00052 -0.000327
-0.002455 0.000526 -0.000302
-0.002453 0.000528 -0.000276
-0.002455 0.000529 -0.000252
-0.002459 0.000529 -0.000228
-0.002467 0.000527 -0.000204
-0.002479 0.000523 -0.00018
-0.002497 0.000516 -0.000158
-0.002525 0.000504 -0.000137
-0.002577 0.000481 -0.000119
-0.002639 0.000454 -0.000103
-0.002691 0.000431 -8.5e-05
-0.002736 0.000411 -6.6e-05
-0.002778 0.000393 -4.7e-05
-0.002815 0.000377 -2.7e-05
-0.002852 0.000361 -7e-06
-0.002888 0.000346 1.3e-05
-0.002919 0.000333 3.4e-05
-0.002952 0.000319 5.4e-05
-0.002981 0.000307 7.5e-05
-0.002996 0.000302 9.8e-05
-0.002997 0.000303 0.000123
-0.002102 -2.6e-05 -5e-06
-0.0021 -2.7e-05 -2.9e-05
-0.002368 0.000657 -0.001771
-0.002445 0.000753 -0.000973
-0.002469 0.000481 -0.001695
-0.002488 0.000629 -0.001666
-0.002893 0.000687 -0.000742
-0.002893 0.000266 -0.000783
-0.002899 0.000264 -0.000759
-0.002906 0.000263 -0.000735
-0.002911 0.000262 -0.000711
-0.002907 0.000266 -0.000686
-0.002885 0.000278 -0.000658
-0.002858 0.000292 -0.000629
-0.002829 0.000307 -0.0006
-0.0028 0.000322 -0.000572
-0.002768 0.000339 -0.000543
-0.00273 0.000358 -0.000513
-0.00268 0.000383 -0.000481
-0.002633 0.000407 -0.00045
-0.002578 0.000435 -0.000417
-0.002478 0.000485 -0.000354
-0.002463 0.000493 -0.000327
-0.002455 0.000499 -0.000301
-0.002453 0.000501 -0.000276
-0.002455 0.000502 -0.000252
-0.002459 0.000502 -0.000227
-0.002467 0.0005 -0.000204
-0.002479 0.000495 -0.00018
-0.002497 0.000489 -0.000158
-0.002524 0.000477 -0.000137
-0.002578 0.000453 -0.000119
-0.002639 0.000426 -0.000103
-0.002692 0.000403 -8.5e-05
-0.002735 0.000384 -6.6e-05
-0.002777 0.000366 -4.7e-05
-0.002816 0.000349 -2.7e-05
-0.002854 0.000333 -7e-06
-0.002887 0.000319 1.3e-05
-0.00292 0.000305 3.3e-05
-0.002951 0.000292 5.4e-05
-0.002981 0.00028 7.5e-05
-0.002995 0.000275 9.8e-05
-0.002997 0.000276 0.000123
-0.002099 -2.8e-05 -5.4e-05
-0.002096 -2.8e-05 -7.8e-05
-0.002751 0.000605 -0.00092
-0.002339 0.00074 -0.001276
-0.002906 0.000631 -0.00072
-0.002501 0.000628 -0.001645
-0.002889 0.000684 -0.000767
-0.002893 0.000239 -0.000783
-0.0029 0.000237 -0.000759
-0.002906 0.000236 -0.000735
-0.002911 0.000235 -0.000711
-0.002907 0.000239 -0.000686
-0.002885 0.00025 -0.000658
-0.002858 0.000265 -0.000629
-0.002828 0.00028 -0.0006
-0.002799 0.000296 -0.000572
-0.002767 0.000312 -0.000542
-0.002729 0.000332 -0.000512
-0.00268 0.000356 -0.000481
-0.002633 0.00038 -0.00045
-0.002577 0.000408 -0.000417
-0.002478 0.000458 -0.000354
-0.002462 0.000466 -0.000327
-0.002455 0.000471 -0.000301
-0.002453 0.000474 -0.000276
-0.002455 0.000475 -0.000252
-0.002459 0.000474 -0.000227
-0.002467 0.000472 -0.000204
-0.002478 0.000468 -0.00018
-0.002496 0.000461 -0.000158
-0.002525 0.00045 -0.000137
-0.00264 0.000399 -0.000103
-0.002692 0.000376 -8.5e-05
-0.002734 0.000358 -6.6e-05
-0.002777 0.000339 -4.7e-05
-0.002816 0.000322 -2.7e-05
-0.002853 0.000307 -7e-06
-0.002887 0.000292 1.3e-05
-0.002919 0.000278 3.4e-05
-0.002951 0.000265 5.4e-05
-0.002982 0.000252 7.5e-05
-0.002995 0.000248 9.8e-05
-0.002997 0.000248 0.000123
-0.002876 0.000513 -0.000841
-0.002876 0.000595 -0.000841
-0.002429 0.000679 -0.001398
-0.002902 0.000629 -0.000745
-0.002903 0.00066 -0.000719
-0.002876 0.000681 -0.000815
-0.002893 0.000211 -0.000783
-0.0029 0.00021 -0.000759
-0.002906 0.000209 -0.000735
-0.002911 0.000208 -0.000711
-0.002906 0.000212 -0.000685
-0.002885 0.000223 -0.000658
-0.002858 0.000238 -0.000629
-0.002829 0.000253 -0.0006
-0.002799 0.000269 -0.000572
-0.002768 0.000285 -0.000543
-0.002729 0.000305 -0.000512
-0.00268 0.000329 -0.000481
-0.002631 0.000354 -0.000449
-0.002578 0.00038 -0.000417
-0.002478 0.00043 -0.000354
-0.002462 0.000439 -0.000327
-0.002455 0.000444 -0.000301
-0.002453 0.000447 -0.000276
-0.002455 0.000448 -0.000252
-0.002459 0.000447 -0.000227
-0.002466 0.000445 -0.000204
-0.002478 0.000441 -0.00018
-0.002496 0.000434 -0.000158
-0.002525 0.000422 -0.000137
-0.00264 0.000371 -0.000103
-0.002691 0.000349 -8.5e-05
-0.002736 0.00033 -6.6e-05
-0.002778 0.000311 -4.7e-05
-0.002816 0.000295 -2.7e-05
-0.002851 0.00028 -7e-06
-0.002887 0.000265 1.3e-05
-0.002919 0.000251 3.4e-05
-0.002951 0.000238 5.4e-05
-0.002981 0.000225 7.5e-05
-0.002995 0.000221 9.8e-05
-0.002997 0.000221 0.000123
-0.002094 -2.9e-05 -0.000103
-0.002578 0.000618 -0.000952
-0.002449 0.000663 -0.001433
-0.002853 0.000623 -0.000885
-0.002622 0.00071 -0.000944
-0.002517 0.000663 -0.001571
-0.002887 0.000186 -0.000807
-0.002893 0.000184 -0.000783
-0.0029 0.000183 -0.000759
-0.002906 0.000182 -0.000735
-0.00291 0.000181 -0.000711
-0.002905 0.000185 -0.000685
-0.002884 0.000197 -0.000658
-0.002858 0.00021 -0.000629
-0.002829 0.000225 -0.000601
-0.002798 0.000242 -0.000571
-0.002768 0.000257 -0.000543
-0.002733 0.000276 -0.000513
-0.00268 0.000302 -0.000481
-0.002632 0.000326 -0.00045
-0.002091 -2.9e-05 -0.000127
-0.002478 0.000403 -0.000354
-0.002462 0.000412 -0.000327
-0.002455 0.000417 -0.000301
-0.002453 0.00042 -0.000276
-0.002455 0.000421 -0.000252
-0.002459 0.00042 -0.000227
-0.002466 0.000418 -0.000204
-0.002478 0.000414 -0.00018
-0.002496 0.000407 -0.000158
-0.002524 0.000396 -0.000137
-0.002578 0.000372 -0.000119
-0.00264 0.000344 -0.000103
-0.002691 0.000322 -8.5e-05
-0.002735 0.000303 -6.6e-05
-0.002778 0.000284 -4.7e-05
-0.002815 0.000268 -2.7e-05
-0.002851 0.000253 -7e-06
-0.002886 0.000238 1.3e-05
-0.00292 0.000224 3.4e-05
-0.002951 0.000211 5.4e-05
-0.00298 0.000199 7.5e-05
-0.002994 0.000194 9.8e-05
-0.002997 0.000194 0.000123
-0.002502 0.000539 -0.001538
-0.002089 -3e-05 -0.000152
-0.002489 0.00052 -0.001667
-0.002883 0.000623 -0.000818
-0.002667 0.000692 -0.000937
-0.0029 0.000657 -0.000744
-0.002139 0.000639 -0.001738
-0.002886 0.000159 -0.000807
-0.002893 0.000157 -0.000783
-0.0029 0.000156 -0.000759
-0.002905 0.000155 -0.000735
-0.002908 0.000155 -0.000711
-0.002905 0.000158 -0.000685
-0.002884 0.000169 -0.000658
-0.002857 0.000184 -0.000629
-0.00283 0.000198 -0.000601
-0.002799 0.000214 -0.000572
-0.002768 0.00023 -0.000542
-0.002734 0.000248 -0.000513
-0.002632 0.000299 -0.00045
-0.002576 0.000327 -0.000417
-0.002478 0.000376 -0.000354
-0.002462 0.000385 -0.000327
-0.002454 0.00039 -0.000301
-0.002452 0.000393 -0.000276
-0.002454 0.000394 -0.000252
-0.002459 0.000393 -0.000227
-0.002466 0.000391 -0.000203
-0.002478 0.000387 -0.00018
-0.002496 0.00038 -0.000158
-0.002525 0.000368 -0.000137
-0.002579 0.000344 -0.000119
-0.002641 0.000317 -0.000103
-0.002691 0.000295 -8.5e-05
-0.002735 0.000275 -6.6e-05
-0.002778 0.000257 -4.7e-05
-0.002816 0.000241 -2.7e-05
-0.002851 0.000226 -7e-06
-0.002887 0.00021 1.3e-05
-0.00292 0.000197 3.4e-05
-0.002952 0.000183 5.4e-05
-0.00298 0.000171 7.5e-05
-0.002993 0.000167 9.8e-05
-0.002996 0.000167 0.000123
-0.002485 0.000553 -0.001503
-0.002516 0.000527 -0.001571
-0.001868 0.000616 -0.002315
-0.002371 0.000719 -0.001318
-0.002791 0.000644 -0.000912
-0.00251 0.000752 -0.000975
-0.002518 0.000657 -0.001599
-0.002885 0.000132 -0.000807
-0.002892 0.00013 -0.000783
-0.002898 0.000129 -0.000759
-0.002902 0.000129 -0.000735
-0.002905 0.000129 -0.00071
-0.002902 0.000132 -0.000685
-0.002884 0.000142 -0.000658
-0.002857 0.000156 -0.000629
-0.002829 0.000171 -0.0006
-0.0028 0.000186 -0.000572
-0.002768 0.000203 -0.000542
-0.002729 0.000223 -0.000512
-0.002681 0.000247 -0.000481
-0.002631 0.000272 -0.000449
-0.002577 0.000299 -0.000417
-0.002478 0.000349 -0.000354
-0.002462 0.000358 -0.000327
-0.002454 0.000363 -0.000301
-0.002452 0.000366 -0.000276
-0.002455 0.000366 -0.000252
-0.002459 0.000366 -0.000227
-0.002466 0.000364 -0.000203
-0.002478 0.00036 -0.00018
-0.002496 0.000353 -0.000158
-0.002525 0.000341 -0.000137
-0.002641 0.00029 -0.000103
-0.002691 0.000267 -8.5e-05
-0.002736 0.000248 -6.6e-05
-0.002779 0.000229 -4.7e-05
-0.002816 0.000214 -2.7e-05
-0.002851 0.000199 -7e-06
-0.002887 0.000184 1.3e-05
-0.00292 0.000169 3.4e-05
-0.002952 0.000156 5.4e-05
-0.002979 0.000145 7.5e-05
-0.002991 0.000141 9.9e-05
-0.002994 0.000141 0.000123
-0.002189 0.000673 -0.001748
-0.002485 0.000635 -0.001503
-0.002573 0.00073 -0.000949
-0.00271 0.000702 -0.00093
-0.002881 0.000107 -0.000806
-0.002888 0.000105 -0.000782
-0.002894 0.000104 -0.000758
-0.002897 0.000104 -0.000734
-0.0029 0.000105 -0.000709
-0.002898 0.000107 -0.000684
-0.002884 0.000115 -0.000658
