0.001047 -6e-06 -0.001956
0.001003 -4e-06 -0.001978
0.000984 -6e-06 -0.001994
0.000964 -6e-06 -0.002008
0.001041 -1.8e-05 -0.001852
0.000921 -6e-06 -0.002033
0.0009 -5e-06 -0.002046
0.001062 -1.7e-05 -0.001838
0.000819 -7e-06 -0.002101
0.000799 -9e-06 -0.002117
0.000777 -8e-06 -0.002128
0.000737 -9e-06 -0.002157
0.000716 -9e-06 -0.00217
0.000675 -1e-05 -0.002198
0.000654 -1e-05 -0.00221
0.001688 -8e-06 -0.001494
0.001665 -6e-06 -0.001503
0.001645 -6e-06 -0.001517
0.001623 -5e-06 -0.001528
0.001602 -5e-06 -0.001541
0.002111 0.000685 -0.001621
0.001539 -5e-06 -0.00158
0.001518 -5e-06 -0.001592
0.001497 -6e-06 -0.001606
0.00188 0.000715 -0.002308
0.002669 0.000749 1.8e-05
0.002306 0.00055 -0.001664
0.002251 0.000694 -0.00099
0.001393 -6e-06 -0.001672
0.001372 -5e-06 -0.001685
0.001352 -6e-06 -0.001699
0.001331 -7e-06 -0.001713
0.001311 -8e-06 -0.001727
0.001291 -9e-06 -0.00174
0.00127 -8e-06 -0.001753
0.001249 -8e-06 -0.001766
0.001228 -8e-06 -0.001779
0.002521 0.000715 -0.001592
0.001862 0.000725 -0.001595
0.001103 -9e-06 -0.001859
0.001082 -9e-06 -0.001871
0.001039 -8e-06 -0.001895
0.000955 -8e-06 -0.001948
0.000934 -7e-06 -0.001959
0.000891 -6e-06 -0.001984
0.00087 -6e-06 -0.001997
0.000849 -6e-06 -0.00201
0.000828 -5e-06 -0.002022
0.000806 -5e-06 -0.002034
0.000785 -5e-06 -0.002047
0.000764 -5e-06 -0.00206
0.000743 -5e-06 -0.002073
0.000682 -6e-06 -0.002115
0.00066 -6e-06 -0.002126
0.00064 -6e-06 -0.00214
0.001655 -5e-06 -0.001439
0.001634 -5e-06 -0.001452
0.001614 -6e-06 -0.001466
0.001592 -6e-06 -0.001479
0.001573 -7e-06 -0.001494
0.001797 0.000758 -0.001736
0.001864 0.000751 -0.001598
0.002165 0.000661 -0.001637
0.001493 -1e-05 -0.001552
0.001473 -1.1e-05 -0.001566
0.001453 -1.2e-05 -0.001581
0.001937 0.000643 -0.002127
0.002746 0.000521 -0.000818
0.002671 0.000549 -0.000837
0.001372 -1.4e-05 -0.001638
0.001352 -1.5e-05 -0.001652
0.001331 -1.6e-05 -0.001666
0.001311 -1.6e-05 -0.00168
0.001291 -1.7e-05 -0.001694
0.001269 -1.6e-05 -0.001706
0.001249 -1.7e-05 -0.001721
0.001229 -1.7e-05 -0.001734
0.001208 -1.8e-05 -0.001748
0.001188 -1.8e-05 -0.001761
0.001167 -1.8e-05 -0.001774
0.001146 -1.8e-05 -0.001787
0.001124 -1.7e-05 -0.001799
0.001104 -1.8e-05 -0.001813
0.001083 -1.8e-05 -0.001826
0.001802 0.000721 -0.001674
0.001795 0.000715 -0.001701
0.001795 0.000705 -0.001734
0.001808 0.000687 -0.001779
0.001844 0.000654 -0.001845
0.001871 0.000626 -0.001902
0.001891 0.000604 -0.001953
0.001906 0.000584 -0.002
0.001919 0.000566 -0.002045
0.001928 0.00055 -0.002086
0.001936 0.000534 -0.002127
0.001945 0.000518 -0.002168
0.001951 0.000504 -0.002206
0.001956 0.000491 -0.002243
0.00195 0.000484 -0.002272
0.001934 0.000484 -0.00229
0.001915 0.000486 -0.002306
0.001896 0.000488 -0.002322
0.002541 0.000478 -0.001594
0.002513 0.000591 -0.001362
0.002903 0.000549 -0.000757
0.002802 0.000652 -0.000454
0.002853 0.000645 -0.000787
0.002535 0.000461 -0.001605
0.002521 0.00046 -0.001626
0.002508 0.000458 -0.001647
0.00249 0.000459 -0.001664
0.00246 0.000467 -0.00167
0.002423 0.00048 -0.00167
0.002385 0.000494 -0.001669
0.002345 0.000508 -0.001666
0.002306 0.000523 -0.001664
0.002263 0.000539 -0.001659
0.002215 0.000559 -0.001649
0.002165 0.00058 -0.001637
0.002111 0.000604 -0.001621
0.001993 0.000657 -0.001581
0.001942 0.000679 -0.001568
0.001909 0.000689 -0.001571
0.001883 0.000695 -0.001581
0.001861 0.000698 -0.001595
0.001843 0.0007 -0.001611
0.001827 0.000699 -0.001631
0.001813 0.000698 -0.001651
0.001802 0.000694 -0.001674
0.001795 0.000688 -0.001701
0.001795 0.000678 -0.001734
0.001808 0.00066 -0.001779
0.001871 0.000599 -0.001902
0.001892 0.000576 -0.001954
0.001906 0.000557 -0.002
0.001919 0.000539 -0.002044
0.001928 0.000523 -0.002086
0.001936 0.000507 -0.002126
0.001945 0.000491 -0.002167
0.001951 0.000477 -0.002206
0.001956 0.000464 -0.002243
0.00195 0.000457 -0.002272
0.001934 0.000457 -0.00229
0.001915 0.000459 -0.002306
0.001895 0.000461 -0.002322
0.002462 0.000601 -0.001283
0.002705 0.000652 3.7e-05
0.002885 0.000553 -0.000776
0.002567 0.000585 -0.001552
0.002784 0.00067 -0.000809
0.002535 0.000434 -0.001605
0.002522 0.000432 -0.001626
0.002508 0.000431 -0.001647
0.00249 0.000432 -0.001664
0.00246 0.00044 -0.00167
0.002423 0.000453 -0.00167
0.002385 0.000467 -0.001669
0.002345 0.000481 -0.001666
0.002306 0.000496 -0.001663
0.002263 0.000512 -0.001658
0.002216 0.000532 -0.001649
0.002164 0.000553 -0.001636
0.00211 0.000577 -0.00162
0.002054 0.000602 -0.001603
0.001993 0.00063 -0.001581
0.001943 0.000651 -0.001569
0.001909 0.000662 -0.001572
0.001883 0.000668 -0.001581
0.001861 0.000671 -0.001595
0.001843 0.000673 -0.001611
0.001827 0.000672 -0.00163
0.001813 0.000671 -0.001651
0.001802 0.000667 -0.001674
0.001795 0.000661 -0.001701
0.001795 0.000651 -0.001734
0.001891 0.00055 -0.001953
0.001906 0.00053 -0.002
0.001918 0.000512 -0.002044
0.001928 0.000495 -0.002086
0.001936 0.00048 -0.002127
0.001945 0.000464 -0.002168
0.001951 0.00045 -0.002206
0.001955 0.000437 -0.002243
0.00195 0.00043 -0.002272
0.001934 0.00043 -0.00229
0.001915 0.000432 -0.002306
0.001896 0.000433 -0.002322
0.002326 0.000689 -0.000862
0.002541 0.000533 -0.001594
0.002852 0.000564 -0.000787
0.002934 0.000633 -0.000625
0.0029 0.000632 -0.000755
0.002535 0.000407 -0.001605
0.002522 0.000405 -0.001626
0.002508 0.000403 -0.001647
0.00249 0.000404 -0.001664
0.002459 0.000413 -0.00167
0.002423 0.000426 -0.00167
0.002385 0.000439 -0.001669
0.002345 0.000454 -0.001666
0.002305 0.000469 -0.001663
0.002264 0.000485 -0.001659
0.002215 0.000505 -0.001648
0.002164 0.000527 -0.001635
0.00211 0.00055 -0.00162
0.002057 0.000573 -0.001605
0.001942 0.000624 -0.001568
0.001909 0.000635 -0.001571
0.001882 0.000641 -0.001581
0.001861 0.000644 -0.001594
0.001843 0.000645 -0.001611
0.001827 0.000645 -0.00163
0.001813 0.000643 -0.001651
0.001802 0.00064 -0.001674
0.001795 0.000634 -0.001701
0.001795 0.000624 -0.001734
0.00181 0.000604 -0.00178
0.001844 0.000572 -0.001845
0.00187 0.000545 -0.001902
0.001891 0.000522 -0.001953
0.001905 0.000503 -0.001999
0.001918 0.000485 -0.002044
0.001928 0.000468 -0.002086
0.001936 0.000453 -0.002127
0.001944 0.000437 -0.002167
0.001951 0.000423 -0.002206
0.001955 0.00041 -0.002243
0.00195 0.000403 -0.002272
0.001934 0.000403 -0.00229
0.001915 0.000404 -0.002306
0.001896 0.000406 -0.002322
0.002489 0.000555 -0.001323
0.002586 0.000531 -0.001506
0.002762 0.000673 -0.000422
0.002585 0.000586 -0.001506
0.002874 0.000696 -0.000515
0.002535 0.00038 -0.001605
0.002522 0.000378 -0.001626
0.002508 0.000376 -0.001647
0.00249 0.000377 -0.001664
0.00246 0.000386 -0.00167
0.002423 0.000399 -0.00167
0.002385 0.000412 -0.001669
0.002346 0.000427 -0.001666
0.002305 0.000442 -0.001663
0.002263 0.000458 -0.001658
0.002215 0.000477 -0.001649
0.002164 0.000499 -0.001636
0.00211 0.000523 -0.00162
0.002055 0.000547 -0.001604
0.001942 0.000597 -0.001568
0.001908 0.000608 -0.001571
0.001882 0.000614 -0.001581
0.00186 0.000617 -0.001594
0.001842 0.000618 -0.001611
0.001827 0.000618 -0.00163
0.001812 0.000617 -0.00165
0.001801 0.000613 -0.001673
0.001794 0.000607 -0.0017
0.001794 0.000597 -0.001734
0.00181 0.000577 -0.001781
0.001844 0.000545 -0.001844
0.00187 0.000519 -0.001901
0.00189 0.000495 -0.001953
0.001905 0.000476 -0.001999
0.001918 0.000457 -0.002044
0.001928 0.000441 -0.002086
0.001936 0.000425 -0.002127
0.001944 0.00041 -0.002167
0.00195 0.000396 -0.002205
0.001955 0.000383 -0.002243
0.00195 0.000376 -0.002272
0.001934 0.000376 -0.00229
0.001915 0.000377 -0.002306
0.001896 0.000379 -0.002322
0.002621 0.000569 -0.00084
0.002576 0.000542 -0.001474
0.002751 0.000741 5.4e-05
0.002579 0.000584 -0.00153
0.002582 0.000642 -0.001505
0.002535 0.000353 -0.001605
0.002521 0.000351 -0.001626
0.002508 0.000349 -0.001647
0.00249 0.00035 -0.001664
0.00246 0.000359 -0.00167
0.002423 0.000372 -0.00167
0.002385 0.000385 -0.001669
0.002345 0.0004 -0.001666
0.002305 0.000415 -0.001663
0.002263 0.000431 -0.001658
0.002215 0.00045 -0.001648
0.002164 0.000472 -0.001636
0.00211 0.000495 -0.00162
0.002054 0.000521 -0.001603
0.001941 0.000571 -0.001567
0.001908 0.000581 -0.001571
0.001881 0.000587 -0.00158
0.00186 0.00059 -0.001594
0.001842 0.000591 -0.001611
0.001826 0.000591 -0.00163
0.001812 0.00059 -0.00165
0.001801 0.000586 -0.001673
0.001794 0.00058 -0.0017
0.001795 0.000569 -0.001734
0.00181 0.00055 -0.001781
0.001844 0.000518 -0.001845
0.00187 0.000491 -0.001901
0.00189 0.000469 -0.001952
0.001905 0.000449 -0.001999
0.001918 0.00043 -0.002044
0.001928 0.000414 -0.002086
0.001936 0.000398 -0.002127
0.001944 0.000383 -0.002167
0.00195 0.000369 -0.002205
0.001955 0.000356 -0.002243
0.00195 0.000348 -0.002272
0.001933 0.000349 -0.00229
0.001915 0.00035 -0.002306
0.001895 0.000352 -0.002322
0.001876 0.000354 -0.002338
0.002274 0.000726 -0.000919
0.002537 0.000573 -0.001401
0.002567 0.000557 -0.001552
0.002557 0.000612 -0.001438
0.002576 0.00064 -0.001529
0.002535 0.000325 -0.001605
0.002521 0.000324 -0.001626
0.002508 0.000322 -0.001647
0.00249 0.000323 -0.001664
0.00246 0.000331 -0.00167
0.002423 0.000344 -0.00167
0.002385 0.000358 -0.001669
0.002344 0.000373 -0.001665
0.002305 0.000387 -0.001663
0.002263 0.000403 -0.001659
0.002216 0.000423 -0.001649
0.002164 0.000445 -0.001636
0.00211 0.000468 -0.00162
0.002054 0.000493 -0.001603
0.00194 0.000544 -0.001567
0.001908 0.000554 -0.001571
0.001881 0.00056 -0.00158
0.00186 0.000563 -0.001594
0.001842 0.000564 -0.001611
0.001826 0.000564 -0.00163
0.001812 0.000562 -0.00165
0.001801 0.000559 -0.001673
0.001794 0.000553 -0.0017
0.001794 0.000543 -0.001734
0.001889 0.000442 -0.001952
0.001906 0.000421 -0.002
0.001918 0.000403 -0.002044
0.001928 0.000387 -0.002086
0.001936 0.000371 -0.002127
0.001944 0.000356 -0.002167
0.00195 0.000342 -0.002205
0.001955 0.000328 -0.002243
0.00195 0.000321 -0.002272
0.001934 0.000321 -0.00229
0.001915 0.000323 -0.002306
0.001896 0.000325 -0.002322
0.001876 0.000327 -0.002338
0.002936 0.000634 -0.000601
0.002431 0.00065 -0.001241
0.002558 0.000584 -0.001438
0.002577 0.000596 -0.001475
0.002883 0.000635 -0.000774
0.002537 0.000709 -0.001401
0.002521 0.000297 -0.001626
0.002507 0.000295 -0.001647
0.00249 0.000296 -0.001664
0.00246 0.000304 -0.00167
0.002423 0.000317 -0.00167
0.002385 0.000331 -0.001669
0.002344 0.000346 -0.001666
0.002305 0.00036 -0.001663
0.002264 0.000376 -0.001659
0.002216 0.000395 -0.00165
0.002164 0.000418 -0.001635
0.00211 0.000441 -0.001621
0.002054 0.000466 -0.001603
0.001941 0.000516 -0.001567
0.001908 0.000527 -0.00157
0.001881 0.000533 -0.00158
0.00186 0.000536 -0.001594
0.001842 0.000537 -0.001611
0.001826 0.000537 -0.00163
0.001812 0.000535 -0.00165
0.001801 0.000532 -0.001673
0.001794 0.000526 -0.001701
0.001794 0.000515 -0.001734
0.001871 0.000436 -0.001902
0.001891 0.000414 -0.001953
0.001905 0.000394 -0.002
0.001918 0.000376 -0.002044
0.001928 0.00036 -0.002086
0.001937 0.000344 -0.002127
0.001944 0.000329 -0.002167
0.00195 0.000315 -0.002205
0.001955 0.000301 -0.002243
0.00195 0.000294 -0.002272
0.001934 0.000294 -0.00229
0.001915 0.000296 -0.002306
0.001896 0.000297 -0.002322
0.001876 0.000299 -0.002338
0.002885 0.000498 -0.000776
0.002574 0.000669 -0.000845
0.002541 0.00056 -0.001594
0.002884 0.00058 -0.000775
0.002711 0.000697 -0.000828
0.002571 0.00067 -0.001527
0.002521 0.000269 -0.001626
0.002507 0.000268 -0.001646
0.00249 0.000269 -0.001664
0.00246 0.000277 -0.00167
0.002423 0.00029 -0.00167
0.002385 0.000303 -0.001669
0.002345 0.000318 -0.001666
0.002305 0.000333 -0.001663
0.002263 0.000349 -0.001659
0.002215 0.000369 -0.001649
0.002164 0.00039 -0.001636
0.002109 0.000414 -0.001619
0.002053 0.000439 -0.001602
0.001992 0.000467 -0.001581
0.001941 0.000489 -0.001568
0.001908 0.0005 -0.001571
0.001881 0.000506 -0.00158
0.001859 0.000509 -0.001593
0.001842 0.00051 -0.001611
0.001826 0.00051 -0.00163
0.001812 0.000508 -0.00165
0.001801 0.000505 -0.001673
0.001794 0.000498 -0.001701
0.001794 0.000488 -0.001733
0.00181 0.000468 -0.001781
0.001354 -2.5e-05 -0.001603
0.00187 0.00041 -0.001901
0.001891 0.000386 -0.001954
0.001905 0.000367 -0.002
0.001918 0.000349 -0.002044
0.001927 0.000333 -0.002086
0.001937 0.000317 -0.002127
0.001944 0.000302 -0.002167
0.00195 0.000288 -0.002205
0.001955 0.000274 -0.002243
0.00195 0.000267 -0.002272
0.001934 0.000267 -0.00229
0.001915 0.000269 -0.002306
0.001896 0.00027 -0.002322
0.002273 0.000699 -0.000919
0.002746 0.000602 -0.000818
0.002574 0.000697 -0.000844
0.002538 0.000627 -0.001401
0.002747 0.000683 -0.000819
0.002514 0.000726 -0.001363
0.002521 0.000242 -0.001626
0.002507 0.000241 -0.001646
0.00249 0.000242 -0.001664
0.00246 0.00025 -0.00167
0.002422 0.000263 -0.001669
0.002385 0.000277 -0.001669
0.002345 0.000291 -0.001666
0.002305 0.000306 -0.001663
0.002263 0.000322 -0.001659
0.002215 0.000341 -0.001649
0.002165 0.000362 -0.001637
0.002109 0.000388 -0.001619
0.002052 0.000413 -0.001601
0.001992 0.00044 -0.001581
0.001941 0.000462 -0.001567
0.001907 0.000473 -0.00157
0.001881 0.000479 -0.00158
0.001859 0.000482 -0.001593
0.001841 0.000483 -0.00161
0.001826 0.000483 -0.001629
0.001812 0.000481 -0.00165
0.001801 0.000478 -0.001673
0.001794 0.000472 -0.0017
0.001794 0.000461 -0.001734
0.00181 0.000441 -0.001781
0.001871 0.000382 -0.001902
0.001891 0.000359 -0.001953
0.001905 0.00034 -0.002
0.001918 0.000322 -0.002044
0.001927 0.000305 -0.002086
0.001937 0.000289 -0.002127
0.001943 0.000275 -0.002166
0.001949 0.000261 -0.002205
0.001955 0.000247 -0.002243
0.00195 0.00024 -0.002272
0.001934 0.00024 -0.00229
0.001915 0.000241 -0.002306
0.001896 0.000243 -0.002322
0.002431 0.000568 -0.001241
0.002267 0.000757 -0.001052
0.002579 0.000557 -0.00153
0.002554 0.000586 -0.001573
0.002558 0.000666 -0.001438
0.002535 0.000217 -0.001605
0.002521 0.000215 -0.001626
0.002507 0.000214 -0.001646
0.002489 0.000215 -0.001663
0.002459 0.000223 -0.00167
0.002422 0.000236 -0.001669
0.002385 0.000249 -0.001669
0.002345 0.000264 -0.001666
0.002305 0.000279 -0.001663
0.002263 0.000295 -0.001659
0.002214 0.000315 -0.001648
0.002164 0.000336 -0.001636
0.002109 0.00036 -0.00162
0.002052 0.000386 -0.001601
0.001991 0.000413 -0.00158
0.001941 0.000435 -0.001567
0.001907 0.000445 -0.00157
0.001881 0.000452 -0.00158
0.001859 0.000455 -0.001593
0.001841 0.000456 -0.001611
0.001826 0.000455 -0.001629
0.001812 0.000454 -0.00165
0.001801 0.000451 -0.001673
0.001794 0.000444 -0.001701
0.001794 0.000434 -0.001734
0.001811 0.000413 -0.001782
0.001872 0.000354 -0.001903
0.001891 0.000332 -0.001954
0.001906 0.000312 -0.002
0.001917 0.000295 -0.002043
0.001928 0.000278 -0.002086
0.001937 0.000262 -0.002127
0.001944 0.000247 -0.002167
0.001949 0.000234 -0.002205
0.001955 0.00022 -0.002243
0.00195 0.000213 -0.002271
0.001933 0.000213 -0.00229
0.001915 0.000214 -0.002306
0.001372 -2.6e-05 -0.001586
0.002579 0.000502 -0.001531
0.002369 0.000754 -0.000855
0.002489 0.000636 -0.001323
0.002574 0.000724 -0.000844
0.002896 0.000661 -0.000753
0.002535 0.00019 -0.001605
0.002521 0.000188 -0.001626
0.002506 0.000187 -0.001646
0.002488 0.000188 -0.001663
0.002459 0.000196 -0.00167
0.002422 0.000209 -0.001669
0.002385 0.000222 -0.001669
0.002345 0.000237 -0.001666
0.002305 0.000252 -0.001663
0.002263 0.000268 -0.001658
0.002216 0.000287 -0.00165
0.002163 0.000309 -0.001635
0.00211 0.000332 -0.00162
0.002053 0.000358 -0.001602
0.001991 0.000386 -0.001579
0.001941 0.000408 -0.001567
0.001907 0.000418 -0.00157
0.001881 0.000425 -0.00158
0.001859 0.000428 -0.001593
0.001842 0.000429 -0.001611
0.001826 0.000428 -0.001629
0.001811 0.000427 -0.00165
0.001801 0.000423 -0.001673
0.001794 0.000417 -0.001701
0.001794 0.000407 -0.001733
0.001812 0.000385 -0.001783
0.001389 -2.6e-05 -0.001569
0.001891 0.000305 -0.001954
0.001905 0.000285 -0.002
0.001917 0.000268 -0.002043
0.001928 0.000251 -0.002086
0.001937 0.000235 -0.002127
0.001944 0.00022 -0.002167
0.00195 0.000206 -0.002205
0.001955 0.000192 -0.002243
0.001949 0.000186 -0.002271
0.001933 0.000186 -0.00229
0.001915 0.000187 -0.002306
0.001406 -2.7e-05 -0.001551
0.002303 0.000695 -0.000878
0.002462 0.000628 -0.001283
0.002431 0.000677 -0.00124
0.002414 0.000735 -0.001123
0.00288 0.000664 -0.000773
0.002535 0.000163 -0.001605
0.002521 0.000161 -0.001626
0.002506 0.00016 -0.001645
0.002488 0.000161 -0.001662
0.002458 0.000169 -0.001669
0.002422 0.000182 -0.001669
0.002384 0.000195 -0.001668
0.002345 0.000209 -0.001666
0.002305 0.000224 -0.001663
0.002263 0.00024 -0.001658
0.002215 0.00026 -0.001649
0.002164 0.000282 -0.001635
0.002109 0.000306 -0.001619
0.002052 0.000331 -0.001602
0.001991 0.000359 -0.00158
0.00194 0.000381 -0.001567
0.001907 0.000391 -0.00157
0.00188 0.000398 -0.001579
0.001859 0.000401 -0.001593
0.001842 0.000401 -0.001611
0.001826 0.000401 -0.001629
0.001812 0.0004 -0.00165
0.001801 0.000396 -0.001673
0.001794 0.00039 -0.001701
0.001794 0.00038 -0.001733
0.001811 0.000359 -0.001782
0.001872 0.0003 -0.001904
0.001891 0.000278 -0.001953
0.001907 0.000258 -0.002001
0.001917 0.00024 -0.002044
0.001928 0.000223 -0.002086
0.001937 0.000208 -0.002127
0.001944 0.000193 -0.002167
0.00195 0.000179 -0.002205
0.001955 0.000165 -0.002243
0.001948 0.00016 -0.00227
0.001932 0.000159 -0.002289
0.001914 0.00016 -0.002306
0.001424 -2.8e-05 -0.001534
0.002462 0.000574 -0.001283
0.002395 0.000674 -0.001196
0.002462 0.000656 -0.001283
0.002554 0.000613 -0.001573
0.002578 0.000672 -0.001502
0.002533 0.000136 -0.001604
0.002519 0.000135 -0.001624
0.002504 0.000134 -0.001643
0.002485 0.000135 -0.00166
0.002459 0.000142 -0.001669
0.002422 0.000155 -0.001669
0.002384 0.000168 -0.001668
0.002345 0.000182 -0.001666
0.002305 0.000197 -0.001664
0.002262 0.000214 -0.001658
0.002215 0.000233 -0.001649
0.002164 0.000255 -0.001636
0.002108 0.000279 -0.001619
0.002051 0.000305 -0.001601
0.001991 0.000332 -0.00158
0.00194 0.000354 -0.001567
0.001907 0.000364 -0.00157
0.00188 0.00037 -0.001579
0.001859 0.000373 -0.001593
0.001842 0.000374 -0.001611
0.001826 0.000374 -0.00163
0.001812 0.000372 -0.00165
0.001801 0.000369 -0.001673
0.001794 0.000363 -0.001701
0.001794 0.000353 -0.001734
0.001811 0.000332 -0.001782
0.001872 0.000273 -0.001904
0.001891 0.00025 -0.001954
0.001907 0.00023 -0.002001
0.001918 0.000213 -0.002044
0.001928 0.000196 -0.002086
0.001937 0.00018 -0.002128
0.001944 0.000166 -0.002167
0.00195 0.000151 -0.002206
0.001954 0.000139 -0.002242
0.001945 0.000134 -0.002268
0.00193 0.000133 -0.002287
0.001913 0.000134 -0.002305
0.001894 0.000135 -0.002321
0.001441 -2.8e-05 -0.001516
0.002586 0.000504 -0.001507
0.00249 0.000609 -0.001323
0.002314 0.000754 -0.001102
0.002669 0.000713 -0.000836
0.002544 0.000112 -0.001581
0.002531 0.000111 -0.001601
0.002516 0.00011 -0.001621
0.0025 0.000109 -0.00164
0.002482 0.00011 -0.001657
0.002458 0.000115 -0.001668
0.002422 0.000128 -0.001669
0.002383 0.000141 -0.001668
0.002345 0.000155 -0.001666
0.002305 0.00017 -0.001663
0.002262 0.000187 -0.001658
0.002215 0.000206 -0.001649
0.002163 0.000228 -0.001635
0.002109 0.000252 -0.001619
0.002051 0.000277 -0.001601
0.00199 0.000305 -0.001579
0.00194 0.000326 -0.001567
0.001907 0.000337 -0.00157
0.00188 0.000343 -0.001579
0.001859 0.000346 -0.001594
0.001842 0.000347 -0.001611
0.001826 0.000347 -0.00163
0.001812 0.000345 -0.00165
0.001801 0.000342 -0.001673
0.001794 0.000335 -0.001701
0.001794 0.000325 -0.001734
0.001809 0.000305 -0.001781
0.001873 0.000245 -0.001904
0.001891 0.000223 -0.001954
0.001906 0.000204 -0.002
0.001918 0.000186 -0.002044
0.001929 0.000169 -0.002087
0.001937 0.000153 -0.002128
0.001944 0.000138 -0.002167
0.00195 0.000125 -0.002205
0.001952 0.000113 -0.002241
0.001942 0.000109 -0.002265
0.001928 0.000108 -0.002285
0.00191 0.000108 -0.002302
0.001891 0.00011 -0.002319
0.002554 0.000477 -0.001573
0.002554 0.000531 -0.001573
0.002522 0.000718 -0.000847
0.002623 0.000731 -0.000841
0.002539 8.8e-05 -0.001576
0.002525 8.7e-05 -0.001597
0.002511 8.6e-05 -0.001617
0.002495 8.6e-05 -0.001635
0.002477 8.6e-05 -0.001652
0.002455 9e-05 -0.001666
0.002421 0.000101 -0.001669
0.002383 0.000114 -0.001667
0.002345 0.000128 -0.001666
0.002305 0.000143 -0.001663
0.002262 0.000159 -0.001658
0.002215 0.000179 -0.001649
0.002163 0.000201 -0.001635
0.002051 0.00025 -0.001601
0.00199 0.000278 -0.001579
0.001941 0.000299 -0.001567
0.001907 0.00031 -0.00157
0.001881 0.000316 -0.00158
0.001859 0.000319 -0.001594
0.001841 0.00032 -0.001611
0.001826 0.000319 -0.00163
0.001811 0.000318 -0.00165
0.001801 0.000314 -0.001674
0.001794 0.000308 -0.001701
0.001794 0.000298 -0.001733
0.00181 0.000278 -0.001781
0.001873 0.000218 -0.001904
0.001892 0.000195 -0.001955
0.001907 0.000176 -0.002001
0.001918 0.000158 -0.002044
0.001929 0.000142 -0.002087
0.001937 0.000126 -0.002128
0.001945 0.000111 -0.002168
0.001951 9.7e-05 -0.002206
0.001949 8.8e-05 -0.002238
0.001938 8.4e-05 -0.002261
0.001922 8.4e-05 -0.00228
0.001904 8.5e-05 -0.002297
0.001886 8.6e-05 -0.002314
0.001458 -2.8e-05 -0.001498
0.001475 -2.9e-05 -0.00148
0.002253 0.000715 -0.001018
0.002567 0.00053 -0.001552
0.002397 0.0007 -0.001197
0.002537 0.000654 -0.001401
0.002558 0.000692 -0.001438
0.002518 6.5e-05 -0.00159
0.002503 6.4e-05 -0.00161
0.002487 6.3e-05 -0.001628
0.00247 6.4e-05 -0.001646
0.002449 6.6e-05 -0.001661
0.00242 7.4e-05 -0.001668
0.002383 8.7e-05 -0.001667
0.002344 0.000101 -0.001666
0.002305 0.000115 -0.001664
0.002263 0.000132 -0.001659
0.002215 0.000152 -0.001648
0.002162 0.000174 -0.001635
0.00211 0.000196 -0.001621
0.002052 0.000222 -0.001602
0.001991 0.000251 -0.00158
0.00194 0.000272 -0.001567
0.001907 0.000282 -0.00157
0.001881 0.000289 -0.00158
0.001859 0.000292 -0.001594
0.001842 0.000293 -0.001611
0.001826 0.000292 -0.00163
0.001812 0.000291 -0.00165
0.0018 0.000287 -0.001673
0.001794 0.000281 -0.001701
0.001794 0.000271 -0.001733
0.001811 0.00025 -0.001783
0.001843 0.00022 -0.001844
0.001873 0.000191 -0.001904
0.001892 0.000168 -0.001954
0.001906 0.000149 -0.002
0.001918 0.000131 -0.002044
0.001928 0.000115 -0.002086
0.001937 9.9e-05 -0.002128
0.001944 8.4e-05 -0.002167
0.001948 7.1e-05 -0.002204
0.001942 6.5e-05 -0.002232
0.00193 6.2e-05 -0.002254
0.001914 6.2e-05 -0.002273
0.001897 6.2e-05 -0.00229
0.001839 6.7e-05 -0.002338
0.001768 8.2e-05 -0.002371
0.002536 0.000492 -0.001401
0.002558 0.000557 -0.001438
0.002348 0.000731 -0.001146
0.002558 0.000638 -0.001438
0.002574 0.000679 -0.001473
0.002561 0.000669 -0.001549
0.002874 0.000587 -0.000516
0.002925 0.000633 -0.000674
0.00246 4.3e-05 -0.001637
0.00244 4.5e-05 -0.001653
0.002416 5e-05 -0.001664
0.002383 6e-05 -0.001667
0.002345 7.4e-05 -0.001666
0.002305 8.9e-05 -0.001663
0.002263 0.000104 -0.001659
0.002214 0.000125 -0.001648
0.002109 0.00017 -0.00162
0.002051 0.000196 -0.001601
0.001991 0.000223 -0.00158
0.00194 0.000245 -0.001567
0.001907 0.000255 -0.00157
0.00188 0.000262 -0.001579
0.001859 0.000265 -0.001594
0.001841 0.000266 -0.001611
0.001826 0.000265 -0.00163
0.001812 0.000264 -0.00165
0.001801 0.00026 -0.001673
0.001794 0.000254 -0.001701
0.001793 0.000244 -0.001733
0.001812 0.000222 -0.001783
0.001843 0.000192 -0.001844
0.001872 0.000164 -0.001904
0.001893 0.00014 -0.001956
0.001906 0.000122 -0.002001
0.001919 0.000104 -0.002045
0.001928 8.7e-05 -0.002087
0.001937 7.2e-05 -0.002128
0.001943 5.8e-05 -0.002166
0.001943 4.8e-05 -0.002199
0.001933 4.3e-05 -0.002224
0.00192 4.1e-05 -0.002245
0.001904 4.1e-05 -0.002264
0.001888 4.1e-05 -0.002282
0.001829 4.7e-05 -0.002329
0.001808 4.9e-05 -0.002343
0.001787 5.3e-05 -0.002356
0.00176 5.9e-05 -0.002366
0.001713 7.8e-05 -0.002357
0.00247 0.000658 -0.000849
0.002521 0.000637 -0.000847
0.002623 0.00065 -0.000841
0.002902 0.000576 -0.000757
0.00293 0.000638 -0.000575
0.002537 0.000682 -0.001401
0.002819 0.000657 -0.000798
0.002382 0.000746 -0.001135
0.002489 0.000663 -0.001323
0.002515 0.000672 -0.001363
0.002428 2.5e-05 -0.001642
0.002406 2.9e-05 -0.001655
0.002378 3.6e-05 -0.001663
0.002344 4.7e-05 -0.001665
0.002304 6.1e-05 -0.001663
0.002263 7.7e-05 -0.001659
0.002214 9.7e-05 -0.001648
0.002164 0.000119 -0.001636
0.002108 0.000143 -0.001619
0.002051 0.000169 -0.001601
0.001989 0.000197 -0.001578
0.00194 0.000218 -0.001567
0.001906 0.000229 -0.00157
0.00188 0.000235 -0.001579
0.001859 0.000238 -0.001593
0.001841 0.000238 -0.001611
0.001826 0.000238 -0.00163
0.001811 0.000237 -0.00165
0.001801 0.000233 -0.001673
0.001794 0.000227 -0.0017
0.001793 0.000217 -0.001733
0.001811 0.000195 -0.001783
0.001844 0.000165 -0.001845
0.001872 0.000137 -0.001904
0.001892 0.000114 -0.001954
0.001906 9.5e-05 -0.002001
0.001917 7.7e-05 -0.002044
0.001927 6.1e-05 -0.002086
0.001936 4.5e-05 -0.002127
0.001938 3.4e-05 -0.002162
0.001932 2.7e-05 -0.00219
0.001921 2.4e-05 -0.002212
0.001817 2.7e-05 -0.002318
0.001797 3e-05 -0.002333
0.001775 3.3e-05 -0.002346
0.001749 3.8e-05 -0.002357
0.002925 0.000552 -0.000674
0.00267 0.000631 -0.000836
0.002749 0.000606 5.4e-05
0.002463 0.000709 -0.001283
0.002432 0.000731 -0.001241
0.002431 0.000704 -0.001241
0.002513 0.000618 -0.001362
0.002346 0.000677 -0.001145
0.00267 0.000604 -0.000836
0.002568 0.000703 -0.001498
0.002409 1e-05 -0.001624
0.002389 1.2e-05 -0.00164
0.002366 1.6e-05 -0.001652
0.002337 2.4e-05 -0.001659
0.002302 3.6e-05 -0.001661
0.002262 5.1e-05 -0.001658
0.002214 7.1e-05 -0.001648
0.002163 9.2e-05 -0.001635
0.002107 0.000117 -0.001618
0.00199 0.00017 -0.001579
0.00194 0.000191 -0.001567
0.001906 0.000201 -0.00157
0.00188 0.000207 -0.001579
0.001859 0.000211 -0.001593
0.001841 0.000211 -0.00161
0.001825 0.000211 -0.00163
0.001811 0.000209 -0.00165
0.001801 0.000206 -0.001673
0.001793 0.0002 -0.0017
0.001793 0.00019 -0.001733
0.00181 0.000169 -0.001782
0.001843 0.000138 -0.001844
0.001872 0.00011 -0.001903
0.001891 8.7e-05 -0.001954
0.001905 6.8e-05 -0.001999
0.001917 5e-05 -0.002044
0.001926 3.4e-05 -0.002085
0.001929 2.2e-05 -0.00212
0.001925 1.4e-05 -0.00215
0.001915 1e-05 -0.002174
0.0018 1.1e-05 -0.002303
0.00178 1.3e-05 -0.002318
0.001759 1.6e-05 -0.002332
0.002469 0.000631 -0.000849
0.002784 0.000588 -0.000809
0.002623 0.000704 -0.000841
0.002429 0.000743 -0.001185
0.002489 0.00069 -0.001323
0.002461 0.000683 -0.001282
0.002537 0.0006 -0.001401
0.002885 0.000471 -0.000776
0.002586 0.000477 -0.001507
0.002375 4e-06 -0.001594
0.00236 3e-06 -0.001614
0.002343 4e-06 -0.001631
0.00232 7e-06 -0.001644
0.002293 1.5e-05 -0.001652
0.002258 2.6e-05 -0.001655
0.002212 4.5e-05 -0.001646
0.002164 6.4e-05 -0.001636
0.002106 9e-05 -0.001617
0.002052 0.000114 -0.001601
0.00194 0.000164 -0.001567
0.001906 0.000175 -0.001569
0.00188 0.00018 -0.001579
0.001859 0.000184 -0.001593
0.001841 0.000184 -0.00161
0.001825 0.000184 -0.00163
0.001811 0.000182 -0.00165
0.0018 0.000179 -0.001673
0.001793 0.000173 -0.0017
0.001793 0.000163 -0.001733
0.001492 -2.9e-05 -0.001462
0.001891 6e-05 -0.001954
0.001905 4.1e-05 -0.001999
0.001915 2.5e-05 -0.002042
0.001917 1.3e-05 -0.002077
0.001912 6e-06 -0.002105
0.001902 2e-06 -0.002129
0.001508 -2.9e-05 -0.001444
0.001791 -1e-06 -0.002262
0.001774 -1e-06 -0.00228
0.001753 3e-06 -0.002293
0.001734 5e-06 -0.002309
0.002395 0.00062 -0.001196
0.002554 0.000559 -0.001573
0.002711 0.000669 -0.000828
0.002746 0.000657 -0.000818
0.002305 0.000721 -0.00088
0.002413 0.000682 -0.000849
0.002357 0.000705 -0.00085
0.002852 0.00051 -0.000787
0.002567 0.000503 -0.001552
0.002335 2e-06 -0.001558
0.002319 3e-06 -0.001577
0.002302 2e-06 -0.001594
0.002285 2e-06 -0.001613
0.002267 3e-06 -0.00163
0.002243 8e-06 -0.001641
0.002208 1.9e-05 -0.001643
0.002162 3.8e-05 -0.001634
0.00205 8.8e-05 -0.0016
0.001988 0.000117 -0.001577
0.00194 0.000136 -0.001567
0.001906 0.000148 -0.001569
0.00188 0.000153 -0.001579
0.001859 0.000156 -0.001593
0.001841 0.000157 -0.00161
0.001825 0.000157 -0.001629
0.001811 0.000155 -0.00165
0.0018 0.000152 -0.001673
0.001793 0.000146 -0.0017
0.001793 0.000136 -0.001733
0.001525 -2.9e-05 -0.001426
0.001845 8.3e-05 -0.001846
0.001872 5.5e-05 -0.001904
0.00189 3.4e-05 -0.001953
0.0019 1.7e-05 -0.001995
0.001901 6e-06 -0.002029
0.001892 2e-06 -0.002054
0.001879 -1e-06 -0.002075
0.001864 -1e-06 -0.002095
0.001542 -3e-05 -0.001408
0.001559 -3e-05 -0.00139
0.001744 2e-06 -0.002219
0.001727 2e-06 -0.002237
0.001711 1e-06 -0.002256
0.001697 1e-06 -0.002276
0.001679 1e-06 -0.002293
0.002431 0.000596 -0.001241
0.002575 0.000642 -0.000845
0.002622 0.000623 -0.00084
0.002409 1e-06 -0.001392
0.002392 1e-06 -0.00141
0.002326 1e-06 -0.001483
0.002554 0.000504 -0.001573
0.002277 1e-06 -0.001539
0.002261 1e-06 -0.001558
0.002245 0.0 -0.001577
0.002229 0.0 -0.001595
0.00221 1e-06 -0.001612
0.002189 5e-06 -0.001625
0.001575 -3e-05 -0.001371
0.00205 6.1e-05 -0.0016
0.001986 9e-05 -0.001576
0.00194 0.000109 -0.001567
0.001906 0.00012 -0.001569
0.00188 0.000126 -0.001579
0.001859 0.000129 -0.001593
0.001841 0.00013 -0.00161
0.001825 0.00013 -0.001629
0.001811 0.000128 -0.00165
0.0018 0.000124 -0.001673
0.001793 0.000119 -0.001699
0.001793 0.000108 -0.001733
0.001873 2.7e-05 -0.001904
0.001883 1.1e-05 -0.001947
0.001879 3e-06 -0.001976
0.001866 1e-06 -0.001997
0.001853 -1e-06 -0.002019
0.001837 -1e-06 -0.002037
0.001826 -5e-06 -0.002061
0.001591 -3e-05 -0.001353
0.001702 1e-06 -0.002182
0.001688 -0.0 -0.002202
0.001671 -0.0 -0.00222
0.001654 -1e-06 -0.002238
0.001638 -1e-06 -0.002257
0.001621 -0.0 -0.002275
0.002364 2e-06 -0.001352
0.002347 2e-06 -0.00137
0.00233 2e-06 -0.001388
0.002314 2e-06 -0.001407
0.002298 2e-06 -0.001425
0.002283 1e-06 -0.001445
0.002251 0.0 -0.001483
0.002234 0.0 -0.001501
0.002784 0.000724 -0.000809
0.002852 0.000482 -0.000787
0.002186 -0.0 -0.001557
0.00217 -1e-06 -0.001576
0.002154 -1e-06 -0.001594
0.002135 1e-06 -0.00161
0.002555 0.000721 -0.001437
0.001985 6.4e-05 -0.001575
0.001939 8.2e-05 -0.001566
0.001906 9.3e-05 -0.00157
0.00188 9.9e-05 -0.001579
0.001859 0.000102 -0.001593
0.00184 0.000103 -0.00161
0.001824 0.000103 -0.001629
0.001811 0.000101 -0.001649
0.0018 9.7e-05 -0.001673
0.001793 9.2e-05 -0.0017
0.001793 8.1e-05 -0.001733
0.001607 -2.9e-05 -0.001334
0.001864 4e-06 -0.001895
0.001859 -2e-06 -0.001925
0.001846 -4e-06 -0.001946
0.001828 -3e-06 -0.001964
0.001811 -2e-06 -0.001982
0.001623 -2.9e-05 -0.001315
0.001723 1e-06 -0.002068
0.001707 1e-06 -0.002087
0.00169 1e-06 -0.002105
0.001673 2e-06 -0.002122
0.001658 1e-06 -0.002142
0.001609 1e-06 -0.002197
0.001592 1e-06 -0.002215
0.001578 -0.0 -0.002235
0.002746 0.000548 -0.000818
0.00294 0.000551 -0.000601
0.002342 -1e-06 -0.001299
0.002327 -2e-06 -0.001318
0.002312 -3e-06 -0.001339
0.002294 -1e-06 -0.001356
0.002277 -2e-06 -0.001373
0.00226 -2e-06 -0.001391
0.002243 -2e-06 -0.001409
0.002228 -2e-06 -0.001429
0.002211 -2e-06 -0.001446
0.002193 -1e-06 -0.001464
0.00216 -1e-06 -0.0015
0.002145 -2e-06 -0.00152
0.002128 -1e-06 -0.001537
0.002111 -1e-06 -0.001555
0.002094 -1e-06 -0.001573
0.002534 0.000737 -0.0014
0.002903 0.000467 -0.000757
0.001938 5.6e-05 -0.001565
0.001906 6.6e-05 -0.00157
0.00188 7.2e-05 -0.001579
0.001858 7.5e-05 -0.001593
0.00184 7.6e-05 -0.00161
0.001824 7.6e-05 -0.001629
0.001811 7.4e-05 -0.001649
0.0018 7e-05 -0.001673
0.001793 6.4e-05 -0.0017
0.001793 5.4e-05 -0.001733
0.001841 1e-06 -0.001843
0.001833 -2e-06 -0.001868
0.001816 -2e-06 -0.001887
0.001735 -2e-06 -0.001979
0.00164 -2.9e-05 -0.001297
0.001683 -1e-06 -0.002032
0.001668 -2e-06 -0.002052
0.001653 -3e-06 -0.002071
0.001638 -3e-06 -0.00209
0.001656 -2.9e-05 -0.001278
0.002802 0.000679 -0.000454
0.002901 0.000604 -0.000756
0.002298 -1e-06 -0.00126
0.002567 0.00071 -0.00147
0.002246 1e-06 -0.001312
0.002229 0.0 -0.00133
0.002213 0.0 -0.001349
0.002198 -0.0 -0.001368
0.002181 0.0 -0.001386
0.002164 1e-06 -0.001404
0.002149 -0.0 -0.001423
0.002132 -0.0 -0.001442
0.002115 0.0 -0.00146
0.002098 1e-06 -0.001477
0.002082 0.0 -0.001496
0.002066 -0.0 -0.001515
0.002048 0.0 -0.001532
0.002663 0.000724 -0.000356
0.00293 0.000633 -0.00065
0.001938 2.9e-05 -0.001565
0.001905 3.9e-05 -0.001569
0.001879 4.5e-05 -0.001579
0.001858 4.8e-05 -0.001593
0.00184 4.9e-05 -0.00161
0.001824 4.9e-05 -0.001628
0.00181 4.7e-05 -0.001649
0.0018 4.3e-05 -0.001673
0.001793 3.7e-05 -0.0017
0.001794 2.6e-05 -0.001734
0.001811 5e-06 -0.001782
0.001807 -2e-06 -0.001812
0.001788 -1e-06 -0.001828
0.001771 -1e-06 -0.001846
0.001754 -1e-06 -0.001864
0.001737 0.0 -0.001881
0.00172 0.0 -0.0019
0.001704 -0.0 -0.001918
0.001688 0.0 -0.001937
0.001639 -0.0 -0.001992
0.001622 -0.0 -0.00201
0.001604 1e-06 -0.002027
0.001671 -2.8e-05 -0.001259
0.001495 -3e-06 -0.002161
0.00148 -4e-06 -0.002181
0.002326 0.000716 -0.000862
0.00267 0.000658 -0.000836
0.002623 0.000677 -0.000841
0.002554 0.00045 -0.001573
0.002223 -1e-06 -0.001258
0.002206 -1e-06 -0.001276
0.00219 -2e-06 -0.001295
0.002175 -3e-06 -0.001315
0.002159 -3e-06 -0.001334
0.002143 -3e-06 -0.001352
0.002127 -4e-06 -0.001371
0.002111 -4e-06 -0.00139
0.002096 -5e-06 -0.001409
0.00208 -5e-06 -0.001428
0.002064 -5e-06 -0.001447
0.002048 -6e-06 -0.001466
0.002032 -5e-06 -0.001484
0.002817 0.000522 -0.000798
0.002913 0.000636 -0.000722
0.002261 0.000733 -0.001049
0.002571 0.000589 -0.000843
0.001937 2e-06 -0.001565
0.001905 1.2e-05 -0.001569
0.001879 1.8e-05 -0.001579
0.001858 2.1e-05 -0.001593
0.00184 2.2e-05 -0.001609
0.001824 2.2e-05 -0.001628
0.00181 2e-05 -0.001649
0.001799 1.6e-05 -0.001673
0.001793 1e-05 -0.0017
0.001793 -0.0 -0.001733
0.001786 -6e-06 -0.00176
0.001771 -7e-06 -0.001779
0.001754 -7e-06 -0.001798
0.001737 -6e-06 -0.001815
0.00172 -6e-06 -0.001833
0.001704 -6e-06 -0.001852
0.001686 -5e-06 -0.001869
0.001583 -5e-06 -0.001975
0.001566 -3e-06 -0.001992
0.00267 0.00074 -0.000836
0.001703 -2.7e-05 -0.001221
0.001718 -2.7e-05 -0.001202
0.001447 0.0 -0.002118
0.001429 1e-06 -0.002135
0.002561 0.000702 -0.001522
0.002235 -5e-06 -0.00117
0.002221 -6e-06 -0.00119
0.002852 0.000537 -0.000787
0.002186 -6e-06 -0.001225
0.00217 -6e-06 -0.001244
0.002153 -6e-06 -0.001262
0.002136 -6e-06 -0.00128
0.002121 -6e-06 -0.001299
0.002104 -6e-06 -0.001317
0.002085 -4e-06 -0.001333
0.00207 -5e-06 -0.001352
0.002412 0.000655 -0.000849
0.002708 0.000535 -0.000827
0.002021 -5e-06 -0.001408
0.002004 -5e-06 -0.001426
0.002576 0.000488 -0.001474
0.002537 0.000519 -0.001401
0.002279 0.000751 -0.000921
0.002294 0.000749 -0.000901
0.001851 -2e-06 -0.001586
0.001834 -2e-06 -0.001605
0.001818 -2e-06 -0.001623
0.001757 -5e-06 -0.001701
0.001741 -5e-06 -0.00172
0.001722 -4e-06 -0.001736
0.001704 -3e-06 -0.001753
0.001688 -3e-06 -0.001771
0.00166 -6e-06 -0.001812
0.001644 -6e-06 -0.001831
0.001578 -6e-06 -0.001904
0.001564 -7e-06 -0.001924
0.001733 -2.6e-05 -0.001182
0.001413 -6e-06 -0.002087
0.001395 -4e-06 -0.002104
0.002993 0.000578 0.000223
0.002188 -4e-06 -0.001128
0.002889 0.000692 -0.00075
0.002885 0.000526 -0.000776
0.002748 0.000737 -0.000819
0.002122 -3e-06 -0.001201
0.002105 -3e-06 -0.001219
0.002088 -2e-06 -0.001236
0.002557 0.00053 -0.001438
0.00204 -3e-06 -0.001292
0.002022 -2e-06 -0.001309
0.002874 0.000727 -0.000743
0.002431 0.000623 -0.001241
0.002903 0.000494 -0.000757
0.002253 0.000742 -0.001018
0.002313 0.000743 -0.000884
0.002618 0.00069 1e-06
0.002861 0.000728 -0.000764
0.001808 -3e-06 -0.001548
0.001791 -2e-06 -0.001566
0.001774 -2e-06 -0.001584
0.00176 -3e-06 -0.001604
0.001742 -2e-06 -0.001621
0.001726 -2e-06 -0.00164
0.001676 -2e-06 -0.001694
0.00166 -2e-06 -0.001713
0.001643 -3e-06 -0.001731
0.001545 -2e-06 -0.001841
0.001529 -3e-06 -0.001861
0.001512 -2e-06 -0.001878
0.001494 -1e-06 -0.001895
0.001477 -1e-06 -0.001913
0.001431 -3e-06 -0.00197
0.002579 0.000475 -0.001531
0.002261 0.000706 -0.001049
0.001368 -5e-06 -0.002047
0.001352 -5e-06 -0.002065
0.002512 0.000537 -0.001362
0.002838 0.000633 -0.000485
0.002093 -2e-06 -0.001141
0.002077 -2e-06 -0.00116
0.002818 0.000712 -0.000798
0.002874 0.00056 -0.000516
0.002471 0.000685 -0.00085
0.002522 0.000664 -0.000847
0.002903 0.000521 -0.000757
0.002255 0.000697 -0.000965
0.00226 0.000679 -0.001049
0.002624 0.000746 -0.000299
0.00279 0.000616 7.3e-05
0.002251 0.000721 -0.00099
0.002906 0.000652 -0.000546
0.002396 0.000646 -0.001196
0.001859 -1e-05 -0.001428
0.001842 -1e-05 -0.001446
0.002557 0.000503 -0.001438
0.001811 -1e-05 -0.001484
0.001794 -1e-05 -0.001502
0.001778 -1.1e-05 -0.001521
0.001761 -1e-05 -0.001539
0.001745 -1e-05 -0.001557
0.001729 -1.1e-05 -0.001576
0.001712 -1e-05 -0.001594
0.001695 -1e-05 -0.001612
0.001661 -9e-06 -0.001648
0.001644 -9e-06 -0.001666
0.001627 -9e-06 -0.001684
0.001611 -9e-06 -0.001702
0.001594 -8e-06 -0.00172
0.001525 -7e-06 -0.00179
0.001508 -6e-06 -0.001808
0.00149 -5e-06 -0.001825
0.001473 -5e-06 -0.001842
0.001456 -5e-06 -0.001861
0.001439 -4e-06 -0.001878
0.001421 -3e-06 -0.001896
0.001404 -3e-06 -0.001913
0.001387 -2e-06 -0.001931
0.002573 0.000616 -0.000844
0.00267 0.000576 -0.000836
0.002826 0.000601 9.2e-05
0.002541 0.000505 -0.001594
0.002537 0.000546 -0.001401
0.002851 0.000701 -0.000786
0.002841 0.000733 -0.000782
0.001997 -1e-05 -0.001188
0.00198 -1e-05 -0.001205
0.002353 0.000735 -0.000847
0.002818 0.000549 -0.000798
0.002852 0.000618 -0.000787
0.002819 0.000685 -0.000798
0.002936 0.000605 -0.000626
0.002748 0.00071 -0.000819
0.002884 0.000607 -0.000775
0.002575 0.000461 -0.001474
0.001795 -7e-06 -0.001404
0.00178 -8e-06 -0.001423
0.001764 -8e-06 -0.001442
0.001748 -9e-06 -0.00146
0.001731 -9e-06 -0.001479
0.001713 -8e-06 -0.001496
0.001698 -8e-06 -0.001515
0.001617 -9e-06 -0.001608
0.0016 -9e-06 -0.001626
0.001566 -8e-06 -0.001661
0.00155 -9e-06 -0.001681
0.001535 -9e-06 -0.0017
0.001487 -1e-05 -0.001756
0.00147 -1e-05 -0.001774
0.001456 -1e-05 -0.001794
0.001439 -9e-06 -0.001812
0.001422 -9e-06 -0.00183
0.001405 -9e-06 -0.001848
0.001372 -1e-05 -0.001885
0.001355 -1e-05 -0.001903
0.001338 -9e-06 -0.00192
0.002622 0.000596 -0.00084
0.002709 0.000562 -0.000828
0.002874 0.000694 -0.00077
0.002492 0.000743 -0.001324
0.002783 0.000535 -0.000808
0.001965 -7e-06 -0.001126
0.00195 -8e-06 -0.001145
0.001933 -8e-06 -0.001163
0.001897 -6e-06 -0.001197
0.001881 -6e-06 -0.001216
0.001865 -6e-06 -0.001235
0.001848 -6e-06 -0.001253
0.002784 0.000697 -0.000809
0.002747 0.000629 -0.000818
0.002489 0.000581 -0.001323
0.002288 0.000724 -0.000899
0.002576 0.000515 -0.001475
0.001749 -5e-06 -0.001362
0.001729 -4e-06 -0.001378
0.001714 -4e-06 -0.001397
0.001698 -4e-06 -0.001415
0.001681 -4e-06 -0.001434
0.002749 0.000661 5.5e-05
0.001584 -6e-06 -0.001546
0.001567 -5e-06 -0.001563
0.00155 -5e-06 -0.001581
0.0015 -4e-06 -0.001635
0.001486 -5e-06 -0.001656
0.001468 -5e-06 -0.001673
0.001421 -6e-06 -0.00173
0.001406 -7e-06 -0.001749
0.001328 -9e-06 -0.001845
0.001309 -8e-06 -0.001861
0.001294 -9e-06 -0.001881
0.002709 0.000589 -0.000828
0.002002 -6e-06 -0.000993
0.001985 -5e-06 -0.001011
0.002784 0.000561 -0.000809
0.002578 0.000612 -0.00153
0.002584 0.000614 -0.001505
0.001918 -5e-06 -0.001084
0.001902 -5e-06 -0.001102
0.001884 -4e-06 -0.001119
0.00187 -5e-06 -0.001139
0.001853 -6e-06 -0.001158
0.001837 -5e-06 -0.001176
0.001819 -5e-06 -0.001194
0.001804 -5e-06 -0.001213
0.001788 -6e-06 -0.001232
0.001773 -7e-06 -0.001251
0.002711 0.000642 -0.000828
0.002513 0.000564 -0.001362
0.001709 -8e-06 -0.001326
0.001694 -8e-06 -0.001345
0.001677 -8e-06 -0.001364
0.001661 -9e-06 -0.001382
0.001645 -9e-06 -0.001401
0.001628 -9e-06 -0.001419
0.001612 -1e-05 -0.001437
0.001545 -8e-06 -0.00151
0.001528 -8e-06 -0.001528
0.001512 -8e-06 -0.001547
0.001445 -7e-06 -0.001619
0.001429 -7e-06 -0.001637
0.001261 -5e-06 -0.001817
0.001243 -4e-06 -0.001835
0.001225 -4e-06 -0.001852
0.002513 0.00051 -0.001362
0.002488 0.000528 -0.001323
0.002873 0.000724 -0.000515
0.001943 -7e-06 -0.000973
0.002746 0.000575 -0.000818
0.002567 0.000612 -0.001552
0.002576 0.000623 -0.001475
0.001882 -9e-06 -0.001051
0.001867 -1e-05 -0.00107
0.001852 -1.1e-05 -0.00109
0.001837 -1.2e-05 -0.00111
0.001822 -1.3e-05 -0.001129
0.001806 -1.3e-05 -0.001148
0.001791 -1.4e-05 -0.001168
0.001776 -1.5e-05 -0.001187
0.00176 -1.5e-05 -0.001206
0.001745 -1.6e-05 -0.001226
0.002711 0.000724 -0.000828
0.002394 0.000593 -0.001196
0.002557 0.000476 -0.001438
0.001681 -1.7e-05 -0.001301
0.001665 -1.8e-05 -0.00132
0.001649 -1.8e-05 -0.001338
0.001633 -1.8e-05 -0.001357
0.001617 -1.9e-05 -0.001376
0.001601 -1.9e-05 -0.001395
0.001584 -1.8e-05 -0.001413
0.001568 -1.8e-05 -0.001431
0.001551 -1.8e-05 -0.001449
0.001534 -1.8e-05 -0.001467
0.001518 -1.8e-05 -0.001486
0.001501 -1.8e-05 -0.001503
0.001483 -1.7e-05 -0.001521
0.001466 -1.7e-05 -0.001539
0.001449 -1.7e-05 -0.001557
0.001433 -1.6e-05 -0.001575
0.001416 -1.6e-05 -0.001593
0.001399 -1.6e-05 -0.00161
0.001381 -1.5e-05 -0.001628
0.001204 -7e-06 -0.0018
0.001186 -6e-06 -0.001817
0.002586 0.00045 -0.001507
0.00258 0.000448 -0.001531
0.002462 0.000547 -0.001283
0.002287 0.000698 -0.000898
0.002358 0.000678 -0.00085
0.002252 0.000688 -0.001018
0.002927 0.000667 -0.000574
0.002541 0.000451 -0.001595
0.002802 0.000571 -0.000454
0.002936 0.000578 -0.000626
0.002907 0.000624 -0.000546
0.002903 0.000439 -0.000757
0.002885 0.000444 -0.000776
0.002852 0.000455 -0.000787
0.002817 0.000468 -0.000798
0.002784 0.00048 -0.000809
0.002746 0.000494 -0.000818
0.002708 0.000508 -0.000827
0.00267 0.000522 -0.000836
0.00262 0.000542 -0.00084
0.002572 0.000562 -0.000843
0.002521 0.000583 -0.000847
0.002469 0.000604 -0.000849
0.002411 0.000628 -0.000848
0.002357 0.000651 -0.00085
0.002326 0.000661 -0.000862
0.002303 0.000668 -0.000878
0.002286 0.000671 -0.000897
0.002273 0.000672 -0.000918
0.002263 0.000672 -0.000941
0.002255 0.00067 -0.000965
0.002251 0.000667 -0.00099
0.002252 0.000661 -0.001018
0.00226 0.000651 -0.001049
0.002394 0.000566 -0.001196
0.00243 0.000542 -0.00124
0.002462 0.000519 -0.001283
0.002489 0.0005 -0.001323
0.002513 0.000482 -0.001362
0.002537 0.000464 -0.001401
0.002557 0.000449 -0.001438
0.002575 0.000433 -0.001474
0.002586 0.000422 -0.001507
0.002579 0.00042 -0.001531
0.002567 0.000421 -0.001552
0.002555 0.000422 -0.001574
0.002541 0.000424 -0.001595
0.001689 -2.2e-05 -0.001267
0.001701 -2.3e-05 -0.001245
0.002838 0.000552 -0.000485
0.002925 0.000579 -0.000674
0.002933 0.00061 -0.000575
0.002899 0.000667 -0.000744
0.002884 0.000417 -0.000776
0.002852 0.000428 -0.000788
0.002816 0.000441 -0.000797
0.002784 0.000452 -0.000809
0.002746 0.000466 -0.000818
0.002709 0.00048 -0.000828
0.00267 0.000495 -0.000836
0.002621 0.000515 -0.00084
0.002573 0.000534 -0.000844
0.002522 0.000555 -0.000847
0.00247 0.000576 -0.000849
0.002411 0.000601 -0.000848
0.002358 0.000623 -0.00085
0.002326 0.000634 -0.000862
0.002303 0.000641 -0.000878
0.002286 0.000644 -0.000897
0.002273 0.000645 -0.000918
0.002263 0.000645 -0.000941
0.002255 0.000643 -0.000965
0.002251 0.00064 -0.00099
0.002251 0.000634 -0.001018
0.00226 0.000624 -0.001049
0.002287 0.000605 -0.00109
0.002462 0.000492 -0.001283
0.002488 0.000473 -0.001323
0.002513 0.000455 -0.001362
0.002536 0.000437 -0.001401
0.002557 0.000421 -0.001438
0.002576 0.000406 -0.001474
0.002586 0.000395 -0.001507
0.002579 0.000393 -0.001531
0.002567 0.000394 -0.001552
0.002554 0.000395 -0.001574
0.002541 0.000397 -0.001595
0.002706 0.000625 3.7e-05
0.002919 0.00058 -0.000698
0.002906 0.00061 -0.000746
0.002917 0.0007 0.00015
0.002884 0.00039 -0.000776
0.002852 0.000401 -0.000788
0.002818 0.000413 -0.000798
0.002784 0.000425 -0.000809
0.002747 0.000439 -0.000819
0.002709 0.000453 -0.000828
0.002669 0.000468 -0.000836
0.002622 0.000487 -0.00084
0.002574 0.000506 -0.000845
0.002521 0.000528 -0.000846
0.002471 0.000549 -0.00085
0.002411 0.000574 -0.000848
0.002357 0.000597 -0.00085
0.002326 0.000607 -0.000862
0.002303 0.000614 -0.000878
0.002286 0.000617 -0.000897
0.002272 0.000618 -0.000918
0.002263 0.000618 -0.000941
0.002255 0.000616 -0.000965
0.002251 0.000613 -0.00099
0.002252 0.000607 -0.001018
0.00226 0.000597 -0.001049
0.002282 0.00058 -0.001087
0.002394 0.000511 -0.001196
0.002431 0.000487 -0.001241
0.002462 0.000465 -0.001283
0.002488 0.000446 -0.001323
0.002514 0.000428 -0.001363
0.002536 0.00041 -0.001401
0.002557 0.000394 -0.001438
0.002575 0.000379 -0.001474
0.002586 0.000368 -0.001507
0.002579 0.000366 -0.001531
0.002567 0.000367 -0.001552
0.002554 0.000368 -0.001573
0.002541 0.00037 -0.001595
0.002838 0.000579 -0.000485
0.002639 0.000567 0.001357
0.002919 0.000607 -0.000698
0.002366 0.000675 0.000743
0.002884 0.000363 -0.000776
0.002852 0.000374 -0.000788
0.002818 0.000386 -0.000798
0.002783 0.000398 -0.000809
0.002747 0.000412 -0.000819
0.002709 0.000426 -0.000828
0.002668 0.000442 -0.000835
0.002622 0.00046 -0.00084
0.002574 0.000479 -0.000845
0.002521 0.000501 -0.000847
0.00247 0.000522 -0.000849
0.00241 0.000547 -0.000848
0.002357 0.000569 -0.00085
0.002326 0.00058 -0.000862
0.002302 0.000587 -0.000878
0.002285 0.00059 -0.000897
0.002272 0.000591 -0.000918
0.002262 0.000591 -0.000941
0.002255 0.000589 -0.000965
0.002251 0.000585 -0.00099
0.002251 0.00058 -0.001018
0.00226 0.00057 -0.001049
0.002394 0.000484 -0.001196
0.002429 0.000461 -0.00124
0.002462 0.000438 -0.001283
0.002488 0.000419 -0.001323
0.002514 0.0004 -0.001363
0.002537 0.000383 -0.001401
0.002556 0.000367 -0.001438
0.002575 0.000352 -0.001474
0.002586 0.000341 -0.001507
0.00258 0.000339 -0.001531
0.002567 0.00034 -0.001552
0.002554 0.000341 -0.001573
0.002541 0.000342 -0.001595
0.002914 0.000499 -0.000722
0.002939 0.000578 -0.000601
0.002925 0.000606 -0.000674
0.002927 0.000661 -0.000649
0.002884 0.000336 -0.000776
0.002852 0.000347 -0.000788
0.002818 0.000359 -0.000798
0.002783 0.000371 -0.000809
0.002746 0.000385 -0.000818
0.002709 0.000399 -0.000828
0.002667 0.000415 -0.000835
0.002622 0.000432 -0.000841
0.002574 0.000452 -0.000845
0.002522 0.000473 -0.000847
0.002469 0.000495 -0.000849
0.002409 0.000521 -0.000847
0.002357 0.000542 -0.00085
0.002325 0.000553 -0.000862
0.002302 0.00056 -0.000878
0.002285 0.000563 -0.000897
0.002272 0.000564 -0.000918
0.002262 0.000564 -0.000941
0.002255 0.000562 -0.000965
0.002251 0.000558 -0.00099
0.002251 0.000553 -0.001017
0.00226 0.000543 -0.001049
0.002393 0.000457 -0.001195
0.002431 0.000433 -0.001241
0.002462 0.000411 -0.001283
0.002489 0.000392 -0.001323
0.002514 0.000373 -0.001363
0.002537 0.000356 -0.001401
0.002557 0.00034 -0.001438
0.002575 0.000325 -0.001474
0.002586 0.000314 -0.001507
0.00258 0.000312 -0.001531
0.002567 0.000313 -0.001552
0.002554 0.000314 -0.001574
0.002541 0.000315 -0.001595
0.002528 0.000316 -0.001616
0.002802 0.000598 -0.000454
0.002907 0.000582 -0.000746
0.002913 0.000608 -0.000722
0.002874 0.000669 -0.000516
0.002884 0.000309 -0.000776
0.002852 0.00032 -0.000788
0.002817 0.000332 -0.000798
0.002783 0.000344 -0.000809
0.002746 0.000358 -0.000818
0.00271 0.000371 -0.000828
0.002668 0.000387 -0.000835
0.002622 0.000406 -0.00084
0.002574 0.000425 -0.000845
0.002522 0.000446 -0.000847
0.002469 0.000468 -0.000849
0.002411 0.000493 -0.000848
0.002357 0.000515 -0.00085
0.002325 0.000526 -0.000862
0.002301 0.000533 -0.000878
0.002284 0.000536 -0.000897
0.002272 0.000537 -0.000918
0.002262 0.000536 -0.000941
0.002254 0.000535 -0.000964
0.00225 0.000532 -0.00099
0.002251 0.000526 -0.001017
0.00226 0.000516 -0.001049
0.002395 0.000429 -0.001196
0.00243 0.000406 -0.00124
0.002462 0.000384 -0.001283
0.002489 0.000364 -0.001323
0.002514 0.000346 -0.001363
0.002536 0.000329 -0.001401
0.002556 0.000313 -0.001438
0.002576 0.000297 -0.001475
0.002586 0.000287 -0.001507
0.002579 0.000285 -0.001531
0.002567 0.000286 -0.001552
0.002554 0.000287 -0.001573
0.002541 0.000288 -0.001594
0.002528 0.000289 -0.001616
0.00279 0.000588 7.3e-05
0.002789 0.000671 7.3e-05
0.00275 0.000714 5.4e-05
0.002888 0.000712 0.00013
0.002884 0.000282 -0.000776
0.002851 0.000293 -0.000788
0.002818 0.000305 -0.000798
0.002783 0.000317 -0.000809
0.002747 0.00033 -0.000819
0.00271 0.000344 -0.000828
0.002667 0.000361 -0.000835
0.002622 0.000378 -0.000841
0.002573 0.000398 -0.000844
0.002522 0.000419 -0.000847
0.002469 0.000441 -0.000849
0.00241 0.000466 -0.000848
0.002357 0.000488 -0.00085
0.002325 0.000499 -0.000862
0.002301 0.000506 -0.000878
0.002284 0.000509 -0.000897
0.002272 0.00051 -0.000918
0.002262 0.000509 -0.000941
0.002254 0.000508 -0.000964
0.00225 0.000504 -0.00099
0.002251 0.000499 -0.001017
0.00226 0.000488 -0.001049
0.002431 0.000378 -0.001241
0.002461 0.000357 -0.001283
0.002489 0.000337 -0.001323
0.002515 0.000318 -0.001363
