0.002143 0.000726 0.002068
0.000809 0.000644 0.002307
0.001492 0.000531 0.002304
0.002249 0.000492 0.001996
0.002029 0.000502 0.002087
0.002131 -8e-06 0.001085
0.002141 -8e-06 0.001063
0.002152 -8e-06 0.00104
0.002162 -8e-06 0.001018
0.002171 -8e-06 0.000995
0.002182 -9e-06 0.000973
0.002191 -9e-06 0.00095
0.002201 -9e-06 0.000927
0.002211 -9e-06 0.000905
0.00222 -8e-06 0.000882
0.002229 -8e-06 0.000859
0.002239 -8e-06 0.000837
0.002312 -5e-06 0.000653
0.002321 -5e-06 0.00063
0.002403 -3e-06 0.000425
0.002409 -1e-06 0.0004
0.002421 -2e-06 0.000379
0.002168 0.000466 0.002088
0.001547 0.000699 0.001904
0.002511 0.000626 0.001321
0.001912 -8e-06 0.001447
0.001923 -9e-06 0.001425
0.002115 0.000671 0.00128
0.002249 0.000727 0.001294
0.002162 0.000638 0.001701
0.001502 0.000534 0.002362
0.002184 0.000574 0.00207
0.002036 0.000708 0.001342
0.000646 0.000601 0.002763
0.001505 0.000627 0.002542
0.001452 0.000467 0.002639
0.002511 0.000707 0.001319
0.002256 0.000578 0.00197
0.00225 0.000537 0.001933
0.00148 0.000558 0.002243
0.001574 0.000693 0.0019
0.002511 0.000572 0.001318
0.002168 0.000521 0.002088
0.002144 0.000634 0.0021
0.002238 0.000635 0.001891
0.0023 0.000679 0.001304
0.002119 -9e-06 0.000973
0.002126 -8e-06 0.000949
0.002135 -8e-06 0.000926
0.002147 -9e-06 0.000904
0.002156 -8e-06 0.000882
0.002165 -8e-06 0.000859
0.002176 -8e-06 0.000836
0.002186 -9e-06 0.000814
0.002195 -8e-06 0.000791
0.002256 -9e-06 0.000656
0.002265 -9e-06 0.000633
0.002275 -9e-06 0.000611
0.002286 -1e-05 0.000589
0.002317 -1.1e-05 0.000522
0.002326 -1.1e-05 0.000499
0.002334 -1e-05 0.000475
0.001965 -3.2e-05 0.000719
0.002358 -7e-06 0.000405
0.002366 -6e-06 0.000382
0.002374 -5e-06 0.000358
0.001954 -3.2e-05 0.000741
0.002473 0.000639 0.00132
0.002433 0.000654 0.001318
0.002116 0.000506 0.002108
0.0023 0.000706 0.001304
0.002201 0.000574 0.002052
0.002218 0.000573 0.002034
0.002051 0.000709 0.001323
0.00225 0.000428 0.001933
0.00221 0.000617 0.001804
0.002251 0.000618 0.001933
0.002191 0.000665 0.001757
0.00221 0.00059 0.001804
0.002116 0.000452 0.002108
0.002251 0.000455 0.001933
0.002116 0.000533 0.002108
0.00225 0.000565 0.001933
0.002257 0.000551 0.00197
0.002348 0.000659 0.001312
0.002065 -4e-06 0.000923
0.002093 -4e-06 0.000854
0.002102 -3e-06 0.000832
0.002112 -3e-06 0.000809
0.002122 -3e-06 0.000787
0.002134 -4e-06 0.000765
0.002145 -4e-06 0.000743
0.002152 -4e-06 0.000719
0.002163 -4e-06 0.000697
0.002173 -5e-06 0.000674
0.002184 -5e-06 0.000652
0.002197 -7e-06 0.000631
0.002207 -7e-06 0.000608
0.002217 -7e-06 0.000586
0.002226 -7e-06 0.000563
0.002236 -7e-06 0.000541
0.002247 -7e-06 0.000518
0.002256 -7e-06 0.000496
0.002268 -8e-06 0.000474
0.002311 -1e-05 0.000385
0.00232 -1e-05 0.000362
0.001769 -4e-06 0.001466
0.00178 -5e-06 0.001444
0.001789 -5e-06 0.001421
0.00225 0.000464 0.001996
0.002148 0.000415 0.002104
0.002184 0.000411 0.00207
0.002168 0.000412 0.002088
0.001044 0.000672 0.002474
0.001473 0.000467 0.002626
0.002225 0.000653 0.001848
0.002256 0.000606 0.001969
0.002248 0.000601 0.001995
0.002257 0.000523 0.001971
0.002098 0.000478 0.002104
0.002473 0.000585 0.001319
0.002257 0.000469 0.00197
0.002238 0.000554 0.001891
0.002167 0.000548 0.002088
0.002148 0.00055 0.002104
0.002117 0.000478 0.002108
0.002234 0.000464 0.002016
0.002218 0.000464 0.002034
0.002022 -5e-06 0.000878
0.002041 -5e-06 0.000832
0.002051 -5e-06 0.00081
0.00206 -4e-06 0.000787
0.002069 -4e-06 0.000764
0.002079 -4e-06 0.000741
0.002087 -3e-06 0.000718
0.002099 -4e-06 0.000696
0.002109 -4e-06 0.000674
0.002118 -4e-06 0.000651
0.002127 -4e-06 0.000628
0.002136 -3e-06 0.000605
0.002146 -3e-06 0.000582
0.002155 -3e-06 0.00056
0.002165 -3e-06 0.000537
0.002175 -3e-06 0.000514
0.002184 -3e-06 0.000492
0.002195 -3e-06 0.000469
0.002207 -5e-06 0.000448
0.002155 0.000691 0.002078
0.001722 -3e-06 0.001419
0.001731 -3e-06 0.001396
0.00225 0.00051 0.001933
0.00209 0.000704 0.001291
0.002117 0.000424 0.002109
0.002191 0.000638 0.001756
0.002234 0.000545 0.002016
0.002257 0.000497 0.00197
0.00143 0.00055 0.00265
0.001451 0.000549 0.002638
0.002149 0.000687 0.001275
0.002234 0.000573 0.002016
0.002165 0.000631 0.002086
0.002223 0.000688 0.002007
0.001868 -8e-06 0.001107
0.001879 -9e-06 0.001085
0.002238 0.000663 0.001891
0.002512 0.000734 0.001327
0.001574 0.000747 0.001902
0.001921 -1e-05 0.000995
0.001931 -1e-05 0.000973
0.001941 -1e-05 0.00095
0.001951 -1.1e-05 0.000928
0.001962 -1.1e-05 0.000905
0.001971 -1.1e-05 0.000883
0.001982 -1.1e-05 0.00086
0.001991 -1.1e-05 0.000838
0.002 -1.1e-05 0.000815
0.00201 -1.1e-05 0.000792
0.002019 -1e-05 0.000769
0.002029 -1.1e-05 0.000747
0.002038 -1e-05 0.000724
0.002047 -1e-05 0.000701
0.002057 -1e-05 0.000678
0.002065 -1e-05 0.000655
0.002074 -9e-06 0.000632
0.002083 -9e-06 0.000609
0.002092 -8e-06 0.000586
0.002101 -8e-06 0.000563
0.002111 -8e-06 0.000541
0.002119 -7e-06 0.000517
0.002127 -6e-06 0.000494
0.002136 -6e-06 0.000471
0.002146 -6e-06 0.000449
0.002154 -5e-06 0.000425
0.002072 0.00076 0.001308
0.002238 0.000581 0.001891
0.002225 0.000598 0.001849
0.002238 0.000527 0.001891
0.002224 0.000544 0.001848
0.002255 0.000751 0.001299
0.002249 0.000546 0.001996
0.002218 0.000546 0.002034
0.002218 0.000492 0.002034
0.002201 0.000492 0.002052
0.000682 0.000744 0.002553
0.002249 0.000573 0.001996
0.002184 0.000629 0.00207
0.002199 0.000657 0.00205
0.001823 -1.7e-05 0.001114
0.001834 -1.8e-05 0.001092
0.001845 -1.8e-05 0.00107
0.001855 -1.9e-05 0.001048
0.001866 -1.9e-05 0.001025
0.001876 -2e-05 0.001003
0.001886 -2e-05 0.00098
0.001896 -2e-05 0.000958
0.001907 -2e-05 0.000935
0.001916 -2e-05 0.000913
0.001927 -2.1e-05 0.000891
0.001937 -2.1e-05 0.000868
0.001947 -2.1e-05 0.000845
0.001956 -2.1e-05 0.000823
0.001966 -2.1e-05 0.0008
0.001975 -2e-05 0.000777
0.001985 -2e-05 0.000755
0.001995 -2e-05 0.000732
0.002004 -2e-05 0.000709
0.002012 -2e-05 0.000686
0.002021 -1.9e-05 0.000663
0.002031 -1.9e-05 0.00064
0.002039 -1.8e-05 0.000617
0.002048 -1.8e-05 0.000594
0.002057 -1.7e-05 0.000571
0.002065 -1.7e-05 0.000548
0.00209 -1.5e-05 0.000478
0.002098 -1.4e-05 0.000455
0.002107 -1.3e-05 0.000432
0.001504 0.000464 0.002541
0.002093 0.000756 0.001295
0.002257 0.000415 0.00197
0.001439 0.000728 0.001999
0.002148 0.000661 0.001274
0.002011 0.000749 0.001417
0.002433 0.0006 0.001318
0.002257 0.000442 0.00197
0.001464 0.000704 0.001956
0.002185 0.000493 0.00207
0.00225 0.00041 0.001996
0.002511 0.000544 0.001318
0.0023 0.000624 0.001304
0.002116 0.000698 0.00128
0.002238 0.000472 0.001891
0.001803 -2.9e-05 0.001079
0.001813 -3e-05 0.001056
0.001825 -3e-05 0.001034
0.001835 -3.1e-05 0.001012
0.001846 -3.1e-05 0.00099
0.001856 -3.2e-05 0.000968
0.001867 -3.2e-05 0.000945
0.001877 -3.2e-05 0.000923
0.001888 -3.3e-05 0.000901
0.001897 -3.3e-05 0.000878
0.001907 -3.3e-05 0.000855
0.001917 -3.3e-05 0.000833
0.001926 -3.3e-05 0.00081
0.001936 -3.3e-05 0.000787
0.001945 -3.2e-05 0.000765
0.002548 0.000505 0.00132
0.001574 0.000666 0.0019
0.001505 0.000545 0.002542
0.001449 0.000677 0.001975
0.001464 0.000677 0.001956
0.001505 0.000725 0.002499
0.001501 0.000613 0.002581
0.001524 0.000755 0.001914
0.001643 0.00067 0.001913
0.001502 0.000561 0.002362
0.001493 0.000666 0.002306
0.002117 0.000397 0.002108
0.002148 0.000387 0.002104
0.002167 0.000385 0.002088
0.002184 0.000384 0.00207
0.002201 0.000384 0.002052
0.002218 0.000383 0.002034
0.002234 0.000383 0.002015
0.00225 0.000383 0.001996
0.002257 0.000388 0.00197
0.00225 0.000401 0.001933
0.002238 0.000418 0.001891
0.002224 0.000436 0.001848
0.00221 0.000454 0.001804
0.002189 0.000476 0.001755
0.002158 0.000504 0.001697
0.002036 0.000654 0.001342
0.002051 0.000654 0.001322
0.002069 0.000653 0.001305
0.00209 0.00065 0.001291
0.002115 0.000644 0.001279
0.002148 0.000633 0.001275
0.002194 0.000615 0.00128
0.00225 0.000591 0.001295
0.0023 0.00057 0.001304
0.002349 0.00055 0.001312
0.002392 0.000533 0.001316
0.002433 0.000518 0.001318
0.002473 0.000503 0.001319
0.002511 0.00049 0.001318
0.002548 0.000477 0.00132
0.001492 0.000386 0.00261
0.001473 0.000521 0.002626
0.001992 0.000733 0.002076
0.002029 0.00072 0.002086
0.001253 0.000678 0.002641
0.001877 0.000669 0.002039
0.001955 0.000584 0.002065
0.001492 0.000413 0.00261
0.000684 0.000531 0.002481
0.001699 0.000749 0.001952
0.002116 0.00037 0.002107
0.002148 0.00036 0.002104
0.002167 0.000358 0.002088
0.002184 0.000357 0.00207
0.002201 0.000356 0.002052
0.002218 0.000356 0.002034
0.002234 0.000355 0.002015
0.002249 0.000356 0.001996
0.002257 0.00036 0.001971
0.002251 0.000374 0.001933
0.002238 0.000391 0.001891
0.002224 0.000409 0.001848
0.002209 0.000427 0.001804
0.002189 0.000449 0.001755
0.002158 0.000477 0.001698
0.002036 0.000627 0.001342
0.002051 0.000627 0.001322
0.002069 0.000626 0.001305
0.00209 0.000623 0.00129
0.002114 0.000617 0.001279
0.002147 0.000607 0.001274
0.002193 0.000589 0.001279
0.00225 0.000564 0.001294
0.002301 0.000542 0.001305
0.002349 0.000523 0.001313
0.002393 0.000506 0.001316
0.002433 0.000491 0.001317
0.002473 0.000477 0.001319
0.002511 0.000463 0.001319
0.002548 0.00045 0.00132
0.002064 0.000436 0.002096
0.001506 0.000561 0.0025
0.00149 0.000605 0.002608
0.00122 0.000692 0.00262
0.002029 0.000693 0.002086
0.001955 0.000638 0.002066
0.002029 0.000557 0.002086
0.001501 0.000422 0.002581
0.001492 0.000586 0.002304
0.001466 0.000723 0.002178
0.002118 0.000342 0.002109
0.002149 0.000333 0.002104
0.002167 0.000331 0.002088
0.002184 0.00033 0.00207
0.002201 0.000329 0.002052
0.002218 0.000329 0.002034
0.002234 0.000328 0.002015
0.00225 0.000328 0.001996
0.002257 0.000333 0.00197
0.002251 0.000347 0.001933
0.002238 0.000364 0.001891
0.002225 0.000381 0.001848
0.00221 0.0004 0.001804
0.002188 0.000423 0.001754
0.002159 0.00045 0.001698
0.002036 0.0006 0.001342
0.002051 0.0006 0.001322
0.002069 0.000599 0.001305
0.00209 0.000595 0.00129
0.002115 0.00059 0.001279
0.002147 0.00058 0.001274
0.002194 0.000561 0.001281
0.00225 0.000536 0.001295
0.002301 0.000515 0.001304
0.002349 0.000496 0.001312
0.002393 0.000479 0.001316
0.002432 0.000464 0.001317
0.002472 0.00045 0.001318
0.002511 0.000436 0.001318
0.002548 0.000423 0.001318
0.001877 0.00056 0.002039
0.00148 0.000667 0.002243
0.001506 0.000659 0.002457
0.001451 0.000631 0.002638
0.002129 0.000661 0.002102
0.001992 0.000624 0.002078
0.000839 0.000755 0.002309
0.000673 0.000531 0.002606
0.000507 0.000176 0.002971
0.002029 0.000638 0.002087
0.002117 0.000315 0.002108
0.002148 0.000305 0.002104
0.002168 0.000303 0.002088
0.002185 0.000303 0.00207
0.002201 0.000302 0.002052
0.002218 0.000301 0.002034
0.002234 0.000301 0.002015
0.00225 0.000301 0.001996
0.002257 0.000306 0.00197
0.002251 0.000319 0.001933
0.002239 0.000336 0.001892
0.002224 0.000354 0.001848
0.002209 0.000373 0.001804
0.002188 0.000395 0.001754
0.002159 0.000422 0.001698
0.002036 0.000573 0.001342
0.002051 0.000573 0.001322
0.002068 0.000572 0.001305
0.002089 0.000568 0.00129
0.002115 0.000562 0.001279
0.002147 0.000552 0.001274
0.002194 0.000534 0.00128
0.002251 0.000509 0.001295
0.0023 0.000489 0.001304
0.00235 0.000468 0.001313
0.002392 0.000452 0.001316
0.002432 0.000437 0.001317
0.002472 0.000422 0.001318
0.002511 0.000409 0.001318
0.002547 0.000396 0.001316
0.001506 0.000425 0.0025
0.001507 0.000594 0.002413
0.001837 0.00074 0.002023
0.001429 0.000632 0.00265
0.001252 0.000651 0.002642
0.001082 0.000597 0.002509
0.000921 0.000454 0.002332
0.001481 0.000585 0.002244
0.00143 0.000387 0.002651
0.001955 0.000666 0.002066
0.002117 0.000288 0.002108
0.002148 0.000278 0.002104
0.002168 0.000276 0.002088
0.002185 0.000275 0.00207
0.002201 0.000275 0.002052
0.002218 0.000274 0.002034
0.002235 0.000274 0.002015
0.00225 0.000274 0.001996
0.002257 0.000279 0.00197
0.00225 0.000293 0.001932
0.002239 0.000309 0.001892
0.002224 0.000327 0.001848
0.00221 0.000346 0.001804
0.002189 0.000368 0.001755
0.002036 0.000545 0.001341
0.002051 0.000546 0.001322
0.002068 0.000545 0.001305
0.002089 0.000541 0.00129
0.002114 0.000535 0.001279
0.002148 0.000525 0.001274
0.002194 0.000507 0.00128
0.00225 0.000482 0.001294
0.002301 0.000461 0.001305
0.00235 0.000441 0.001313
0.002392 0.000425 0.001315
0.002433 0.00041 0.001317
0.002473 0.000395 0.001318
0.002511 0.000382 0.001317
0.002548 0.000369 0.001316
0.002584 0.000356 0.001314
0.001793 0.000542 0.002002
0.001992 0.000597 0.002076
0.000592 0.000678 0.002914
0.000633 0.000667 0.002804
0.000405 0.000649 0.002976
0.00072 0.000583 0.002351
0.00069 0.000747 0.00242
0.000592 0.000488 0.002914
0.002029 0.000475 0.002087
0.001916 0.000518 0.002052
0.001477 0.000747 0.002107
0.002117 0.000261 0.002108
0.002148 0.000251 0.002104
0.002168 0.000249 0.002088
0.002185 0.000248 0.00207
0.002202 0.000247 0.002052
0.002218 0.000247 0.002034
0.002235 0.000247 0.002015
0.002249 0.000247 0.001996
0.002257 0.000252 0.00197
0.00225 0.000266 0.001932
0.002238 0.000282 0.001891
0.002224 0.0003 0.001848
0.002209 0.000319 0.001803
0.00219 0.00034 0.001756
0.002036 0.000518 0.001341
0.00205 0.000519 0.001322
0.002068 0.000517 0.001305
0.002089 0.000514 0.00129
0.002115 0.000508 0.001279
0.002147 0.000498 0.001274
0.002193 0.00048 0.001279
0.002249 0.000456 0.001294
0.002302 0.000433 0.001305
0.002349 0.000414 0.001312
0.002392 0.000398 0.001316
0.002432 0.000383 0.001317
0.002472 0.000368 0.001318
0.002511 0.000354 0.001318
0.002548 0.000342 0.001316
0.002584 0.000329 0.001314
0.002029 0.00053 0.002086
0.002028 0.000584 0.002087
0.000432 0.000617 0.002981
0.000634 0.000721 0.002805
0.000456 0.000642 0.002977
0.00072 0.000745 0.002354
0.000812 0.00076 0.002313
0.001746 0.000591 0.001977
0.001993 0.000488 0.002077
0.00068 0.000665 0.002547
0.001492 0.000559 0.002304
0.001916 0.000681 0.002053
0.002117 0.000234 0.002108
0.002148 0.000224 0.002103
0.002167 0.000222 0.002088
0.002184 0.000221 0.00207
0.002201 0.00022 0.002052
0.002218 0.00022 0.002034
0.002234 0.00022 0.002015
0.002249 0.00022 0.001995
0.002256 0.000225 0.00197
0.00225 0.000238 0.001932
0.002237 0.000256 0.00189
0.002225 0.000273 0.001848
0.002209 0.000291 0.001803
0.00219 0.000312 0.001756
0.002036 0.000491 0.001341
0.002051 0.000492 0.001322
0.002069 0.00049 0.001305
0.00209 0.000487 0.00129
0.002115 0.000481 0.001279
0.002148 0.00047 0.001274
0.002192 0.000453 0.001279
0.00225 0.000428 0.001294
0.002301 0.000406 0.001304
0.00235 0.000386 0.001313
0.002392 0.00037 0.001316
0.002433 0.000355 0.001317
0.002473 0.000341 0.001318
0.002511 0.000327 0.001318
0.002548 0.000314 0.001316
0.002585 0.000302 0.001319
0.001452 0.000413 0.002639
0.001187 0.00049 0.002595
0.00062 0.000705 0.002843
0.001451 0.000603 0.002639
0.00143 0.000604 0.002651
0.002063 0.000599 0.002095
0.001877 0.000615 0.002038
0.001504 0.000491 0.002541
0.001645 0.000641 0.001916
0.001501 0.000477 0.00258
0.000531 0.000337 0.002966
0.002117 0.000206 0.002108
0.002147 0.000198 0.002103
0.002167 0.000195 0.002087
0.002184 0.000194 0.00207
0.002201 0.000193 0.002052
0.002218 0.000193 0.002033
0.002234 0.000193 0.002015
0.002248 0.000193 0.001995
0.002256 0.000198 0.001969
0.002249 0.000212 0.001932
0.002237 0.000228 0.00189
0.002225 0.000245 0.001848
0.002209 0.000264 0.001803
0.001787 -2.9e-05 0.001104
0.002036 0.000464 0.001341
0.002051 0.000464 0.001322
0.002069 0.000463 0.001305
0.00209 0.000459 0.00129
0.002115 0.000453 0.001279
0.002147 0.000444 0.001274
0.002249 0.000401 0.001294
0.002301 0.000379 0.001305
0.002351 0.000359 0.001313
0.002393 0.000343 0.001316
0.002433 0.000328 0.001317
0.002473 0.000313 0.001318
0.002511 0.0003 0.001318
0.002548 0.000287 0.001316
0.002584 0.000275 0.001319
0.001473 0.000412 0.002627
0.002098 0.00056 0.002104
0.002028 0.000666 0.002086
0.002124 0.000692 0.002095
0.000555 0.000337 0.00296
0.001481 0.000693 0.002244
0.00143 0.000732 0.002038
0.001153 0.000289 0.002568
0.001643 0.000697 0.001913
0.001747 0.000726 0.001978
0.002116 0.00018 0.002108
0.002146 0.000171 0.002102
0.002166 0.000169 0.002086
0.002184 0.000167 0.00207
0.002201 0.000166 0.002051
0.002217 0.000166 0.002033
0.002233 0.000166 0.002014
0.002247 0.000167 0.001994
0.002255 0.000172 0.001968
0.002249 0.000185 0.001932
0.002237 0.000201 0.00189
0.002225 0.000218 0.001848
0.00221 0.000237 0.001803
0.00219 0.000258 0.001755
0.002035 0.000437 0.001341
0.00205 0.000437 0.001322
0.002069 0.000436 0.001305
0.00209 0.000432 0.00129
0.002115 0.000426 0.001279
0.002147 0.000416 0.001274
0.001772 -2.9e-05 0.001124
0.002249 0.000374 0.001294
0.002302 0.000351 0.001306
0.00235 0.000332 0.001313
0.002393 0.000316 0.001316
0.002433 0.000301 0.001317
0.002473 0.000286 0.001318
0.00251 0.000273 0.001317
0.002548 0.00026 0.001316
0.002584 0.000248 0.001314
0.001836 0.00055 0.002022
0.001793 0.000678 0.002003
0.002064 0.000653 0.002094
0.001507 0.00073 0.002413
0.001507 0.000713 0.002457
0.001504 0.0006 0.002541
0.001221 0.000475 0.002617
0.001506 0.000507 0.0025
0.001757 -3e-05 0.001144
0.001916 0.000572 0.002052
0.001837 0.000713 0.002023
0.002117 0.000152 0.002107
0.002144 0.000145 0.0021
0.002164 0.000142 0.002085
0.002183 0.00014 0.002069
0.0022 0.00014 0.002051
0.002216 0.000139 0.002032
0.002231 0.00014 0.002013
0.002245 0.000141 0.001992
0.002254 0.000145 0.001968
0.002248 0.000158 0.001931
0.002237 0.000174 0.00189
0.002224 0.000191 0.001847
0.00221 0.000209 0.001804
0.002187 0.000233 0.001753
0.002157 0.00026 0.001696
0.001743 -3.1e-05 0.001163
0.002036 0.00041 0.001341
0.002051 0.00041 0.001322
0.002069 0.000408 0.001305
0.00209 0.000405 0.001291
0.002115 0.000399 0.001279
0.002148 0.000389 0.001274
0.00225 0.000347 0.001294
0.002302 0.000324 0.001305
0.00235 0.000305 0.001313
0.002393 0.000289 0.001316
0.002433 0.000274 0.001317
0.002473 0.000259 0.001318
0.002511 0.000246 0.001317
0.002548 0.000233 0.001316
0.002584 0.00022 0.001314
0.001503 0.000729 0.001926
0.001917 0.000626 0.002053
0.000657 0.000268 0.002714
0.001954 0.000748 0.002064
0.001505 0.000681 0.002542
0.001408 0.000578 0.002662
0.001408 0.000497 0.002662
0.00143 0.000705 0.002038
0.00068 0.000557 0.002547
0.001955 0.000557 0.002064
0.001507 0.000621 0.002413
0.002115 0.000126 0.002106
0.002141 0.00012 0.002098
0.002161 0.000117 0.002082
0.00218 0.000115 0.002066
0.002197 0.000114 0.002048
0.002213 0.000114 0.00203
0.002228 0.000115 0.00201
0.002242 0.000116 0.001989
0.002252 0.000119 0.001966
0.002248 0.000131 0.00193
0.002237 0.000147 0.00189
0.002225 0.000164 0.001848
0.00221 0.000182 0.001804
0.002188 0.000205 0.001754
0.001728 -3.1e-05 0.001183
0.001713 -3.2e-05 0.001203
0.002035 0.000383 0.001341
0.002051 0.000383 0.001322
0.002069 0.000381 0.001305
0.00209 0.000378 0.00129
0.002115 0.000372 0.001279
0.002148 0.000361 0.001275
0.00225 0.000319 0.001294
0.002302 0.000297 0.001305
0.002351 0.000277 0.001313
0.002393 0.000261 0.001316
0.002433 0.000246 0.001318
0.002473 0.000232 0.001319
0.002511 0.000218 0.001318
0.002547 0.000206 0.001316
0.002584 0.000193 0.001317
0.001547 0.000644 0.001904
0.002063 0.000572 0.002095
0.00053 0.000638 0.002964
0.001506 0.000697 0.002501
0.0015 0.000668 0.002579
0.00086 0.000475 0.002305
0.001501 0.000504 0.00258
0.001473 0.000385 0.002627
0.000528 0.000667 0.002959
0.002098 0.000451 0.002104
0.002064 0.000463 0.002096
0.001152 0.000752 0.002566
0.002111 0.000102 0.002103
0.002136 9.6e-05 0.002093
0.002156 9.3e-05 0.002078
0.002174 9.1e-05 0.002061
0.002192 9e-05 0.002044
0.002208 9e-05 0.002025
0.002223 9.1e-05 0.002006
0.002237 9.2e-05 0.001985
0.002248 9.5e-05 0.001962
0.002248 0.000104 0.00193
0.002237 0.00012 0.00189
0.002225 0.000137 0.001848
0.00221 0.000155 0.001804
0.002189 0.000177 0.001755
0.001698 -3.2e-05 0.001222
0.002036 0.000355 0.001341
0.002051 0.000356 0.001322
0.002069 0.000354 0.001305
0.00209 0.000351 0.00129
0.002116 0.000345 0.001279
0.002148 0.000334 0.001274
0.002196 0.000315 0.001281
0.00225 0.000292 0.001295
0.002302 0.00027 0.001306
0.002351 0.00025 0.001314
0.002393 0.000234 0.001316
0.002434 0.000219 0.001318
0.002473 0.000204 0.001319
0.002511 0.000191 0.001318
0.002548 0.000179 0.001316
0.002584 0.000166 0.001314
0.000592 0.000515 0.002915
0.001955 0.000611 0.002065
0.001493 0.000744 0.002175
0.002064 0.000708 0.002094
0.002097 0.000697 0.002099
0.001507 0.000604 0.002458
0.001548 0.000752 0.001907
0.002098 0.000506 0.002104
0.001408 0.000442 0.002662
0.00062 0.000651 0.002843
0.001794 0.000732 0.002004
0.002105 7.8e-05 0.002099
0.002129 7.3e-05 0.002087
0.002148 7.1e-05 0.002072
0.002167 6.9e-05 0.002055
0.002184 6.8e-05 0.002038
0.0022 6.7e-05 0.002019
0.002215 6.8e-05 0.002
0.002229 6.9e-05 0.001979
0.002241 7.2e-05 0.001957
0.002246 7.8e-05 0.001929
0.002238 9.2e-05 0.00189
0.002225 0.000109 0.001848
0.00221 0.000128 0.001804
0.002189 0.00015 0.001755
0.001683 -3.2e-05 0.001242
0.002036 0.000328 0.001341
0.002051 0.000328 0.001322
0.002069 0.000327 0.001305
0.00209 0.000324 0.00129
0.002115 0.000317 0.001279
0.002148 0.000307 0.001274
0.002196 0.000288 0.001281
0.00225 0.000265 0.001295
0.002303 0.000242 0.001306
0.002351 0.000223 0.001314
0.002393 0.000207 0.001316
0.002434 0.000192 0.001318
0.002474 0.000177 0.001319
0.002511 0.000164 0.001318
0.002548 0.000151 0.001316
0.002584 0.000139 0.001314
0.001436 0.000716 0.002003
0.001452 0.000494 0.002639
0.001506 0.000642 0.0025
0.001489 0.000633 0.002606
0.002064 0.00068 0.002094
0.002028 0.000611 0.002087
0.002063 0.000545 0.002095
0.001507 0.000496 0.002457
0.001492 0.000504 0.002304
0.001502 0.000479 0.002363
0.00122 0.000665 0.002619
0.001451 0.000576 0.002639
0.002097 5.6e-05 0.002092
0.002119 5.2e-05 0.002079
0.002138 4.9e-05 0.002064
0.002157 4.8e-05 0.002047
0.002174 4.7e-05 0.002029
0.00219 4.6e-05 0.002011
0.002205 4.7e-05 0.001991
0.00222 4.8e-05 0.001971
0.002232 5e-05 0.001949
0.002239 5.5e-05 0.001924
0.002237 6.6e-05 0.001889
0.002224 8.3e-05 0.001847
0.00221 0.000101 0.001804
0.002189 0.000123 0.001754
0.001668 -3.3e-05 0.001261
0.001653 -3.3e-05 0.001281
0.002036 0.000301 0.001342
0.002051 0.000301 0.001322
0.002069 0.0003 0.001305
0.00209 0.000297 0.00129
0.002116 0.00029 0.001279
0.002148 0.00028 0.001274
0.002197 0.00026 0.001282
0.002251 0.000237 0.001295
0.002302 0.000215 0.001305
0.002351 0.000195 0.001314
0.002394 0.000179 0.001317
0.002434 0.000165 0.001318
0.002473 0.00015 0.001318
0.002512 0.000137 0.001318
0.002549 0.000124 0.001317
0.001696 0.000589 0.001947
0.001746 0.0007 0.001977
0.001955 0.000693 0.002066
0.001993 0.000706 0.002077
0.000606 0.000691 0.002881
0.001836 0.000659 0.002022
0.000889 0.000549 0.002313
0.001605 0.000657 0.001901
0.001637 -3.3e-05 0.0013
0.001448 0.000669 0.001977
0.001502 0.000642 0.002362
0.002085 3.6e-05 0.002082
0.002106 3.2e-05 0.002069
0.002125 3e-05 0.002053
0.002143 2.9e-05 0.002036
0.00216 2.8e-05 0.002018
0.002177 2.7e-05 0.002
0.002192 2.8e-05 0.00198
0.002206 2.9e-05 0.00196
0.002219 3e-05 0.001939
0.002229 3.4e-05 0.001915
0.002232 4.1e-05 0.001885
0.002223 5.7e-05 0.001846
0.001621 -3.3e-05 0.001319
0.001606 -3.3e-05 0.001338
0.002036 0.000274 0.001341
0.002051 0.000274 0.001322
0.002069 0.000273 0.001305
0.00209 0.000269 0.00129
0.002116 0.000263 0.00128
0.002148 0.000253 0.001274
0.002195 0.000234 0.001281
0.002251 0.00021 0.001295
0.002303 0.000188 0.001306
0.00235 0.000169 0.001313
0.002393 0.000153 0.001316
0.002434 0.000137 0.001318
0.002474 0.000123 0.001319
0.002511 0.00011 0.001318
0.002549 9.6e-05 0.001318
0.001746 0.000645 0.001977
0.001187 0.000707 0.002595
0.001472 0.000603 0.002625
0.001506 0.000686 0.002457
0.001955 0.00072 0.002065
0.000633 0.000504 0.002803
0.000665 0.000616 0.002663
0.001746 0.000619 0.001976
0.000657 0.000593 0.002717
0.00068 0.000611 0.002547
0.001448 0.000642 0.001977
0.001005 0.000398 0.002431
0.002069 1.9e-05 0.002069
0.002089 1.6e-05 0.002055
0.002108 1.3e-05 0.002039
0.002126 1.2e-05 0.002021
0.002143 1.1e-05 0.002003
0.002159 1.1e-05 0.001985
0.002174 1.1e-05 0.001965
0.002189 1.2e-05 0.001945
0.002202 1.3e-05 0.001925
0.002213 1.6e-05 0.001902
0.002219 2.2e-05 0.001875
0.002219 3.1e-05 0.001843
0.00221 4.6e-05 0.001804
0.002036 0.000246 0.001341
0.002051 0.000247 0.001322
0.002068 0.000246 0.001304
0.00209 0.000242 0.00129
0.002116 0.000236 0.001279
0.002148 0.000226 0.001274
0.002196 0.000206 0.001282
0.002251 0.000183 0.001295
0.002303 0.000161 0.001306
0.002351 0.000141 0.001314
0.002393 0.000126 0.001316
0.002434 0.00011 0.001318
0.002473 9.6e-05 0.001318
0.002511 8.3e-05 0.001318
0.002548 7e-05 0.00132
0.000839 0.000728 0.002307
0.001436 0.000754 0.002048
0.001992 0.000679 0.002077
0.001506 0.000669 0.002501
0.001505 0.000654 0.002542
0.001253 0.000434 0.002638
0.00062 0.000488 0.002843
0.001836 0.000577 0.002022
0.001793 0.000596 0.002002
0.001502 0.000588 0.002362
0.001506 0.000567 0.002413
0.001449 0.00066 0.002635
0.002045 6e-06 0.00205
0.002063 5e-06 0.002033
0.00208 4e-06 0.002016
0.002096 3e-06 0.001997
0.002111 3e-06 0.001978
0.002127 3e-06 0.001958
0.002143 3e-06 0.00194
0.002159 3e-06 0.001921
0.002173 3e-06 0.001901
0.002187 5e-06 0.00188
0.002199 7e-06 0.001858
0.002205 1.3e-05 0.001832
0.002203 2.4e-05 0.001798
0.002187 4.3e-05 0.001753
0.002158 6.9e-05 0.001697
0.00159 -3.3e-05 0.001357
0.001574 -3.3e-05 0.001376
0.002036 0.000219 0.001341
0.002051 0.00022 0.001322
0.002068 0.000218 0.001304
0.00209 0.000215 0.00129
0.002115 0.000209 0.001279
0.002148 0.000199 0.001274
0.002197 0.000178 0.001283
0.002251 0.000156 0.001295
0.002302 0.000134 0.001305
0.002351 0.000114 0.001313
0.002392 9.9e-05 0.001315
0.002435 8.3e-05 0.001318
0.002472 6.9e-05 0.001318
0.002511 5.6e-05 0.001317
0.002547 4.3e-05 0.001318
0.001547 0.000726 0.001904
0.001492 0.00064 0.002305
0.001493 0.000721 0.002305
0.001501 0.00064 0.00258
0.002099 0.000669 0.002102
0.00143 0.000496 0.002651
0.000646 0.000248 0.002763
0.001504 0.00041 0.002541
0.001435 0.000635 0.002003
0.001969 6e-06 0.002052
0.001989 3e-06 0.002037
0.002005 2e-06 0.002018
0.002021 1e-06 0.001999
0.001464 0.000673 0.001956
0.001506 0.000452 0.0025
0.002069 2e-06 0.001942
0.002085 1e-06 0.001924
0.002101 1e-06 0.001906
0.002118 1e-06 0.001887
0.002133 1e-06 0.001868
0.002148 1e-06 0.001848
0.002163 2e-06 0.001829
0.002178 2e-06 0.001809
0.002185 7e-06 0.001783
0.00218 2e-05 0.001747
0.00216 4.1e-05 0.001698
0.001558 -3.3e-05 0.001395
0.002036 0.000192 0.001341
0.00205 0.000193 0.001321
0.002068 0.000191 0.001304
0.002089 0.000188 0.00129
0.002115 0.000182 0.001279
0.002148 0.000171 0.001274
0.002196 0.000152 0.001282
0.00225 0.000129 0.001295
0.002302 0.000107 0.001305
0.00235 8.7e-05 0.001313
0.002392 7.2e-05 0.001315
0.002434 5.6e-05 0.001318
0.002473 4.2e-05 0.001318
0.002509 3e-05 0.001316
0.002541 1.8e-05 0.001311
0.000809 0.000482 0.002306
0.001502 0.000615 0.002363
0.001501 0.000697 0.002362
0.000666 0.000724 0.002665
0.000666 0.000398 0.002663
0.002098 0.000587 0.002104
0.00143 0.000468 0.002651
0.001793 0.000624 0.002002
0.001916 0.000491 0.002052
0.001507 0.000468 0.002457
0.001504 0.000437 0.002541
0.001931 1e-06 0.002021
0.001948 -0.0 0.002003
0.001965 -1e-06 0.001985
0.001981 -1e-06 0.001966
0.002103 1e-06 0.001811
0.002118 1e-06 0.001792
0.00215 1e-06 0.001754
0.002159 5e-06 0.00173
0.001542 -3.3e-05 0.001413
0.002036 0.000165 0.001341
0.002051 0.000166 0.001321
0.002068 0.000164 0.001304
0.002089 0.000161 0.00129
0.002116 0.000154 0.001279
0.002148 0.000144 0.001274
0.002195 0.000125 0.001281
0.002251 0.000101 0.001295
0.002303 7.9e-05 0.001305
0.00235 6e-05 0.001313
0.002393 4.4e-05 0.001316
0.002433 3e-05 0.001317
0.002468 1.7e-05 0.001314
0.002498 9e-06 0.001307
0.002522 4e-06 0.001295
0.001992 0.000461 0.002076
0.001696 0.000724 0.001947
0.001917 0.000708 0.002053
0.001916 0.000735 0.002052
0.000506 0.000638 0.00297
0.001045 0.000618 0.002475
0.001992 0.00057 0.002076
0.001464 0.000646 0.001956
0.001523 0.000647 0.001913
0.001852 3e-06 0.002019
0.00187 1e-06 0.002002
0.001885 1e-06 0.001983
0.001901 1e-06 0.001964
0.001917 1e-06 0.001945
0.001933 0.0 0.001927
0.00195 0.0 0.001908
0.001965 0.0 0.001889
0.001526 -3.2e-05 0.001432
0.00151 -3.2e-05 0.00145
0.001493 -3.2e-05 0.001469
0.001477 -3.1e-05 0.001487
0.00146 -3.1e-05 0.001505
0.002061 -1e-06 0.001777
0.002076 -0.0 0.001757
0.002091 -0.0 0.001738
0.002107 0.0 0.001718
0.002123 -0.0 0.0017
0.002132 4e-06 0.001675
0.002036 0.000138 0.001341
0.00205 0.000139 0.001321
0.002068 0.000137 0.001304
0.002089 0.000134 0.00129
0.002115 0.000127 0.001279
0.002148 0.000117 0.001274
0.002195 9.8e-05 0.001281
0.00225 7.4e-05 0.001294
0.002303 5.2e-05 0.001306
0.00235 3.3e-05 0.001312
0.002389 1.9e-05 0.001313
0.002423 8e-06 0.001309
0.002448 3e-06 0.001297
0.002465 2e-06 0.001279
0.002481 2e-06 0.001261
0.002499 0.0 0.001244
0.001502 0.000675 0.001925
0.001444 0.00073 0.002102
0.001877 0.000723 0.002039
0.001502 0.000724 0.002363
0.001507 0.000703 0.002414
0.001917 0.000653 0.002053
0.001793 0.00065 0.002003
0.001435 0.000689 0.002003
0.00072 0.000421 0.00235
0.000889 0.000413 0.002313
0.00183 -2e-06 0.001969
0.001845 -2e-06 0.001949
0.001861 -2e-06 0.001931
0.001875 -1e-06 0.001911
0.001891 -1e-06 0.001892
0.001907 -1e-06 0.001873
0.000673 0.000368 0.002607
0.001444 -3e-05 0.001524
0.002048 -1e-06 0.001702
0.002064 -1e-06 0.001683
0.00208 -2e-06 0.001665
0.002094 -1e-06 0.001644
0.002103 3e-06 0.00162
0.001427 -3e-05 0.001542
0.002035 0.000111 0.001341
0.00205 0.000111 0.001321
0.002068 0.00011 0.001304
0.002089 0.000107 0.001289
0.002115 0.0001 0.001279
0.002147 9e-05 0.001273
0.002195 7.1e-05 0.001281
0.00225 4.7e-05 0.001294
0.002305 2.4e-05 0.001307
0.002344 1e-05 0.001308
0.002373 1e-06 0.0013
0.002392 -1e-06 0.001283
0.002408 -1e-06 0.001264
0.002424 -0.0 0.001245
0.002437 1e-06 0.001225
0.002452 1e-06 0.001205
0.001492 0.000441 0.00261
0.001465 0.000696 0.002177
0.001506 0.000676 0.002413
0.001495 0.000699 0.002572
0.002115 0.000726 0.002081
0.001455 0.000749 0.002118
0.001604 0.000739 0.001901
0.001506 0.000459 0.002412
0.001429 0.000624 0.002037
0.001781 0.0 0.001929
0.001796 0.0 0.00191
0.001434 0.000726 0.002614
0.001844 0.0 0.001853
0.00186 -0.0 0.001835
0.001876 -1e-06 0.001816
0.001153 0.000561 0.002569
0.001502 0.000506 0.002363
0.001435 0.000662 0.002003
0.000575 0.000612 0.002944
0.001954 -0.0 0.001721
0.00143 0.000414 0.002651
0.000606 0.000474 0.002879
0.002001 -0.0 0.001664
0.002016 0.0 0.001644
0.002033 -0.0 0.001626
0.00205 -1e-06 0.001608
0.002066 -1e-06 0.001589
0.002075 3e-06 0.001565
0.002035 8.4e-05 0.001341
0.00205 8.4e-05 0.001321
0.002068 8.3e-05 0.001304
0.002089 8e-05 0.001289
0.002115 7.3e-05 0.001279
0.002147 6.3e-05 0.001273
0.002195 4.4e-05 0.001281
0.002252 1.9e-05 0.001296
0.002294 3e-06 0.001298
0.002334 -2e-06 0.001267
0.002351 -3e-06 0.001249
0.001473 0.000439 0.002627
0.001506 0.000578 0.002457
0.002091 0.000729 0.00209
0.001504 0.000709 0.00254
0.001481 0.000694 0.002595
0.00143 0.000577 0.002651
0.001187 0.00068 0.002595
0.001506 0.000523 0.002457
0.002029 0.000448 0.002087
0.001502 0.000648 0.001925
0.001744 -4e-06 0.001898
0.00176 -5e-06 0.00188
0.001414 0.000726 0.002628
0.001793 0.000569 0.002002
0.001482 0.000675 0.00194
0.000592 0.000189 0.002913
0.001487 0.000662 0.002603
0.001468 0.00066 0.00262
0.001427 0.00066 0.002647
0.001888 -6e-06 0.00173
0.001904 -6e-06 0.001711
0.00192 -7e-06 0.001692
0.001501 0.00045 0.00258
0.001998 -7e-06 0.001597
0.002014 -7e-06 0.001578
0.002029 -6e-06 0.001559
0.002042 -5e-06 0.001538
0.002035 5.7e-05 0.00134
0.00205 5.7e-05 0.001321
0.002068 5.6e-05 0.001304
0.002089 5.3e-05 0.00129
0.002115 4.6e-05 0.001278
0.002146 3.7e-05 0.001272
0.00226 -4e-06 0.00127
0.002273 -2e-06 0.001249
0.002318 -1e-06 0.001191
0.002332 0.0 0.00117
0.002349 -0.0 0.001152
0.001425 4.7e-05 0.002019
0.001435 5.1e-05 0.001995
0.001447 5.3e-05 0.001973
0.001462 5.3e-05 0.001954
0.001463 0.000692 0.002612
0.000646 0.000737 0.002764
0.001491 0.000522 0.00261
0.001605 0.000712 0.001901
0.001955 0.000475 0.002066
0.001408 0.000388 0.002662
0.001502 0.000702 0.001926
0.001454 0.000727 0.002598
0.001731 -5e-06 0.001824
0.001746 -4e-06 0.001804
0.001045 0.000699 0.002474
0.001992 0.000652 0.002078
0.000687 0.000743 0.002491
0.001822 -3e-06 0.001708
0.00184 -4e-06 0.00169
0.001854 -3e-06 0.00167
0.00187 -3e-06 0.001651
0.001886 -4e-06 0.001632
0.001917 -4e-06 0.001595
0.001931 -3e-06 0.001574
0.001948 -3e-06 0.001556
0.001964 -4e-06 0.001537
0.001982 -5e-06 0.00152
0.002114 1.9e-05 0.001278
0.002147 9e-06 0.001273
0.001429 0.000678 0.002037
0.002218 -6e-06 0.001236
0.002235 -6e-06 0.001218
0.002251 -6e-06 0.001199
0.002284 -8e-06 0.001163
0.002298 -6e-06 0.001142
0.002313 -6e-06 0.001122
0.002327 -5e-06 0.001102
0.001424 2e-05 0.002018
0.001434 2.4e-05 0.001994
0.001447 2.6e-05 0.001973
0.001462 2.6e-05 0.001953
0.001393 0.000618 0.00267
0.000688 0.000723 0.002413
0.001501 0.000531 0.00258
0.001443 0.000692 0.002626
0.001582 1e-06 0.001893
0.00143 0.000441 0.002651
0.001664 -2e-06 0.001801
0.001681 -2e-06 0.001783
0.001696 -2e-06 0.001763
0.001712 -2e-06 0.001745
0.001574 0.00072 0.0019
0.001744 -2e-06 0.001707
0.001759 -2e-06 0.001687
0.001422 0.000692 0.002639
0.001506 0.000741 0.002456
0.001806 -2e-06 0.001631
0.001823 -3e-06 0.001613
0.001839 -2e-06 0.001593
0.001854 -2e-06 0.001574
0.001869 -2e-06 0.001555
0.001885 -2e-06 0.001536
0.001901 -2e-06 0.001517
0.001916 -3e-06 0.001498
0.002016 5e-06 0.001356
0.002031 6e-06 0.001336
0.002065 3e-06 0.001301
0.00217 -4e-06 0.001196
0.002185 -3e-06 0.001177
0.002199 -2e-06 0.001156
0.002269 -6e-06 0.001086
0.002282 -5e-06 0.001065
0.001412 0.0 0.002008
0.001428 0.0 0.001989
0.001441 2e-06 0.001968
0.001457 2e-06 0.001949
0.001877 0.000642 0.002039
0.001746 0.000564 0.001978
0.000834 0.000723 0.002306
0.001153 0.000398 0.002568
0.001545 -4e-06 0.001862
0.001561 -4e-06 0.001844
0.001578 -5e-06 0.001825
0.001594 -5e-06 0.001807
0.00161 -5e-06 0.001788
0.001626 -5e-06 0.00177
0.001643 -6e-06 0.001751
0.00166 -7e-06 0.001733
0.001676 -7e-06 0.001715
0.001692 -7e-06 0.001696
0.001708 -8e-06 0.001678
0.001725 -8e-06 0.001659
0.001741 -8e-06 0.001641
0.001153 0.000615 0.002569
0.001467 0.000667 0.00218
0.000606 0.000203 0.002878
0.001286 0.000366 0.00266
0.001822 -1e-05 0.001548
0.001836 -9e-06 0.001527
0.001852 -9e-06 0.001508
0.001869 -1e-05 0.001491
0.001883 -9e-06 0.001471
0.001944 -8e-06 0.001393
0.00196 -8e-06 0.001374
0.001975 -7e-06 0.001355
0.001989 -7e-06 0.001335
0.002004 -6e-06 0.001315
0.002019 -6e-06 0.001295
0.002035 -6e-06 0.001277
0.002064 -4e-06 0.001236
0.002109 -3e-06 0.001178
0.002124 -3e-06 0.001158
0.002138 -2e-06 0.001138
0.002063 0.000518 0.002094
0.001473 0.000728 0.002582
0.001393 -6e-06 0.001961
0.001411 -7e-06 0.001943
0.001429 -8e-06 0.001926
0.001444 -8e-06 0.001907
0.001574 0.000639 0.0019
0.000576 0.000367 0.002945
0.001696 0.000697 0.001947
0.001524 -8e-06 0.001813
0.001538 -7e-06 0.001793
0.002063 0.00049 0.002095
0.001571 -9e-06 0.001756
0.001586 -9e-06 0.001737
0.001601 -8e-06 0.001717
0.001618 -9e-06 0.001699
0.001631 -8e-06 0.001678
0.001647 -8e-06 0.001659
0.00166 -6e-06 0.001638
0.001678 -7e-06 0.001621
0.001693 -7e-06 0.001601
0.002063 0.000626 0.002095
0.001917 0.000599 0.002053
0.001877 0.000533 0.002038
0.001506 0.000479 0.0025
0.001835 -7e-06 0.001431
0.00185 -7e-06 0.001411
0.001867 -7e-06 0.001393
0.001882 -7e-06 0.001374
0.001899 -8e-06 0.001356
0.001915 -8e-06 0.001337
0.001946 -8e-06 0.001299
0.001963 -9e-06 0.001281
0.001978 -9e-06 0.001262
0.001993 -8e-06 0.001242
0.00201 -9e-06 0.001224
0.002025 -8e-06 0.001205
0.002042 -9e-06 0.001186
0.002058 -9e-06 0.001168
0.002075 -1e-05 0.00115
0.002091 -1e-05 0.001131
0.002106 -1e-05 0.001112
0.002121 -9e-06 0.001092
0.002135 -8e-06 0.001072
0.001335 -7e-06 0.001945
0.001352 -8e-06 0.001926
0.001369 -9e-06 0.001909
0.001384 -9e-06 0.001889
0.001399 -8e-06 0.001869
0.001547 0.000671 0.001904
0.00148 0.000612 0.002243
0.001746 0.000673 0.001977
0.001481 0.000639 0.002244
0.001492 0.000613 0.002304
0.000531 0.000364 0.002967
0.00155 -4e-06 0.001675
0.001564 -4e-06 0.001655
0.001579 -3e-06 0.001635
0.001595 -3e-06 0.001616
0.001611 -3e-06 0.001597
0.001626 -3e-06 0.001578
0.001221 0.000583 0.002619
0.001347 0.000535 0.002687
0.001408 0.00047 0.002662
0.001506 0.000486 0.002413
0.000555 0.000364 0.002961
0.001452 0.000386 0.002639
0.001782 -3e-06 0.001387
0.001798 -3e-06 0.001369
0.001813 -2e-06 0.001349
0.001831 -4e-06 0.001332
0.001847 -4e-06 0.001313
0.001864 -4e-06 0.001295
0.00191 -4e-06 0.001238
0.001928 -6e-06 0.001221
0.001945 -6e-06 0.001202
0.00196 -6e-06 0.001183
0.001977 -6e-06 0.001165
0.001992 -6e-06 0.001145
0.002008 -6e-06 0.001127
0.002025 -7e-06 0.001109
0.002041 -7e-06 0.00109
0.002057 -7e-06 0.001071
0.002073 -8e-06 0.001053
0.002091 -9e-06 0.001035
0.002105 -8e-06 0.001015
0.002122 -9e-06 0.000997
0.001285 -4e-06 0.001903
0.001301 -4e-06 0.001885
0.001317 -4e-06 0.001866
0.001332 -4e-06 0.001847
0.001506 0.000551 0.002456
0.001506 0.000534 0.0025
0.001507 0.00054 0.002413
0.000531 0.000175 0.002966
0.001836 0.000686 0.002022
0.001836 0.000632 0.002022
0.000591 0.000217 0.002913
0.001877 0.000506 0.002038
0.001605 0.00063 0.001901
0.001503 -3e-06 0.001636
0.001518 -3e-06 0.001617
0.001535 -4e-06 0.001599
0.00155 -4e-06 0.00158
0.001567 -4e-06 0.001561
0.001582 -4e-06 0.001541
0.001597 -4e-06 0.001522
0.001614 -4e-06 0.001504
0.000506 0.000584 0.002971
0.001646 -4e-06 0.001467
0.001661 -4e-06 0.001447
0.001677 -4e-06 0.001428
0.001693 -5e-06 0.00141
0.001708 -4e-06 0.00139
0.001724 -4e-06 0.001372
0.00174 -4e-06 0.001353
0.001755 -4e-06 0.001333
0.00177 -4e-06 0.001314
0.001786 -4e-06 0.001295
0.001802 -4e-06 0.001276
0.001818 -4e-06 0.001257
0.001833 -4e-06 0.001238
0.001849 -4e-06 0.001219
0.001865 -4e-06 0.0012
0.001879 -3e-06 0.00118
0.001895 -3e-06 0.001161
0.00191 -3e-06 0.001141
0.001925 -3e-06 0.001122
0.001942 -3e-06 0.001104
0.001958 -3e-06 0.001085
0.001974 -3e-06 0.001067
0.001991 -4e-06 0.001048
0.002006 -4e-06 0.001029
0.002021 -4e-06 0.00101
0.002038 -4e-06 0.000992
0.002055 -5e-06 0.000974
0.002071 -5e-06 0.000955
0.000673 0.00064 0.002607
0.00074 0.000507 0.002333
0.001251 -2e-06 0.001844
0.001269 -3e-06 0.001827
0.001187 0.000354 0.002595
0.001524 0.000702 0.001913
0.001491 0.000577 0.002609
0.001505 0.000518 0.002542
0.001492 0.000694 0.002305
0.001506 0.000649 0.002413
0.001506 0.000632 0.002457
0.001753 0.000748 0.001987
0.001506 0.000588 0.002501
0.001502 0.000558 0.002581
0.001451 -8e-06 0.001625
0.001466 -8e-06 0.001606
0.001483 -9e-06 0.001588
0.001499 -9e-06 0.001569
0.001515 -1e-05 0.001551
0.001532 -1e-05 0.001532
0.001548 -1e-05 0.001514
0.001564 -1.1e-05 0.001495
0.00158 -1.1e-05 0.001476
0.001596 -1.1e-05 0.001458
0.001612 -1.1e-05 0.001439
0.001628 -1.1e-05 0.00142
0.001644 -1.1e-05 0.001401
0.001659 -1.1e-05 0.001382
0.001675 -1.1e-05 0.001363
0.001691 -1.1e-05 0.001344
0.001707 -1.1e-05 0.001325
0.001722 -1.1e-05 0.001306
0.001738 -1.1e-05 0.001287
0.001753 -1.1e-05 0.001267
0.001768 -1.1e-05 0.001248
0.001782 -1e-05 0.001228
0.001798 -1e-05 0.001209
0.001813 -9e-06 0.00119
0.001828 -9e-06 0.00117
0.001843 -9e-06 0.00115
0.001857 -8e-06 0.00113
0.001872 -7e-06 0.001111
0.001888 -7e-06 0.001092
0.001902 -7e-06 0.001072
0.001918 -6e-06 0.001052
0.001932 -5e-06 0.001032
0.001947 -5e-06 0.001013
0.001963 -5e-06 0.000994
0.001978 -5e-06 0.000974
0.001991 -3e-06 0.000954
0.002007 -3e-06 0.000935
0.002024 -4e-06 0.000917
0.001877 0.000588 0.002038
0.001473 0.000494 0.002626
0.001492 0.000495 0.00261
0.000685 0.00072 0.002483
0.001502 0.000585 0.002581
0.001473 0.000576 0.002626
0.001472 0.000745 0.002187
0.001501 0.00067 0.002362
0.001506 0.000615 0.0025
0.00173 0.00075 0.001998
0.001118 0.000633 0.00254
0.001504 0.000573 0.002541
0.001491 0.00055 0.00261
0.001408 0.000551 0.002662
0.001436 -1.7e-05 0.001581
0.001453 -1.8e-05 0.001563
0.00147 -1.9e-05 0.001545
0.001486 -1.9e-05 0.001527
0.001503 -2e-05 0.001508
0.001519 -2e-05 0.00149
0.001536 -2.1e-05 0.001472
0.001552 -2.1e-05 0.001453
0.001568 -2.1e-05 0.001434
0.001584 -2.1e-05 0.001416
0.001599 -2.1e-05 0.001396
0.001615 -2.1e-05 0.001377
0.001631 -2.1e-05 0.001359
0.001647 -2.1e-05 0.00134
0.001662 -2.1e-05 0.001321
0.001677 -2.1e-05 0.001301
0.001693 -2.1e-05 0.001282
0.001708 -2.1e-05 0.001263
0.001723 -2e-05 0.001243
0.001738 -2e-05 0.001224
0.001754 -2e-05 0.001204
0.001768 -1.9e-05 0.001185
0.001783 -1.9e-05 0.001165
0.001798 -1.8e-05 0.001145
0.001813 -1.8e-05 0.001126
0.001871 -1.5e-05 0.001046
0.001885 -1.4e-05 0.001026
0.0019 -1.3e-05 0.001006
0.001957 -1e-05 0.000925
0.001971 -9e-06 0.000905
0.001986 -8e-06 0.000885
0.001955 0.000503 0.002065
0.001408 0.000415 0.002663
0.001524 0.000674 0.001913
0.001482 0.000702 0.00194
0.001507 0.000513 0.002413
0.000507 0.000366 0.002971
0.000834 0.000696 0.002305
0.000555 0.0005 0.00296
0.000554 0.000609 0.002958
0.001386 0.000362 0.002674
0.001408 0.000361 0.002662
0.00143 0.00036 0.002651
0.001452 0.000358 0.002639
0.001473 0.000358 0.002627
0.001492 0.000359 0.00261
0.001501 0.000368 0.00258
0.001504 0.000383 0.002541
0.001506 0.000398 0.0025
0.001507 0.000414 0.002457
0.001506 0.000432 0.002412
0.001502 0.000452 0.002362
0.001492 0.000477 0.002304
0.00143 0.000596 0.002038
0.001435 0.000608 0.002003
0.001448 0.000615 0.001976
0.001464 0.000619 0.001956
0.001482 0.000621 0.00194
0.001502 0.000621 0.001925
0.001523 0.00062 0.001912
0.001547 0.000617 0.001903
0.001574 0.000612 0.0019
0.001604 0.000603 0.0019
0.001644 0.000587 0.001915
0.001696 0.000561 0.001947
0.001745 0.000537 0.001976
0.001793 0.000515 0.002002
0.001835 0.000497 0.002021
0.001877 0.00048 0.002037
0.001916 0.000464 0.002051
0.001955 0.000448 0.002065
0.001992 0.000434 0.002076
0.002029 0.00042 0.002087
0.002064 0.000409 0.002095
0.002099 0.000396 0.002104
0.000785 0.000482 0.002313
0.001371 0.000453 0.002681
0.000889 0.000522 0.002313
0.000531 0.000391 0.002967
0.000507 0.000393 0.002971
0.00074 0.000724 0.002334
0.001187 0.000653 0.002595
0.000552 0.000667 0.002951
0.001386 0.000335 0.002674
0.001408 0.000334 0.002662
0.00143 0.000333 0.002651
0.001452 0.000331 0.002639
0.001473 0.00033 0.002627
0.001492 0.000332 0.00261
0.001501 0.000341 0.00258
0.001504 0.000356 0.00254
0.001506 0.000371 0.0025
0.001507 0.000387 0.002458
0.001506 0.000405 0.002412
0.001502 0.000425 0.002362
0.001429 0.000569 0.002037
0.001435 0.000581 0.002003
0.001447 0.000588 0.001976
0.001464 0.000592 0.001956
0.001482 0.000593 0.001939
0.001502 0.000594 0.001925
0.001523 0.000593 0.001912
0.001547 0.00059 0.001903
0.001574 0.000585 0.001899
0.001604 0.000576 0.0019
0.001644 0.00056 0.001915
0.001695 0.000535 0.001946
0.001745 0.00051 0.001976
0.001792 0.000488 0.002001
0.001836 0.000469 0.002022
0.001877 0.000452 0.002038
0.001916 0.000436 0.002052
0.001955 0.000421 0.002065
0.001993 0.000407 0.002076
0.002029 0.000393 0.002086
0.002064 0.000381 0.002095
0.002099 0.000369 0.002104
0.000646 0.000411 0.002763
0.001393 0.000455 0.00267
0.001347 0.000454 0.002687
0.000507 0.000203 0.002971
0.000531 0.000201 0.002966
0.000634 0.000476 0.002804
0.00062 0.000542 0.002843
0.00122 0.000638 0.002619
0.000574 0.00067 0.002939
0.001386 0.000308 0.002674
0.001408 0.000306 0.002662
0.00143 0.000305 0.002651
0.001452 0.000304 0.002639
0.001473 0.000303 0.002626
0.001492 0.000305 0.00261
0.001501 0.000314 0.00258
0.001504 0.000328 0.002541
0.001507 0.000343 0.0025
0.001507 0.00036 0.002457
0.001506 0.000377 0.002413
0.001501 0.000398 0.002362
0.00143 0.000542 0.002038
0.001435 0.000554 0.002002
0.001447 0.000561 0.001976
0.001463 0.000565 0.001956
0.001482 0.000566 0.001939
0.001502 0.000567 0.001925
0.001523 0.000566 0.001912
0.001546 0.000563 0.001903
0.001574 0.000558 0.001899
0.001604 0.000549 0.0019
0.001645 0.000533 0.001915
0.001695 0.000508 0.001946
0.001745 0.000483 0.001976
0.001793 0.00046 0.002003
0.001837 0.000441 0.002022
0.001878 0.000424 0.002039
0.001916 0.000409 0.002052
0.001955 0.000394 0.002065
0.001993 0.000379 0.002077
0.002029 0.000366 0.002086
0.002064 0.000354 0.002096
0.002099 0.000342 0.002105
0.000719 0.000475 0.00235
0.000657 0.000511 0.002717
0.000666 0.000534 0.002663
0.001318 0.000271 0.002679
0.000834 0.000507 0.002303
0.000576 0.000395 0.002945
0.001153 0.000588 0.002568
0.001317 0.000571 0.002678
0.001153 0.000696 0.002569
0.001386 0.000281 0.002674
0.001408 0.000279 0.002662
0.00143 0.000278 0.002651
0.001452 0.000277 0.002639
0.001473 0.000276 0.002627
0.001492 0.000278 0.00261
0.001501 0.000287 0.00258
0.001505 0.000301 0.002541
0.001506 0.000316 0.0025
0.001507 0.000333 0.002457
0.001507 0.00035 0.002413
0.001502 0.000371 0.002362
0.001491 0.000396 0.002303
0.001466 0.000451 0.002178
0.001444 0.000486 0.002103
0.00143 0.000514 0.002038
0.001435 0.000527 0.002002
0.001447 0.000533 0.001976
0.001463 0.000538 0.001956
0.001482 0.000539 0.001939
0.001502 0.00054 0.001924
0.001523 0.000539 0.001912
0.001546 0.000536 0.001903
0.001574 0.000531 0.001899
0.001604 0.000522 0.0019
0.001645 0.000505 0.001916
0.001695 0.00048 0.001946
0.001746 0.000456 0.001976
0.001794 0.000433 0.002003
0.001837 0.000414 0.002022
0.001877 0.000397 0.002038
0.001917 0.000382 0.002052
0.001955 0.000367 0.002065
0.001993 0.000352 0.002077
0.002029 0.00034 0.002086
0.002064 0.000327 0.002095
0.002099 0.000315 0.002105
0.001221 0.000339 0.002618
0.000762 0.000536 0.002321
0.00074 0.000534 0.002333
0.001347 0.000263 0.002688
0.000576 0.000286 0.002945
0.001347 0.000481 0.002687
0.001082 0.000624 0.00251
0.000633 0.000585 0.002803
0.000431 0.000645 0.002978
0.001408 0.000252 0.002662
0.00143 0.000251 0.002651
0.001452 0.00025 0.002639
0.001473 0.000249 0.002626
0.001492 0.000251 0.00261
0.001501 0.00026 0.00258
0.001504 0.000274 0.002541
0.001506 0.000289 0.0025
0.001506 0.000306 0.002456
0.001506 0.000323 0.002413
0.001502 0.000344 0.002362
0.001465 0.000425 0.002177
0.001442 0.00046 0.0021
0.00143 0.000487 0.002038
0.001435 0.000499 0.002002
0.001447 0.000506 0.001976
0.001463 0.000511 0.001955
0.001482 0.000512 0.001939
0.001502 0.000513 0.001924
0.001523 0.000512 0.001912
0.001546 0.000509 0.001902
0.001573 0.000504 0.001898
0.001604 0.000495 0.0019
0.001645 0.000478 0.001915
0.001696 0.000453 0.001947
0.001745 0.000429 0.001975
0.001794 0.000405 0.002003
0.001837 0.000387 0.002022
0.001878 0.00037 0.002039
0.001917 0.000354 0.002053
0.001955 0.000339 0.002065
0.001993 0.000325 0.002077
0.002029 0.000312 0.002086
0.002064 0.0003 0.002095
0.002099 0.000288 0.002104
0.000555 0.000309 0.00296
0.000673 0.000558 0.002606
0.000785 0.000591 0.002313
0.00062 0.00038 0.002842
0.00072 0.000692 0.002351
0.001393 0.000482 0.00267
0.000482 0.000477 0.002974
0.001252 0.000624 0.002642
0.001408 0.000225 0.002662
0.00143 0.000224 0.002651
0.001452 0.000223 0.002638
0.001473 0.000222 0.002626
0.001492 0.000224 0.002609
0.001501 0.000233 0.00258
0.001504 0.000247 0.00254
0.001506 0.000262 0.0025
0.001506 0.000279 0.002456
0.001506 0.000296 0.002412
0.001501 0.000317 0.002361
0.001492 0.000342 0.002303
0.00143 0.00046 0.002038
0.001435 0.000472 0.002002
0.001447 0.000479 0.001976
0.001463 0.000483 0.001955
0.001482 0.000485 0.001939
0.001502 0.000485 0.001924
0.001523 0.000485 0.001912
0.001546 0.000482 0.001902
0.001573 0.000476 0.001898
0.001604 0.000468 0.0019
0.001644 0.000452 0.001915
0.001696 0.000426 0.001946
0.001745 0.000402 0.001976
0.001794 0.000378 0.002004
0.001837 0.000359 0.002023
0.001878 0.000342 0.002039
0.001917 0.000327 0.002053
0.001956 0.000312 0.002065
0.001993 0.000298 0.002077
0.002029 0.000285 0.002086
0.002064 0.000272 0.002095
0.002099 0.00026 0.002105
0.000679 0.00053 0.002546
0.000679 0.000584 0.002546
0.000762 0.000699 0.002322
0.000809 0.00059 0.002306
0.000634 0.000395 0.002804
0.000482 0.000395 0.002975
0.001347 0.000426 0.002687
0.001318 0.000434 0.002678
0.000555 0.000418 0.002961
0.001044 0.000645 0.002474
0.001118 0.000714 0.002541
0.00143 0.000197 0.002651
0.001452 0.000196 0.002639
0.001473 0.000195 0.002625
0.001491 0.000197 0.002609
0.001501 0.000206 0.002579
0.001504 0.00022 0.002541
0.001506 0.000235 0.0025
0.001506 0.000252 0.002456
0.001506 0.000269 0.002412
0.001501 0.00029 0.002361
0.001492 0.000314 0.002304
0.00143 0.000433 0.002037
0.001435 0.000445 0.002002
0.001447 0.000452 0.001976
0.001463 0.000456 0.001955
0.001482 0.000458 0.001939
