-0.002009 -1e-06 0.001665
-0.001993 -1e-06 0.001684
-0.001977 -1e-06 0.001702
-0.001962 -2e-06 0.001722
-0.001945 -2e-06 0.00174
-0.001928 -1e-06 0.001758
-0.001912 -1e-06 0.001777
-0.001898 -3e-06 0.001797
-0.001585 -3.1e-05 0.00136
-0.001601 -3.1e-05 0.001342
-0.001766 -1e-06 0.001943
-0.001741 5e-06 0.001954
-0.001522 9e-05 0.001927
-0.001504 9.1e-05 0.001943
-0.001487 9.2e-05 0.001961
-0.001473 9.1e-05 0.001981
-0.001463 8.7e-05 0.002006
-0.001457 8e-05 0.002034
-0.001459 6.9e-05 0.002068
-0.001473 5e-05 0.002113
-0.002741 0.000719 0.001194
-0.002339 -2e-06 0.001201
-0.002323 -3e-06 0.00122
-0.002307 -2e-06 0.001238
-0.002455 0.000628 0.001304
-0.002786 0.000494 0.001134
-0.002231 1.4e-05 0.001271
-0.002183 3.4e-05 0.001261
-0.002148 4.6e-05 0.001263
-0.002122 5.2e-05 0.001273
-0.0021 5.6e-05 0.001287
-0.002082 5.7e-05 0.001304
-0.002769 0.000704 0.001072
-0.00276 0.000687 0.001176
-0.002734 0.000658 0.001245
-0.002191 0.000744 0.001564
-0.002098 0.000677 0.001548
-0.002059 1e-06 0.001513
-0.002044 0.0 0.001532
-0.002028 -0.0 0.001551
-0.002013 -0.0 0.001571
-0.001996 -0.0 0.001588
-0.00198 -0.0 0.001607
-0.001964 -1e-06 0.001626
-0.001946 1e-06 0.001643
-0.00193 1e-06 0.001661
-0.001898 0.0 0.001699
-0.001882 0.0 0.001718
-0.001866 0.0 0.001736
-0.001617 -3.1e-05 0.001323
-0.001633 -3e-05 0.001304
-0.001801 0.0 0.00181
-0.001785 0.0 0.001829
-0.001649 -3e-05 0.001285
-0.001665 -3e-05 0.001266
-0.001722 -1e-06 0.001905
-0.001704 0.0 0.001922
-0.001504 6.4e-05 0.001943
-0.001487 6.4e-05 0.001962
-0.001473 6.3e-05 0.001982
-0.001463 5.9e-05 0.002006
-0.001457 5.3e-05 0.002034
-0.001458 4.2e-05 0.002067
-0.002293 -1e-06 0.001161
-0.002276 -0.0 0.001178
-0.002259 -0.0 0.001197
-0.002242 0.0 0.001215
-0.002777 0.000494 0.001157
-0.002209 1e-06 0.001251
-0.002182 7e-06 0.00126
-0.002147 1.9e-05 0.001262
-0.002121 2.5e-05 0.001272
-0.002099 2.9e-05 0.001286
-0.002081 3e-05 0.001303
-0.002692 0.000696 0.00128
-0.002053 2.7e-05 0.001344
-0.002042 2.4e-05 0.001368
-0.002996 0.000497 0.000258
-0.002778 0.000509 0.001076
-0.002043 0.000743 0.001468
-0.001998 1e-06 0.001492
-0.001981 2e-06 0.00151
-0.001965 2e-06 0.001528
-0.001948 2e-06 0.001546
-0.001931 3e-06 0.001564
-0.001917 1e-06 0.001585
-0.0019 2e-06 0.001603
-0.001884 2e-06 0.001621
-0.001835 -0.0 0.001676
-0.001754 2e-06 0.001769
-0.001737 2e-06 0.001788
-0.001504 3.7e-05 0.001944
-0.001487 3.8e-05 0.001962
-0.001474 3.6e-05 0.001982
-0.001464 3.2e-05 0.002006
-0.001457 2.6e-05 0.002034
-0.00146 1.4e-05 0.002069
-0.001465 1e-06 0.002106
-0.002261 2e-06 0.0011
-0.002244 2e-06 0.001119
-0.002227 3e-06 0.001136
-0.002212 2e-06 0.001155
-0.002196 2e-06 0.001174
-0.002388 0.000719 0.000569
-0.00215 0.0 0.001232
-0.002131 2e-06 0.001249
-0.002114 3e-06 0.001266
-0.002095 4e-06 0.001282
-0.002722 0.000631 0.001267
-0.002064 4e-06 0.00132
-0.00205 3e-06 0.001341
-0.002036 1e-06 0.001362
-0.002023 -0.0 0.001384
-0.002455 0.000655 0.001304
-0.002614 0.000508 0.001298
-0.002614 0.000535 0.001298
-0.002759 0.000574 0.001203
-0.002785 0.000664 0.001106
-0.002775 0.000673 0.001075
-0.001914 -4e-06 0.001517
-0.001898 -4e-06 0.001536
-0.001882 -4e-06 0.001555
-0.001866 -4e-06 0.001573
-0.00185 -5e-06 0.001592
-0.001834 -5e-06 0.001611
-0.00168 -3e-05 0.001247
-0.001687 -4e-06 0.001776
-0.00167 -3e-06 0.001794
-0.001503 1.1e-05 0.001942
-0.001486 1e-05 0.001961
-0.001472 9e-06 0.001981
-0.001459 7e-06 0.002003
-0.00145 3e-06 0.002027
-0.001439 -0.0 0.00205
-0.001424 -0.0 0.00207
-0.00222 -0.0 0.001064
-0.002205 -1e-06 0.001084
-0.00219 -2e-06 0.001104
-0.002176 -3e-06 0.001124
-0.002161 -4e-06 0.001144
-0.002146 -5e-06 0.001164
-0.00276 0.000725 0.001122
-0.002117 -7e-06 0.001204
-0.002102 -6e-06 0.001223
-0.002087 -5e-06 0.001242
-0.002752 0.00074 0.001064
-0.002565 0.000609 0.001303
-0.002429 0.000714 0.000507
-0.002022 -8e-06 0.001317
-0.002006 -8e-06 0.001336
-0.001988 -7e-06 0.001353
-0.001973 -7e-06 0.001372
-0.001956 -7e-06 0.00139
-0.001941 -8e-06 0.001409
-0.001925 -8e-06 0.001428
-0.002726 0.000543 0.001013
-0.002067 0.000699 0.001506
-0.00204 0.000734 0.001385
-0.002767 0.000493 0.00118
-0.002977 0.000528 0.00033
-0.001825 -6e-06 0.001538
-0.00181 -7e-06 0.001557
-0.001794 -7e-06 0.001575
-0.001762 -7e-06 0.001613
-0.001745 -7e-06 0.001631
-0.00165 -8e-06 0.001744
-0.001633 -7e-06 0.001762
-0.001617 -8e-06 0.001781
-0.0016 -7e-06 0.001799
-0.001583 -6e-06 0.001816
-0.001568 -7e-06 0.001836
-0.001503 -6e-06 0.00191
-0.001487 -6e-06 0.001928
-0.001469 -6e-06 0.001946
-0.001452 -5e-06 0.001964
-0.001434 -5e-06 0.001981
-0.001417 -4e-06 0.001998
-0.001399 -3e-06 0.002016
-0.002172 -7e-06 0.001055
-0.002158 -8e-06 0.001075
-0.002749 0.00052 0.001225
-0.0027 0.000556 0.001284
-0.00211 -9e-06 0.001132
-0.00209 -7e-06 0.001147
-0.002074 -7e-06 0.001166
-0.002457 0.00067 -0.000153
-0.002456 0.0006 0.001303
-0.002411 0.000718 0.000526
-0.00197 -3e-06 0.001272
-0.001956 -4e-06 0.001291
-0.001939 -4e-06 0.00131
-0.001922 -3e-06 0.001328
-0.001905 -3e-06 0.001346
-0.001888 -2e-06 0.001363
-0.001873 -3e-06 0.001383
-0.002699 0.000556 0.000986
-0.002369 0.000767 0.000642
-0.002516 0.000575 0.001307
-0.002659 0.00049 0.001292
-0.001759 -2e-06 0.001512
-0.001745 -4e-06 0.001533
-0.00171 -2e-06 0.001567
-0.001696 -3e-06 0.001588
-0.00158 -2e-06 0.001716
-0.001565 -2e-06 0.001735
-0.001551 -4e-06 0.001756
-0.001535 -4e-06 0.001775
-0.001696 -2.9e-05 0.001228
-0.001457 -6e-06 0.00187
-0.001442 -7e-06 0.00189
-0.001426 -7e-06 0.001909
-0.001411 -7e-06 0.001928
-0.001381 -9e-06 0.001967
-0.001362 -7e-06 0.001983
-0.001346 -7e-06 0.002002
-0.001711 -2.9e-05 0.001209
-0.00287 0.000491 0.000389
-0.002038 -2e-06 0.001101
-0.002022 -2e-06 0.001121
-0.001989 -2e-06 0.001157
-0.002714 0.000723 0.001236
-0.002193 0.000637 0.001695
-0.002414 0.000743 0.000527
-0.001906 -1e-06 0.001248
-0.001891 -1e-06 0.001268
-0.001875 -1e-06 0.001287
-0.001859 -1e-06 0.001305
-0.00184 0.0 0.001321
-0.001825 -0.0 0.001341
-0.002441 0.000761 0.000512
-0.002464 0.000755 0.000496
-0.002989 0.000524 0.000307
-0.001726 -2.8e-05 0.001189
-0.001645 0.0 0.001544
-0.001535 -1e-06 0.001677
-0.001519 -1e-06 0.001695
-0.001407 -2e-06 0.001827
-0.001391 -2e-06 0.001845
-0.001373 -1e-06 0.001862
-0.001311 -2e-06 0.001938
-0.001297 -4e-06 0.001959
-0.00209 -1e-06 0.000951
-0.002073 -1e-06 0.000969
-0.002057 -1e-06 0.000987
-0.002701 0.000528 0.001285
-0.002725 0.000521 0.001268
-0.00199 1e-06 0.00106
-0.001972 -0.0 0.001077
-0.001957 -0.0 0.001097
-0.001941 1e-06 0.001115
-0.001926 -0.0 0.001135
-0.00191 -0.0 0.001153
-0.002188 0.000692 0.001698
-0.002129 0.000738 0.001589
-0.002749 0.00072 0.001171
-0.001846 -0.0 0.001228
-0.001829 -0.0 0.001246
-0.001813 -1e-06 0.001265
-0.002566 0.000636 0.001303
-0.0027 0.000724 0.001257
-0.002536 0.000674 0.000475
-0.00175 -1e-06 0.001341
-0.001734 -1e-06 0.00136
-0.002781 0.00066 0.001131
-0.002909 0.000475 0.000369
-0.002491 0.000719 0.000481
-0.002536 0.000702 0.000475
-0.001654 -2e-06 0.001453
-0.001587 -1e-06 0.001526
-0.00149 -1e-06 0.001637
-0.001474 -1e-06 0.001655
-0.001457 -1e-06 0.001674
-0.001441 -0.0 0.001693
-0.001359 1e-06 0.001784
-0.001342 1e-06 0.001802
-0.00131 1e-06 0.001839
-0.001293 1e-06 0.001858
-0.001279 -0.0 0.001878
-0.001262 0.0 0.001896
-0.001245 1e-06 0.001914
-0.002385 0.000753 0.000676
-0.002028 0.0 0.000929
-0.002012 -1e-06 0.000949
-0.001996 -0.0 0.000967
-0.00198 -2e-06 0.000986
-0.00279 0.000606 0.001109
-0.002751 0.000687 0.001199
-0.001935 -2e-06 0.001044
-0.001919 -3e-06 0.001063
-0.001904 -3e-06 0.001082
-0.001889 -4e-06 0.001102
-0.001872 -4e-06 0.001121
-0.00274 0.000687 0.001221
-0.002749 0.000692 0.001035
-0.001826 -5e-06 0.001178
-0.001811 -6e-06 0.001197
-0.001796 -7e-06 0.001217
-0.00178 -7e-06 0.001236
-0.002774 0.000691 0.001128
-0.002784 0.000631 0.001133
-0.001733 -8e-06 0.001293
-0.001717 -8e-06 0.001312
-0.001701 -8e-06 0.001331
-0.001685 -8e-06 0.00135
-0.001669 -8e-06 0.001368
-0.001653 -9e-06 0.001387
-0.001637 -9e-06 0.001406
-0.001621 -9e-06 0.001424
-0.001605 -9e-06 0.001443
-0.001588 -9e-06 0.001461
-0.001572 -9e-06 0.00148
-0.001556 -9e-06 0.001499
-0.00154 -9e-06 0.001517
-0.001524 -8e-06 0.001535
-0.001489 -8e-06 0.001571
-0.001472 -7e-06 0.001589
-0.001457 -7e-06 0.001608
-0.00144 -7e-06 0.001626
-0.001422 -6e-06 0.001643
-0.001405 -5e-06 0.001661
-0.001337 -3e-06 0.001732
-0.00132 -2e-06 0.00175
-0.001302 -2e-06 0.001767
-0.001285 -1e-06 0.001785
-0.00127 -2e-06 0.001804
-0.001253 -1e-06 0.001822
-0.001236 -1e-06 0.00184
-0.00122 -1e-06 0.001859
-0.001202 -0.0 0.001876
-0.002071 0.000751 0.001508
-0.002778 0.000602 0.001157
-0.001976 -5e-06 0.000916
-0.001961 -6e-06 0.000937
-0.001946 -7e-06 0.000956
-0.002517 0.00071 0.001308
-0.002566 0.00069 0.001303
-0.00271 0.000662 0.000993
-0.002661 0.000652 0.001293
-0.002699 0.000638 0.001283
-0.001857 -1.2e-05 0.001074
-0.001843 -1.3e-05 0.001095
-0.002727 0.000688 0.001242
-0.002615 0.00067 0.001299
-0.001798 -1.5e-05 0.001153
-0.001782 -1.5e-05 0.001173
-0.001767 -1.6e-05 0.001192
-0.001751 -1.6e-05 0.001211
-0.001736 -1.7e-05 0.00123
-0.00172 -1.7e-05 0.001249
-0.001705 -1.7e-05 0.001268
-0.00169 -1.8e-05 0.001288
-0.001674 -1.9e-05 0.001307
-0.001658 -1.8e-05 0.001325
-0.001642 -1.9e-05 0.001344
-0.001626 -1.9e-05 0.001363
-0.00161 -1.9e-05 0.001382
-0.001594 -1.9e-05 0.0014
-0.001578 -1.9e-05 0.001419
-0.001562 -1.9e-05 0.001438
-0.001544 -1.8e-05 0.001455
-0.001527 -1.8e-05 0.001473
-0.001511 -1.8e-05 0.001492
-0.001494 -1.8e-05 0.00151
-0.001478 -1.8e-05 0.001528
-0.001461 -1.7e-05 0.001547
-0.001445 -1.7e-05 0.001565
-0.001428 -1.7e-05 0.001583
-0.001411 -1.6e-05 0.001601
-0.001394 -1.6e-05 0.001618
-0.001306 -1.2e-05 0.001705
-0.001289 -1.1e-05 0.001723
-0.001236 -8e-06 0.001775
-0.001219 -8e-06 0.001793
-0.001202 -7e-06 0.00181
-0.002099 0.000731 0.001548
-0.002104 0.000756 0.001551
-0.002516 0.000629 0.001307
-0.002035 0.000726 0.001437
-0.002701 0.000474 0.001285
-0.002048 0.000735 0.001362
-0.002748 0.000503 0.001035
-0.002787 0.000467 0.001135
-0.002388 0.000746 0.000569
-0.002748 0.000493 0.001225
-0.002036 0.000752 0.001438
-0.002537 0.000728 0.000475
-0.002748 0.00053 0.001035
-0.002575 0.000714 0.000466
-0.002755 0.000722 0.001146
-0.001757 -2.7e-05 0.00115
-0.001742 -2.8e-05 0.00117
-0.00291 0.000664 0.00037
-0.002997 0.000552 0.000233
-0.00299 0.000496 0.000307
-0.002997 0.000607 0.000233
-0.002748 0.000476 0.001035
-0.002778 0.000455 0.001076
-0.002793 0.000442 0.00111
-0.002787 0.000439 0.001134
-0.002778 0.000439 0.001157
-0.002768 0.000438 0.00118
-0.002759 0.000438 0.001203
-0.002749 0.000438 0.001225
-0.002739 0.000438 0.001248
-0.002726 0.000439 0.001269
-0.002701 0.000446 0.001285
-0.00266 0.000462 0.001293
-0.002614 0.000481 0.001298
-0.002565 0.0005 0.001303
-0.002516 0.00052 0.001307
-0.002059 0.000707 0.00134
-0.002048 0.000708 0.001362
-0.00204 0.000707 0.001385
-0.002035 0.000704 0.00141
-0.002035 0.000698 0.001438
-0.002043 0.000689 0.001468
-0.002066 0.000672 0.001506
-0.002098 0.00065 0.001548
-0.002125 0.000631 0.001588
-0.002151 0.000612 0.001627
-0.00217 0.000597 0.001663
-0.002188 0.000583 0.001698
-0.002536 0.000647 0.000475
-0.00249 0.000665 0.000481
-0.002453 0.000679 0.000491
-0.002429 0.000686 0.000507
-0.002411 0.00069 0.000526
-0.002397 0.000692 0.000546
-0.002388 0.000692 0.000569
-0.002986 0.000696 0.000182
-0.002909 0.000719 0.000369
-0.002684 0.000558 -0.000891
-0.002379 0.000757 0.000613
-0.002378 0.000699 0.000663
-0.002993 0.000496 0.000283
-0.00287 0.000655 0.000388
-0.002749 0.000448 0.001035
-0.002779 0.000427 0.001076
-0.002793 0.000415 0.00111
-0.002787 0.000412 0.001135
-0.002778 0.000412 0.001157
-0.002768 0.000411 0.00118
-0.002758 0.000411 0.001202
-0.002748 0.000411 0.001225
-0.002738 0.000411 0.001248
-0.002726 0.000412 0.001269
-0.002701 0.000419 0.001285
-0.00266 0.000435 0.001293
-0.002614 0.000453 0.001299
-0.002566 0.000473 0.001304
-0.002515 0.000493 0.001307
-0.002059 0.00068 0.00134
-0.002048 0.000681 0.001362
-0.00204 0.00068 0.001385
-0.002035 0.000677 0.00141
-0.002036 0.000671 0.001438
-0.002044 0.000662 0.001469
-0.002066 0.000645 0.001506
-0.002097 0.000624 0.001547
-0.002125 0.000604 0.001588
-0.002149 0.000586 0.001626
-0.002171 0.00057 0.001663
-0.002188 0.000556 0.001698
-0.002535 0.00062 0.000475
-0.002491 0.000638 0.000481
-0.002454 0.000652 0.000491
-0.002428 0.000659 0.000507
-0.00241 0.000664 0.000526
-0.002397 0.000665 0.000546
-0.002387 0.000665 0.000569
-0.00295 0.000731 0.000326
-0.0027 0.000746 0.000986
-0.002668 0.000743 0.000457
-0.002726 0.000597 0.001012
-0.002385 0.000694 0.000689
-0.002376 0.000702 0.000637
-0.002448 0.000754 -0.000177
-0.002545 0.000567 -0.001584
-0.002749 0.000421 0.001035
-0.002779 0.0004 0.001077
-0.002792 0.000388 0.00111
-0.002787 0.000385 0.001134
-0.002777 0.000385 0.001157
-0.002768 0.000384 0.00118
-0.002758 0.000384 0.001203
-0.002748 0.000384 0.001225
-0.002738 0.000384 0.001248
-0.002726 0.000385 0.001269
-0.0027 0.000392 0.001284
-0.002659 0.000408 0.001293
-0.002613 0.000427 0.001298
-0.002565 0.000446 0.001303
-0.002515 0.000466 0.001307
-0.002059 0.000653 0.00134
-0.002047 0.000654 0.001362
-0.002039 0.000653 0.001385
-0.002035 0.00065 0.00141
-0.002036 0.000644 0.001438
-0.002044 0.000634 0.001469
-0.002066 0.000618 0.001506
-0.002125 0.000577 0.001588
-0.00215 0.000558 0.001627
-0.002171 0.000543 0.001663
-0.002188 0.000528 0.001699
-0.002489 0.000612 0.00048
-0.002452 0.000625 0.00049
-0.002428 0.000632 0.000507
-0.00241 0.000637 0.000525
-0.002396 0.000638 0.000546
-0.002387 0.000638 0.000569
-0.002988 0.000694 0.000207
-0.002784 0.000719 0.000425
-0.002906 0.000514 -0.000636
-0.002433 0.000668 0.000746
-0.002992 0.000506 0.000135
-0.002749 0.000393 0.001035
-0.002779 0.000373 0.001077
-0.002793 0.00036 0.00111
-0.002787 0.000358 0.001135
-0.002778 0.000357 0.001157
-0.002768 0.000357 0.00118
-0.002758 0.000357 0.001203
-0.002749 0.000357 0.001225
-0.002739 0.000356 0.001248
-0.002726 0.000357 0.001269
-0.002701 0.000365 0.001285
-0.00266 0.000381 0.001293
-0.002613 0.0004 0.001298
-0.002565 0.000419 0.001303
-0.002515 0.000439 0.001307
-0.002059 0.000626 0.00134
-0.002047 0.000627 0.001362
-0.002039 0.000626 0.001385
-0.002034 0.000623 0.00141
-0.002036 0.000617 0.001438
-0.002042 0.000608 0.001468
-0.002066 0.000591 0.001506
-0.002098 0.000569 0.001548
-0.002126 0.000549 0.001588
-0.002151 0.000531 0.001627
-0.00217 0.000516 0.001663
-0.002188 0.000501 0.001699
-0.002536 0.000566 0.000475
-0.002488 0.000585 0.00048
-0.002452 0.000598 0.00049
-0.002428 0.000605 0.000507
-0.00241 0.000609 0.000525
-0.002396 0.000611 0.000546
-0.002386 0.00061 0.000569
-0.002949 0.000514 0.000103
-0.00265 0.000746 0.000928
-0.002997 0.000579 0.000233
-0.002561 0.000739 0.00084
-0.002991 0.000561 0.000134
-0.002748 0.000367 0.001035
-0.002779 0.000345 0.001077
-0.002793 0.000333 0.00111
-0.002786 0.000331 0.001134
-0.002777 0.000331 0.001157
-0.002767 0.00033 0.00118
-0.002757 0.00033 0.001202
-0.002747 0.00033 0.001225
-0.002737 0.00033 0.001247
-0.002726 0.00033 0.001269
-0.002701 0.000338 0.001285
-0.00266 0.000354 0.001293
-0.002612 0.000373 0.001298
-0.002565 0.000392 0.001303
-0.002515 0.000412 0.001307
-0.002454 0.000438 0.001303
-0.002058 0.000599 0.00134
-0.002047 0.0006 0.001361
-0.002039 0.000599 0.001385
-0.002034 0.000596 0.00141
-0.002035 0.00059 0.001437
-0.002042 0.000581 0.001468
-0.002066 0.000563 0.001506
-0.002097 0.000542 0.001548
-0.002126 0.000522 0.001588
-0.002151 0.000504 0.001627
-0.00217 0.000489 0.001663
-0.002189 0.000474 0.001699
-0.002535 0.000539 0.000475
-0.002488 0.000558 0.00048
-0.002452 0.000571 0.00049
-0.002428 0.000578 0.000506
-0.00241 0.000582 0.000525
-0.002396 0.000584 0.000546
-0.002387 0.000583 0.000569
-0.00253 0.000639 -0.001522
-0.002995 0.000606 0.000258
-0.002993 0.000578 0.000282
-0.002947 0.000486 0.00035
-0.002995 0.000552 0.000258
-0.002748 0.00034 0.001035
-0.002779 0.000318 0.001076
-0.002793 0.000306 0.00111
-0.002786 0.000304 0.001134
-0.002777 0.000303 0.001157
-0.002767 0.000303 0.00118
-0.002758 0.000303 0.001202
-0.002748 0.000303 0.001225
-0.002738 0.000302 0.001248
-0.002726 0.000303 0.001269
-0.002701 0.000311 0.001285
-0.002659 0.000327 0.001292
-0.002613 0.000345 0.001298
-0.002566 0.000364 0.001303
-0.002514 0.000385 0.001307
-0.002454 0.000411 0.001304
-0.002058 0.000572 0.00134
-0.002046 0.000573 0.001361
-0.002039 0.000572 0.001385
-0.002034 0.000569 0.001409
-0.002035 0.000563 0.001437
-0.002042 0.000554 0.001468
-0.002065 0.000536 0.001506
-0.002095 0.000516 0.001547
-0.002126 0.000495 0.001588
-0.002151 0.000476 0.001627
-0.00217 0.000462 0.001663
-0.002189 0.000446 0.001699
-0.002573 0.000498 0.000465
-0.002535 0.000512 0.000475
-0.002489 0.00053 0.000481
-0.002452 0.000544 0.00049
-0.002428 0.000551 0.000507
-0.00241 0.000555 0.000525
-0.002396 0.000557 0.000546
-0.002386 0.000556 0.000569
-0.002995 0.000665 0.000183
-0.002988 0.000606 0.000307
-0.002976 0.000582 0.00033
-0.00256 0.000685 0.00084
-0.002909 0.000502 0.000369
-0.002592 0.000695 0.00087
-0.002746 0.000313 0.001034
-0.002778 0.000292 0.001076
-0.002792 0.000279 0.00111
-0.002787 0.000276 0.001135
-0.002778 0.000276 0.001157
-0.002768 0.000276 0.00118
-0.002758 0.000275 0.001203
-0.002749 0.000275 0.001225
-0.002739 0.000275 0.001248
-0.002726 0.000276 0.001269
-0.002701 0.000284 0.001285
-0.002658 0.0003 0.001292
-0.002614 0.000318 0.001299
-0.002565 0.000337 0.001303
-0.002513 0.000359 0.001306
-0.002455 0.000383 0.001304
-0.002058 0.000545 0.00134
-0.002046 0.000546 0.001361
-0.002038 0.000544 0.001385
-0.002034 0.000541 0.00141
-0.002034 0.000536 0.001437
-0.002042 0.000526 0.001468
-0.002065 0.000509 0.001506
-0.002126 0.000467 0.001588
-0.002152 0.000449 0.001627
-0.00217 0.000434 0.001663
-0.00219 0.000419 0.0017
-0.002572 0.000471 0.000465
-0.002534 0.000485 0.000474
-0.00249 0.000502 0.000481
-0.002452 0.000516 0.000491
-0.002428 0.000524 0.000507
-0.00241 0.000528 0.000525
-0.002396 0.00053 0.000546
-0.002386 0.000529 0.000569
-0.002995 0.000662 0.000233
-0.003 0.000609 0.000184
-0.002989 0.000578 0.000307
-0.002949 0.00046 0.000103
-0.002481 0.000698 0.000778
-0.002747 0.000286 0.001035
-0.002779 0.000264 0.001076
-0.002792 0.000252 0.00111
-0.002787 0.000249 0.001135
-0.002778 0.000249 0.001157
-0.002768 0.000249 0.00118
-0.002758 0.000248 0.001203
-0.002748 0.000248 0.001225
-0.002738 0.000248 0.001248
-0.002726 0.000249 0.001269
-0.0027 0.000257 0.001284
-0.002658 0.000273 0.001292
-0.002613 0.000291 0.001299
-0.002565 0.00031 0.001303
-0.002515 0.000331 0.001307
-0.002454 0.000357 0.001303
-0.002058 0.000518 0.00134
-0.002046 0.000519 0.001361
-0.002038 0.000517 0.001385
-0.002034 0.000514 0.00141
-0.002034 0.000509 0.001437
-0.002042 0.000499 0.001468
-0.002066 0.000482 0.001506
-0.002097 0.000461 0.001548
-0.002125 0.000441 0.001588
-0.002153 0.000421 0.001628
-0.002169 0.000407 0.001663
-0.002189 0.000392 0.001699
-0.002574 0.000443 0.000465
-0.002534 0.000458 0.000474
-0.002489 0.000476 0.00048
-0.002452 0.000489 0.00049
-0.002428 0.000496 0.000507
-0.00241 0.000501 0.000525
-0.002396 0.000502 0.000546
-0.002386 0.000502 0.000569
-0.002819 0.000505 -0.00055
-0.002457 0.000751 -0.000153
-0.002594 0.000729 -0.000905
-0.003 0.000554 0.000184
-0.002726 0.00057 0.001013
-0.00265 0.000583 0.000928
-0.002747 0.000259 0.001035
-0.002779 0.000237 0.001076
-0.002792 0.000225 0.00111
-0.002787 0.000222 0.001134
-0.002778 0.000222 0.001158
-0.002768 0.000221 0.00118
-0.002758 0.000221 0.001203
-0.002748 0.000221 0.001225
-0.002738 0.000221 0.001248
-0.002725 0.000222 0.001269
-0.002701 0.000229 0.001285
-0.002659 0.000246 0.001292
-0.002613 0.000264 0.001298
-0.002565 0.000283 0.001303
-0.002516 0.000303 0.001308
-0.002058 0.000491 0.00134
-0.002046 0.000491 0.001361
-0.002038 0.00049 0.001385
-0.002033 0.000487 0.00141
-0.002034 0.000482 0.001437
-0.002042 0.000472 0.001468
-0.002066 0.000454 0.001506
-0.002097 0.000433 0.001548
-0.002127 0.000413 0.001589
-0.002153 0.000394 0.001628
-0.002171 0.00038 0.001663
-0.002189 0.000365 0.001699
-0.002573 0.000416 0.000465
-0.002535 0.00043 0.000474
-0.002489 0.000449 0.00048
-0.002452 0.000462 0.00049
-0.002428 0.00047 0.000507
-0.00241 0.000474 0.000525
-0.002396 0.000475 0.000546
-0.002386 0.000475 0.000569
-0.002991 0.000668 0.000158
-0.00273 0.000743 0.000442
-0.00288 0.000528 -0.000608
-0.002977 0.000473 0.00033
-0.0027 0.000583 0.000986
-0.002676 0.000596 0.000957
-0.002624 0.000678 0.000899
-0.002748 0.000231 0.001035
-0.002778 0.00021 0.001076
-0.002791 0.000198 0.001109
-0.002786 0.000195 0.001134
-0.002778 0.000194 0.001158
-0.002768 0.000194 0.00118
-0.002759 0.000194 0.001203
-0.002748 0.000194 0.001225
-0.002738 0.000194 0.001248
-0.002724 0.000195 0.001269
-0.0027 0.000203 0.001284
-0.002658 0.000219 0.001292
-0.002613 0.000236 0.001298
-0.002565 0.000256 0.001303
-0.002517 0.000275 0.001308
-0.002057 0.000464 0.001339
-0.002046 0.000464 0.001361
-0.002038 0.000463 0.001384
-0.002033 0.00046 0.00141
-0.002033 0.000455 0.001437
-0.002042 0.000445 0.001468
-0.002068 0.000426 0.001507
-0.002097 0.000406 0.001548
-0.002129 0.000384 0.00159
-0.002152 0.000367 0.001628
-0.00217 0.000353 0.001663
-0.002189 0.000337 0.001699
-0.001772 -2.6e-05 0.001126
-0.002489 0.000422 0.00048
-0.002452 0.000435 0.00049
-0.002427 0.000443 0.000506
-0.002409 0.000447 0.000525
-0.002396 0.000448 0.000546
-0.002386 0.000447 0.000569
-0.002946 0.000676 0.00035
-0.002726 0.000706 0.001013
-0.002624 0.000733 0.000899
-0.002701 0.000637 0.000984
-0.00265 0.00061 0.000928
-0.00265 0.000664 0.000928
-0.002747 0.000204 0.001035
-0.002777 0.000184 0.001076
-0.00279 0.000172 0.001109
-0.002785 0.000169 0.001134
-0.002777 0.000167 0.001157
-0.002768 0.000167 0.00118
-0.002758 0.000167 0.001203
-0.002748 0.000167 0.001225
-0.002737 0.000167 0.001247
-0.002723 0.000169 0.001268
-0.002699 0.000176 0.001284
-0.002659 0.000191 0.001293
-0.002613 0.000209 0.001298
-0.002565 0.000229 0.001303
-0.002516 0.000249 0.001308
-0.001783 -2.7e-05 0.001104
-0.001795 -2.7e-05 0.001082
-0.002058 0.000437 0.001339
-0.002046 0.000437 0.001361
-0.002038 0.000436 0.001385
-0.002033 0.000433 0.001409
-0.002034 0.000427 0.001437
-0.002042 0.000418 0.001468
-0.002068 0.000399 0.001507
-0.002098 0.000379 0.001548
-0.002128 0.000358 0.001589
-0.002153 0.00034 0.001628
-0.00217 0.000325 0.001663
-0.00219 0.00031 0.0017
-0.002573 0.000362 0.000465
-0.002535 0.000376 0.000474
-0.002489 0.000394 0.00048
-0.002452 0.000408 0.000491
-0.002428 0.000415 0.000507
-0.002409 0.000419 0.000525
-0.002396 0.000421 0.000546
-0.002386 0.00042 0.000569
-0.002982 0.000663 0.000306
-0.002924 0.000448 -0.000688
-0.00274 0.000602 -1.7e-05
-0.002677 0.00065 0.000957
-0.002385 0.000721 0.000689
-0.002379 0.000726 0.000663
-0.00265 0.000637 0.000928
-0.002748 0.000176 0.001035
-0.002775 0.000157 0.001075
-0.002787 0.000146 0.001108
-0.002783 0.000143 0.001133
-0.002776 0.000141 0.001157
-0.002767 0.00014 0.00118
-0.002757 0.00014 0.001202
-0.002746 0.00014 0.001225
-0.002735 0.000141 0.001246
-0.00272 0.000143 0.001267
-0.002698 0.000149 0.001283
-0.002658 0.000164 0.001292
-0.002613 0.000182 0.001298
-0.002564 0.000202 0.001303
-0.002515 0.000222 0.001307
-0.002057 0.000409 0.001339
-0.002046 0.00041 0.001361
-0.002038 0.000409 0.001385
-0.002033 0.000406 0.00141
-0.002033 0.0004 0.001437
-0.002042 0.00039 0.001468
-0.002068 0.000372 0.001507
-0.002097 0.000352 0.001548
-0.002128 0.000331 0.001589
-0.002153 0.000312 0.001628
-0.00217 0.000299 0.001663
-0.00219 0.000283 0.0017
-0.002573 0.000334 0.000465
-0.002535 0.000349 0.000475
-0.002488 0.000367 0.00048
-0.002452 0.00038 0.000491
-0.002428 0.000388 0.000507
-0.002409 0.000392 0.000525
-0.002396 0.000394 0.000546
-0.002386 0.000393 0.000569
-0.00283 0.000726 0.000407
-0.002999 0.000608 0.000208
-0.002991 0.000588 0.000135
-0.002828 0.00051 0.000407
-0.002399 0.000686 0.000716
-0.002728 0.000662 0.000442
-0.002783 0.000638 0.000425
-0.002748 0.000149 0.001035
-0.002775 0.00013 0.001075
-0.002783 0.000121 0.001106
-0.002779 0.000118 0.001131
-0.002772 0.000116 0.001155
-0.002763 0.000115 0.001178
-0.002754 0.000115 0.001201
-0.002743 0.000115 0.001223
-0.00273 0.000116 0.001244
-0.002716 0.000118 0.001265
-0.002696 0.000123 0.001283
-0.002658 0.000137 0.001292
-0.002612 0.000155 0.001298
-0.002565 0.000175 0.001303
-0.002516 0.000194 0.001308
-0.002058 0.000382 0.00134
-0.002046 0.000383 0.001361
-0.002038 0.000382 0.001385
-0.002033 0.000379 0.00141
-0.002034 0.000373 0.001437
-0.002042 0.000363 0.001468
-0.002066 0.000346 0.001507
-0.002099 0.000324 0.001549
-0.002128 0.000303 0.001589
-0.002153 0.000285 0.001628
-0.002171 0.000271 0.001664
-0.00219 0.000256 0.0017
-0.002574 0.000307 0.000466
-0.002534 0.000322 0.000474
-0.002488 0.00034 0.00048
-0.002452 0.000354 0.000491
-0.002428 0.000361 0.000507
-0.002409 0.000365 0.000525
-0.002396 0.000367 0.000546
-0.002906 0.000479 -0.00076
-0.002961 0.000727 0.000127
-0.00291 0.000637 0.000369
-0.003 0.000581 0.000184
-0.002432 0.000723 0.000746
-0.002667 0.000689 0.000457
-0.002827 0.000618 0.000407
-0.002749 0.000122 0.001036
-0.002772 0.000104 0.001074
-0.002777 9.6e-05 0.001103
-0.002772 9.4e-05 0.001128
-0.002765 9.2e-05 0.001152
-0.002757 9.1e-05 0.001175
-0.002747 9.1e-05 0.001198
-0.002736 9.1e-05 0.00122
-0.002724 9.2e-05 0.001241
-0.00271 9.4e-05 0.001262
-0.002692 9.8e-05 0.001281
-0.002658 0.00011 0.001292
-0.002613 0.000128 0.001298
-0.002564 0.000148 0.001303
-0.002518 0.000166 0.001309
-0.002057 0.000355 0.00134
-0.002046 0.000356 0.001361
-0.002038 0.000354 0.001385
-0.002033 0.000351 0.00141
-0.002034 0.000346 0.001437
-0.002043 0.000336 0.001468
-0.002067 0.000318 0.001507
-0.002099 0.000296 0.001549
-0.002128 0.000276 0.00159
-0.002154 0.000258 0.001629
-0.002171 0.000243 0.001664
-0.002192 0.000229 0.001698
-0.002574 0.000279 0.000466
-0.002535 0.000294 0.000475
-0.002488 0.000313 0.00048
-0.002452 0.000327 0.000492
-0.002428 0.000334 0.000507
-0.002409 0.000338 0.000525
-0.002396 0.00034 0.000546
-0.002988 0.000692 0.000232
-0.002996 0.000639 0.000159
-0.002783 0.000692 0.000425
-0.003 0.000583 0.000159
-0.002378 0.000728 0.000638
-0.001807 -2.8e-05 0.001061
-0.002482 0.000725 0.000778
-0.002749 9.5e-05 0.001036
-0.002769 7.9e-05 0.001072
-0.002769 7.4e-05 0.001099
-0.002763 7.1e-05 0.001124
-0.002756 7e-05 0.001147
-0.002747 6.9e-05 0.001171
-0.002738 6.8e-05 0.001194
-0.002727 6.9e-05 0.001216
-0.002715 6.9e-05 0.001237
-0.002701 7.1e-05 0.001258
-0.002684 7.5e-05 0.001277
-0.002656 8.4e-05 0.001291
-0.002612 0.000101 0.001298
-0.002565 0.00012 0.001303
-0.002517 0.000139 0.001308
-0.001818 -2.9e-05 0.001039
-0.002057 0.000328 0.001339
-0.002046 0.000329 0.001361
-0.002038 0.000327 0.001385
-0.002033 0.000324 0.001409
-0.002034 0.000318 0.001437
-0.002042 0.000309 0.001468
-0.002067 0.000291 0.001507
-0.002099 0.000269 0.001549
-0.002128 0.000249 0.001589
-0.002154 0.00023 0.001629
-0.002171 0.000216 0.001664
-0.002192 0.000202 0.001698
-0.002574 0.000253 0.000466
-0.002535 0.000267 0.000475
-0.002488 0.000286 0.00048
-0.002451 0.0003 0.000492
-0.002428 0.000307 0.000507
-0.002409 0.000311 0.000525
-0.002395 0.000312 0.000546
-0.002974 0.000694 0.000304
-0.002829 0.000699 0.000407
-0.002593 0.000749 0.00087
-0.002947 0.000594 0.00035
-0.002445 0.000695 -0.000275
-0.001829 -2.9e-05 0.001017
-0.00184 -3e-05 0.000995
-0.002992 0.000479 0.000135
-0.002745 6.9e-05 0.001034
-0.002759 5.7e-05 0.001068
-0.002757 5.2e-05 0.001094
-0.002751 5e-05 0.001118
-0.002744 4.9e-05 0.001142
-0.002735 4.8e-05 0.001165
-0.002726 4.7e-05 0.001188
-0.002715 4.8e-05 0.00121
-0.002703 4.8e-05 0.001232
-0.00269 5e-05 0.001253
-0.002674 5.3e-05 0.001272
-0.002651 5.9e-05 0.001289
-0.002611 7.4e-05 0.001298
-0.002564 9.3e-05 0.001303
-0.002519 0.000111 0.001309
-0.002057 0.000301 0.001339
-0.002045 0.000302 0.001361
-0.002037 0.000301 0.001384
-0.002032 0.000297 0.001409
-0.002034 0.000291 0.001437
-0.002043 0.000281 0.001468
-0.002066 0.000264 0.001507
-0.002099 0.000242 0.001549
-0.002128 0.000222 0.001589
-0.002153 0.000204 0.001628
-0.00217 0.000189 0.001664
-0.00219 0.000174 0.0017
-0.002574 0.000225 0.000469
-0.002535 0.00024 0.000475
-0.002488 0.000259 0.000481
-0.002452 0.000272 0.000492
-0.002428 0.00028 0.000507
-0.002409 0.000284 0.000525
-0.002395 0.000285 0.000546
-0.002386 0.000285 0.000569
-0.002723 0.000733 0.001014
-0.002728 0.000716 0.000442
-0.002827 0.000646 0.000407
-0.003 0.000528 0.000159
-0.002977 0.000611 0.000123
-0.001851 -3e-05 0.000973
-0.003001 0.000474 0.000159
-0.002739 4.5e-05 0.001032
-0.002746 3.6e-05 0.001061
-0.002742 3.3e-05 0.001087
-0.002736 3.1e-05 0.001111
-0.002728 3e-05 0.001135
-0.002719 2.9e-05 0.001158
-0.002709 2.9e-05 0.00118
-0.002699 2.9e-05 0.001203
-0.002687 2.9e-05 0.001224
-0.002675 3.1e-05 0.001246
-0.00266 3.3e-05 0.001266
-0.00264 3.8e-05 0.001284
-0.002609 4.8e-05 0.001297
-0.002564 6.6e-05 0.001303
-0.002517 8.5e-05 0.001308
-0.002057 0.000274 0.001339
-0.002045 0.000275 0.001361
-0.002037 0.000273 0.001384
-0.002032 0.00027 0.001409
-0.002034 0.000264 0.001437
-0.002042 0.000255 0.001468
-0.002067 0.000236 0.001507
-0.002098 0.000215 0.001549
-0.002127 0.000195 0.001589
-0.002152 0.000177 0.001628
-0.00217 0.000163 0.001663
-0.002189 0.000148 0.001699
-0.002574 0.000198 0.000466
-0.002534 0.000213 0.000474
-0.002487 0.000232 0.00048
-0.002452 0.000245 0.000491
-0.002427 0.000252 0.000507
-0.002409 0.000257 0.000525
-0.002396 0.000258 0.000546
-0.002386 0.000257 0.000569
-0.002971 0.000666 0.000329
-0.002946 0.000622 0.00035
-0.002909 0.000611 0.000369
-0.002434 0.000695 0.000746
-0.001862 -3e-05 0.000951
-0.001872 -3e-05 0.000928
-0.002995 0.00047 0.000258
-0.002725 2.5e-05 0.001025
-0.002727 1.9e-05 0.001053
-0.002722 1.6e-05 0.001078
-0.002715 1.4e-05 0.001102
-0.002707 1.3e-05 0.001125
-0.002698 1.3e-05 0.001148
-0.002688 1.2e-05 0.001171
-0.002678 1.2e-05 0.001193
-0.002666 1.3e-05 0.001215
-0.002654 1.4e-05 0.001236
-0.00264 1.6e-05 0.001257
-0.002622 2e-05 0.001276
-0.002598 2.7e-05 0.001292
-0.00256 4.1e-05 0.001301
-0.002515 5.9e-05 0.001307
-0.002056 0.000247 0.001339
-0.002045 0.000248 0.001361
-0.002037 0.000246 0.001384
-0.002032 0.000243 0.001409
-0.002034 0.000237 0.001437
-0.002043 0.000227 0.001469
-0.002069 0.000208 0.001508
-0.002098 0.000188 0.001548
-0.002127 0.000168 0.001589
-0.002152 0.00015 0.001628
-0.00217 0.000135 0.001663
-0.002191 0.000119 0.0017
-0.002574 0.000171 0.000466
-0.002535 0.000186 0.000475
-0.002487 0.000205 0.00048
-0.002451 0.000218 0.00049
-0.002427 0.000225 0.000506
-0.002409 0.000229 0.000525
-0.002396 0.000231 0.000546
-0.002386 0.00023 0.000569
-0.002911 0.000691 0.00037
-0.002976 0.00061 0.00033
-0.00287 0.000627 0.000388
-0.002377 0.000703 0.000613
-0.001883 -3.1e-05 0.000906
-0.002457 0.000742 -0.000302
-0.002701 1.1e-05 0.001014
-0.002698 6e-06 0.001039
-0.00269 6e-06 0.001063
-0.00268 5e-06 0.001085
-0.002671 5e-06 0.001108
-0.00266 5e-06 0.00113
-0.00265 5e-06 0.001153
-0.002642 3e-06 0.001176
-0.00263 5e-06 0.001198
-0.002618 5e-06 0.00122
-0.002608 5e-06 0.001242
-0.002594 7e-06 0.001262
-0.002576 1.1e-05 0.001281
-0.00255 1.9e-05 0.001296
-0.002513 3.2e-05 0.001307
-0.001894 -3.1e-05 0.000884
-0.002056 0.00022 0.001339
-0.002045 0.00022 0.001361
-0.002037 0.000219 0.001384
-0.002032 0.000216 0.001409
-0.002034 0.00021 0.001437
-0.002043 0.0002 0.001469
-0.002068 0.000182 0.001507
-0.002099 0.000161 0.001549
-0.002127 0.000141 0.001589
-0.002153 0.000122 0.001628
-0.002172 0.000107 0.001664
-0.002189 9.3e-05 0.0017
-0.002573 0.000144 0.000465
-0.002534 0.000159 0.000474
-0.002487 0.000178 0.00048
-0.002452 0.000191 0.000491
-0.002427 0.000198 0.000506
-0.002408 0.000202 0.000525
-0.002395 0.000204 0.000546
-0.002386 0.000203 0.000569
-0.002871 0.000708 0.000388
-0.002992 0.000605 0.000282
-0.002999 0.00058 0.000209
-0.002709 0.000751 -3.8e-05
-0.002444 0.000733 -0.000274
-0.00244 0.000674 -0.000225
-0.00287 0.000518 0.000389
-0.002658 5e-06 0.000994
-0.002649 4e-06 0.001017
-0.002638 5e-06 0.001039
-0.002629 4e-06 0.001061
-0.002619 4e-06 0.001084
-0.002608 5e-06 0.001106
-0.002598 4e-06 0.001129
-0.002586 5e-06 0.00115
-0.002578 4e-06 0.001174
-0.002568 4e-06 0.001196
-0.002555 5e-06 0.001218
-0.002546 5e-06 0.00124
-0.002534 5e-06 0.001262
-0.00252 7e-06 0.001283
-0.002496 1.4e-05 0.001299
-0.001904 -3.1e-05 0.000861
-0.002056 0.000192 0.001339
-0.002045 0.000193 0.001361
-0.002037 0.000192 0.001384
-0.002033 0.000189 0.001409
-0.002034 0.000182 0.001437
-0.002042 0.000173 0.001468
-0.002068 0.000154 0.001508
-0.002099 0.000133 0.001549
-0.002128 0.000113 0.001589
-0.002153 9.5e-05 0.001628
-0.002171 8e-05 0.001664
-0.002189 6.6e-05 0.001699
-0.002574 0.000117 0.000466
-0.002533 0.000132 0.000474
-0.002487 0.00015 0.00048
-0.002451 0.000164 0.00049
-0.002426 0.000171 0.000506
-0.002408 0.000175 0.000525
-0.002395 0.000177 0.000546
-0.002386 0.000176 0.000569
-0.002988 0.000662 0.000282
-0.002998 0.000611 0.000159
-0.002995 0.000579 0.000258
-0.002382 0.000703 0.000589
-0.002912 0.000586 -0.000736
-0.002434 0.000749 0.000746
-0.002663 0.000663 0.000457
-0.002828 0.000537 0.000407
-0.002999 0.000553 0.000209
-0.002604 0.0 0.000996
-0.002595 -0.0 0.001019
-0.002585 -0.0 0.001041
-0.002573 0.0 0.001063
-0.002564 -0.0 0.001086
-0.002553 0.0 0.001108
-0.002533 -0.0 0.001153
-0.002522 -0.0 0.001175
-0.002502 -0.0 0.00122
-0.00249 0.0 0.001242
-0.00248 1e-06 0.001264
-0.002464 4e-06 0.001284
-0.002057 0.000165 0.001339
-0.002045 0.000166 0.001361
-0.002037 0.000165 0.001384
-0.002033 0.000161 0.00141
-0.002034 0.000155 0.001437
-0.002042 0.000146 0.001468
-0.002066 0.000128 0.001507
-0.002098 0.000106 0.001549
-0.002127 8.6e-05 0.001589
-0.002153 6.8e-05 0.001628
-0.002172 5.3e-05 0.001664
-0.002574 9e-05 0.000466
-0.002534 0.000105 0.000474
-0.002487 0.000123 0.00048
-0.002451 0.000137 0.00049
-0.002427 0.000144 0.000506
-0.002409 0.000148 0.000525
-0.002395 0.000149 0.000546
-0.002386 0.000149 0.000569
-0.002996 0.000663 0.000208
-0.002701 0.000719 0.000986
-0.002651 0.000718 0.000928
-0.002594 0.000613 0.00087
-0.00248 0.000644 0.000778
-0.002702 0.000664 0.000985
-0.002909 0.000583 0.000369
-0.002992 0.000524 0.000282
-0.002986 0.000634 0.000306
-0.00254 1e-06 0.000993
-0.00253 1e-06 0.001016
-0.002518 1e-06 0.001038
-0.002508 2e-06 0.00106
-0.002497 2e-06 0.001082
-0.002485 3e-06 0.001103
-0.002477 1e-06 0.001127
-0.002468 1e-06 0.00115
-0.002446 1e-06 0.001194
-0.002436 1e-06 0.001217
-0.002425 2e-06 0.001238
-0.002415 2e-06 0.001261
-0.0024 5e-06 0.001281
-0.00207 0.000136 0.001319
-0.002057 0.000138 0.001339
-0.002045 0.000139 0.001361
-0.002037 0.000138 0.001384
-0.002034 0.000134 0.00141
-0.002034 0.000128 0.001438
-0.002042 0.000119 0.001468
-0.002066 0.000101 0.001506
-0.002097 8e-05 0.001548
-0.002127 5.9e-05 0.001589
-0.002153 4e-05 0.001629
-0.002172 2.6e-05 0.001664
-0.002572 6.3e-05 0.000465
-0.002533 7.8e-05 0.000474
-0.002487 9.6e-05 0.00048
-0.00245 0.00011 0.00049
-0.002426 0.000117 0.000506
-0.002408 0.000121 0.000525
-0.002395 0.000123 0.000546
-0.002385 0.000122 0.000569
-0.002501 0.000682 -0.001645
-0.002677 0.000731 0.000957
-0.002677 0.000704 0.000957
-0.002992 0.000533 0.000135
-0.002543 4e-06 0.000832
-0.002537 1e-06 0.000856
-0.002677 0.000677 0.000957
-0.002528 0.000641 -8.8e-05
-0.002947 0.000567 0.00035
-0.002993 0.000469 0.000283
-0.0027 0.000611 0.000985
-0.002463 2e-06 0.001012
-0.002455 2e-06 0.001035
-0.002443 2e-06 0.001057
-0.002434 1e-06 0.00108
-0.002423 2e-06 0.001102
-0.002412 2e-06 0.001124
-0.002402 2e-06 0.001146
-0.002393 2e-06 0.001169
-0.002382 2e-06 0.001192
-0.002071 0.000109 0.001319
-0.002057 0.000111 0.001339
-0.002045 0.000112 0.001361
-0.002037 0.00011 0.001384
-0.002033 0.000107 0.00141
-0.002035 0.000101 0.001438
-0.002041 9.2e-05 0.001468
-0.002098 5.2e-05 0.001549
-0.002128 3.2e-05 0.00159
-0.00215 1.5e-05 0.001627
-0.002158 5e-06 0.001658
-0.002572 3.6e-05 0.000465
-0.002534 5e-05 0.000474
-0.002488 6.9e-05 0.00048
-0.002449 8.3e-05 0.00049
-0.002425 9e-05 0.000506
-0.002408 9.4e-05 0.000525
-0.002395 9.5e-05 0.000546
-0.002385 9.5e-05 0.000569
-0.002985 0.000692 0.000256
-0.002999 0.000635 0.000208
-0.002989 0.000616 0.000135
-0.002853 0.000715 -0.000831
-0.002495 6e-06 0.000782
-0.002502 -2e-06 0.000813
-0.002494 -3e-06 0.000836
-0.002593 0.00064 0.00087
-0.003001 0.0005 0.000184
-0.002783 0.00061 0.000425
-0.002827 0.000592 0.000407
-0.002409 -2e-06 0.001014
-0.002399 -3e-06 0.001037
-0.002389 -2e-06 0.001059
-0.002378 -2e-06 0.001081
-0.002367 -2e-06 0.001103
-0.002358 -2e-06 0.001126
-0.002347 -2e-06 0.001148
-0.002337 -2e-06 0.001171
-0.002295 -2e-06 0.00126
-0.002276 3e-06 0.001278
-0.00207 8.2e-05 0.001319
-0.002057 8.3e-05 0.00134
-0.002045 8.4e-05 0.001361
-0.002037 8.3e-05 0.001384
-0.002033 8e-05 0.00141
-0.002035 7.3e-05 0.001438
-0.002041 6.5e-05 0.001468
-0.002123 7e-06 0.001587
-0.002121 3e-06 0.001614
-0.00257 1e-05 0.000464
-0.00253 2.5e-05 0.000473
-0.002488 4.1e-05 0.00048
-0.002449 5.6e-05 0.000489
-0.002425 6.3e-05 0.000506
-0.002407 6.7e-05 0.000525
-0.002395 6.8e-05 0.000546
-0.002385 6.8e-05 0.000568
-0.002913 0.000477 -0.000736
-0.002942 0.000705 0.000349
-0.002947 0.000649 0.00035
-0.003002 0.000446 0.000159
-0.002458 -1e-06 0.000765
-0.002449 -2e-06 0.000788
-0.002439 -2e-06 0.000811
-0.002958 0.000729 0.000302
-0.003001 0.000501 0.000159
-0.002728 0.000635 0.000442
-0.002355 -1e-06 0.000989
-0.002341 0.0 0.001009
-0.002331 0.0 0.001032
-0.002323 -1e-06 0.001055
-0.002312 -1e-06 0.001078
-0.002302 -1e-06 0.0011
-0.002291 -0.0 0.001122
-0.001914 -3.1e-05 0.000839
-0.002238 0.0 0.001234
-0.002229 0.0 0.001256
-0.00207 5.5e-05 0.001318
-0.002057 5.6e-05 0.001339
-0.002045 5.7e-05 0.001361
-0.002037 5.6e-05 0.001384
-0.002032 5.3e-05 0.001409
-0.002034 4.7e-05 0.001437
-0.00204 3.8e-05 0.001467
-0.002086 -1e-06 0.00157
-0.002078 -2e-06 0.001594
-0.001925 -3.1e-05 0.000817
-0.00254 -2e-06 0.00045
-0.002519 4e-06 0.000468
-0.002487 1.4e-05 0.00048
-0.002449 2.9e-05 0.00049
-0.002425 3.6e-05 0.000506
-0.002408 4e-05 0.000525
-0.002394 4.1e-05 0.000546
-0.002385 4.1e-05 0.000568
-0.00298 0.000692 0.00028
-0.002963 0.000697 0.000328
-0.002974 0.000638 0.000329
-0.002624 0.000624 0.000899
-0.001934 -3e-05 0.000794
-0.001944 -3e-05 0.000771
-0.002655 0.000697 -0.000428
-0.002995 0.000525 0.000258
-0.002996 0.000525 0.000233
-0.002286 1e-06 0.000984
-0.002275 2e-06 0.001006
-0.002265 2e-06 0.001029
-0.002252 3e-06 0.00105
-0.002193 1e-06 0.001186
-0.002183 1e-06 0.001208
-0.002086 2.5e-05 0.001298
-0.002069 2.8e-05 0.001318
-0.002056 2.9e-05 0.001339
-0.002045 3e-05 0.001361
-0.002037 2.9e-05 0.001384
-0.002032 2.6e-05 0.001409
-0.002033 2e-05 0.001437
-0.00204 1.1e-05 0.001468
-0.002048 2e-06 0.001498
-0.002483 0.0 0.000424
-0.002473 -0.0 0.000446
-0.00246 1e-06 0.000468
-0.002443 5e-06 0.000486
-0.002423 9e-06 0.000505
-0.002406 1.3e-05 0.000524
-0.002394 1.4e-05 0.000545
-0.002384 1.4e-05 0.000568
-0.002851 0.000488 -0.000579
-0.002999 0.000636 0.000184
-0.002947 0.000513 0.00035
-0.002977 0.000501 0.00033
-0.002993 0.000442 0.000283
-0.002996 0.000442 0.000258
-0.001954 -3e-05 0.000749
-0.001963 -2.9e-05 0.000726
-0.002624 0.000597 0.000899
-0.002903 0.000515 -0.000772
-0.002913 0.00045 -0.000736
-0.002385 0.000748 0.000689
-0.00244 0.000699 -0.00025
-0.00298 0.000447 0.000123
-0.002998 0.000526 0.000208
-0.002989 0.000551 0.000307
-0.002522 0.000677 0.000809
-0.002234 -5e-06 0.000987
-0.002224 -5e-06 0.00101
-0.002213 -4e-06 0.001032
-0.002203 -4e-06 0.001054
-0.002182 -4e-06 0.001099
-0.002151 -4e-06 0.001166
-0.00214 -4e-06 0.001188
-0.002079 1e-06 0.001296
-0.002066 3e-06 0.001316
-0.002032 4e-06 0.001382
-0.002024 3e-06 0.001406
-0.002015 2e-06 0.001429
-0.002008 0.0 0.001453
-0.001997 1e-06 0.001475
-0.002432 -1e-06 0.0004
-0.002424 -2e-06 0.000424
-0.002415 -2e-06 0.000446
-0.002405 -3e-06 0.000469
-0.002397 -4e-06 0.000492
-0.002388 -5e-06 0.000515
-0.002379 -6e-06 0.000539
-0.00237 -6e-06 0.000561
-0.002972 0.000729 0.000204
-0.002999 0.000527 0.000184
-0.002909 0.000529 0.000369
-0.002998 0.000443 0.000233
-0.002559 0.000712 0.00084
-0.002523 0.000731 0.000809
-0.002441 0.000755 -0.000225
-0.0024 0.00074 0.000716
-0.002241 -8e-06 0.000854
-0.002231 -9e-06 0.000877
-0.002993 0.000551 0.000282
-0.002885 0.000731 6.3e-05
-0.002186 -7e-06 0.000965
-0.00218 -9e-06 0.000989
-0.002168 -8e-06 0.001011
-0.002156 -8e-06 0.001033
-0.002138 -9e-06 0.001078
-0.002127 -8e-06 0.0011
-0.002118 -9e-06 0.001123
-0.002085 -8e-06 0.00119
-0.002074 -8e-06 0.001212
-0.002065 -8e-06 0.001235
-0.002054 -8e-06 0.001257
-0.002043 -8e-06 0.001279
-0.002033 -8e-06 0.001301
-0.001991 -6e-06 0.00139
-0.00198 -7e-06 0.001412
-0.001968 -6e-06 0.001434
-0.001956 -5e-06 0.001455
-0.001944 -4e-06 0.001478
-0.001932 -4e-06 0.001499
-0.002783 0.000665 0.000425
-0.002384 -7e-06 0.000405
-0.002372 -7e-06 0.000427
-0.003001 0.000445 0.000184
-0.002238 0.000674 -0.000989
-0.002342 -8e-06 0.000494
-0.00233 -8e-06 0.000516
-0.002321 -8e-06 0.000539
-0.002307 -7e-06 0.00056
-0.001972 -2.9e-05 0.000703
-0.001982 -2.8e-05 0.00068
-0.001991 -2.8e-05 0.000657
-0.002486 0.00075 0.000779
-0.002379 0.00073 0.000613
-0.002177 -3e-06 0.000825
-0.002168 -4e-06 0.000848
-0.002157 -3e-06 0.00087
-0.002145 -3e-06 0.000892
-0.002135 -3e-06 0.000914
-0.002105 -3e-06 0.000982
-0.002094 -3e-06 0.001004
-0.002071 -2e-06 0.001047
-0.002063 -3e-06 0.001071
-0.002025 -4e-06 0.001162
-0.002014 -4e-06 0.001184
-0.002002 -3e-06 0.001206
-0.001993 -4e-06 0.001229
-0.001982 -4e-06 0.001251
-0.001908 -8e-06 0.001433
-0.001897 -8e-06 0.001456
-0.001887 -8e-06 0.001478
-0.001877 -8e-06 0.0015
-0.001866 -7e-06 0.001523
-0.002452 0.000758 -0.000298
-0.002828 0.000564 0.000407
-0.002871 0.000545 0.000389
-0.003 0.000444 0.000209
-0.00287 0.000573 0.000388
-0.002909 0.000556 0.000369
-0.002249 -3e-06 0.000532
-0.002236 -2e-06 0.000554
-0.00248 0.000648 -0.00033
-0.002 -2.7e-05 0.000634
-0.002151 -1e-06 0.000732
-0.00214 -1e-06 0.000754
-0.002973 0.00073 0.00018
-0.002624 0.000706 0.000899
-0.002109 -1e-06 0.000821
-0.002099 -1e-06 0.000843
-0.002089 -1e-06 0.000866
-0.002076 1e-06 0.000887
-0.002065 1e-06 0.000909
-0.002016 -0.0 0.001022
-0.002002 1e-06 0.001043
-0.001944 -1e-06 0.001179
-0.001933 -0.0 0.001201
-0.001924 -1e-06 0.001223
-0.001845 -3e-06 0.001404
-0.001835 -3e-06 0.001427
-0.001825 -3e-06 0.001449
-0.001816 -4e-06 0.001472
-0.001806 -4e-06 0.001495
-0.001795 -4e-06 0.001517
-0.002277 -3e-06 0.000328
-0.002265 -2e-06 0.00035
-0.002593 0.000722 0.00087
-0.002924 0.000529 -0.000688
-0.002481 0.000671 0.000778
-0.002677 0.000569 0.000957
-0.002189 0.0 0.000505
-0.002177 1e-06 0.000526
-0.002168 0.0 0.000549
-0.002913 0.000423 -0.000736
-0.002443 0.000674 -0.000201
-0.002783 0.000583 0.000425
-0.002117 -0.0 0.000661
-0.002107 -0.0 0.000684
-0.002086 -0.0 0.000728
-0.002076 -0.0 0.000751
-0.002067 -1e-06 0.000774
-0.002057 -1e-06 0.000797
-0.002048 -2e-06 0.000819
-0.002037 -1e-06 0.000841
-0.002026 -1e-06 0.000864
-0.002017 -2e-06 0.000887
-0.002007 -2e-06 0.000909
-0.001964 -2e-06 0.000998
-0.001954 -1e-06 0.001021
-0.001944 -1e-06 0.001043
-0.00189 -1e-06 0.001154
-0.00188 -1e-06 0.001176
-0.001868 -0.0 0.001198
-0.001777 -0.0 0.0014
-0.001767 -1e-06 0.001423
-0.001757 -1e-06 0.001445
-0.001743 1e-06 0.001466
-0.001736 -1e-06 0.00149
-0.002471 0.000692 -0.00013
-0.002208 0.0 0.000324
-0.002972 0.000726 0.000254
-0.002947 0.00054 0.00035
-0.002977 0.000555 0.00033
-0.002999 0.000471 0.000209
-0.00256 0.000658 0.00084
-0.002969 0.000734 0.000154
-0.002141 -3e-06 0.000483
-0.002132 -3e-06 0.000505
-0.002122 -3e-06 0.000528
-0.002997 0.000634 0.000233
-0.002978 0.000446 0.00033
-0.002677 0.000623 0.000957
-0.002592 0.000668 0.00087
-0.002075 -6e-06 0.000642
-0.002065 -7e-06 0.000664
-0.002522 0.000704 0.000809
-0.002919 0.000635 8.2e-05
-0.002037 -8e-06 0.000733
-0.002028 -8e-06 0.000756
-0.002017 -8e-06 0.000778
-0.002007 -8e-06 0.000801
-0.001998 -8e-06 0.000823
-0.001988 -9e-06 0.000846
-0.001978 -9e-06 0.000869
-0.001967 -9e-06 0.000891
-0.001957 -9e-06 0.000913
-0.001946 -9e-06 0.000935
-0.001935 -9e-06 0.000957
-0.001925 -9e-06 0.00098
-0.001915 -8e-06 0.001002
-0.001903 -8e-06 0.001024
-0.001893 -8e-06 0.001047
-0.001883 -8e-06 0.001069
-0.00186 -7e-06 0.001112
-0.001849 -7e-06 0.001135
-0.001838 -6e-06 0.001157
-0.001781 -4e-06 0.001266
-0.00177 -3e-06 0.001288
-0.001726 -1e-06 0.001376
-0.001715 -1e-06 0.001398
-0.001703 -0.0 0.00142
-0.001693 -0.0 0.001442
-0.001682 -0.0 0.001464
-0.002751 0.000486 -0.000491
-0.002972 0.000727 0.000229
-0.002963 0.000728 0.000278
-0.002993 0.000661 0.000257
-0.002536 0.000752 0.000811
-0.002997 0.000471 0.000233
-0.002724 0.000488 -0.000882
-0.002112 -9e-06 0.000442
-0.002103 -1e-05 0.000465
-0.002094 -1.1e-05 0.000488
-0.002085 -1.2e-05 0.000511
-0.002995 0.000633 0.000258
-0.002382 0.00073 0.000589
-0.002624 0.000651 0.000899
-0.002982 0.000699 0.000156
-0.002041 -1.5e-05 0.000626
-0.002032 -1.6e-05 0.000649
-0.002021 -1.6e-05 0.000671
-0.002013 -1.7e-05 0.000695
-0.002002 -1.7e-05 0.000717
-0.001992 -1.7e-05 0.000739
-0.001983 -1.8e-05 0.000762
-0.001973 -1.7e-05 0.000785
-0.001963 -1.8e-05 0.000807
-0.001954 -1.8e-05 0.00083
-0.001944 -1.8e-05 0.000853
-0.001933 -1.8e-05 0.000875
-0.001923 -1.9e-05 0.000897
-0.001913 -1.9e-05 0.00092
-0.001902 -1.9e-05 0.000942
-0.001892 -1.8e-05 0.000964
-0.001881 -1.8e-05 0.000986
-0.001871 -1.8e-05 0.001009
-0.001859 -1.8e-05 0.001031
-0.001848 -1.7e-05 0.001053
-0.001837 -1.7e-05 0.001075
-0.001826 -1.7e-05 0.001097
-0.001815 -1.6e-05 0.001119
-0.001804 -1.6e-05 0.001141
-0.001745 -1.2e-05 0.001249
-0.001733 -1.1e-05 0.001271
-0.001672 -6e-06 0.001379
-0.001661 -6e-06 0.0014
-0.001649 -5e-06 0.001422
-0.002789 0.000575 -0.000521
-0.002924 0.000504 -0.000663
-0.003 0.000556 0.000159
-0.002728 0.000689 0.000442
-0.002666 0.000717 0.000457
-0.002947 0.000458 0.00035
-0.002782 0.000529 0.000425
-0.002727 0.000554 0.000442
-0.002893 0.000715 -0.000741
-0.002993 0.000452 0.000135
-0.00256 0.00063 0.00084
-0.0024 0.000713 0.000716
-0.00252 0.000651 0.000809
-0.002783 0.000556 0.000425
-0.00299 0.000469 0.000307
-0.002009 -2.6e-05 0.000611
-0.002522 0.000623 0.000809
-0.00256 0.000603 0.00084
-0.002593 0.000586 0.00087
-0.002624 0.00057 0.000899
-0.00265 0.000556 0.000928
-0.002677 0.000541 0.000957
-0.0027 0.000529 0.000986
-0.002726 0.000516 0.001013
-0.002903 0.000623 -0.000772
-0.00282 0.00064 -0.00055
-0.00247 0.000687 -0.001685
-0.002526 0.00068 -0.001603
-0.00292 0.000689 8.2e-05
-0.002919 0.00053 -0.000712
-0.002457 0.000688 -0.000302
-0.002594 0.000675 -0.000905
-0.002598 0.000671 -0.000396
-0.002948 0.000705 0.000103
-0.002993 0.000424 0.000135
-0.003002 0.000419 0.000159
-0.003001 0.000418 0.000184
-0.003 0.000417 0.000209
-0.002998 0.000416 0.000233
-0.002996 0.000415 0.000258
-0.002994 0.000414 0.000283
-0.00299 0.000415 0.000307
-0.002977 0.000419 0.00033
-0.002946 0.000432 0.00035
-0.002909 0.000448 0.00037
-0.002869 0.000464 0.000388
-0.002826 0.000483 0.000407
-0.002782 0.000502 0.000425
-0.002728 0.000526 0.000442
-0.002659 0.000557 0.000456
-0.002592 0.000586 0.000471
-0.002382 0.000676 0.000589
-0.002377 0.000676 0.000613
-0.002375 0.000675 0.000637
-0.002377 0.000673 0.000663
-0.002385 0.000667 0.000689
-0.002399 0.000659 0.000716
-0.002432 0.000641 0.000746
-0.002479 0.000617 0.000778
-0.00252 0.000596 0.000809
-0.002562 0.000575 0.00084
-0.002594 0.000558 0.00087
-0.002624 0.000543 0.000899
-0.00265 0.000528 0.000928
-0.002676 0.000514 0.000957
-0.002701 0.000501 0.000985
-0.002727 0.000488 0.001012
-0.002885 0.000541 6.3e-05
-0.002851 0.00057 -0.000579
-0.002531 0.00065 -0.001605
-0.002886 0.000714 -0.000765
-0.002886 0.000703 6.3e-05
-0.002879 0.000555 -0.000608
-0.00248 0.000676 -0.00033
-0.002441 0.000701 -0.000225
-0.00274 0.000684 -1.7e-05
-0.002993 0.000397 0.000135
-0.003002 0.000392 0.000159
-0.003001 0.000391 0.000184
-0.002999 0.00039 0.000209
-0.002997 0.000389 0.000233
-0.002996 0.000388 0.000258
-0.002993 0.000387 0.000283
-0.00299 0.000387 0.000307
