0.000543 0.000658 -0.002432
0.000519 0.000662 -0.002422
0.000494 0.000665 -0.002417
0.000925 0.000667 -0.002843
0.000897 0.000674 -0.002835
0.000217 0.000692 -0.002864
0.001069 0.000529 -0.002808
0.001146 0.00072 -0.002395
0.000952 0.000471 -0.002848
0.000232 0.000679 -0.002829
0.000189 0.000427 -0.002921
0.000166 0.000407 -0.002965
0.000141 0.000393 -0.002994
0.000116 0.000391 -0.003
9.1e-05 0.00039 -0.003001
6.7e-05 0.00039 -0.003001
4.2e-05 0.00039 -0.003001
1.7e-05 0.000389 -0.003002
-7e-06 0.000389 -0.003002
-3.2e-05 0.000389 -0.003001
-5.7e-05 0.000392 -0.002994
-8.1e-05 0.000406 -0.002964
-0.000105 0.000423 -0.002927
-0.000129 0.000443 -0.002885
-0.000153 0.000464 -0.002839
-0.000177 0.000485 -0.002793
-0.000393 0.000654 -0.002428
-0.000417 0.000654 -0.002429
-0.000442 0.000651 -0.002434
-0.000467 0.000646 -0.002444
-0.000492 0.000638 -0.002461
-0.000517 0.000623 -0.002493
-0.000542 0.000602 -0.002537
-0.000568 0.000582 -0.00258
-0.000593 0.000564 -0.002619
-0.000618 0.000548 -0.002652
-0.000643 0.000535 -0.002681
0.000616 0.000592 -0.002515
0.000592 0.000608 -0.002481
0.000568 0.000624 -0.002447
0.000543 0.000631 -0.002431
0.000519 0.000635 -0.002421
0.000494 0.000637 -0.002417
0.00047 0.000637 -0.002416
0.00095 0.000665 -0.002841
0.000247 0.00072 -0.002794
0.001022 0.000609 -0.002824
0.000231 0.000652 -0.002828
0.00114 0.000744 -0.002338
0.000426 0.000727 -0.002425
0.001022 0.000473 -0.002824
0.000927 0.0005 -0.002851
0.000291 0.000685 -0.002677
0.000189 0.0004 -0.00292
0.000166 0.00038 -0.002965
0.000141 0.000366 -0.002994
0.000116 0.000364 -0.003
9.1e-05 0.000363 -0.003
6.7e-05 0.000363 -0.003001
4.2e-05 0.000362 -0.003001
1.7e-05 0.000362 -0.003001
-7e-06 0.000362 -0.003001
-3.2e-05 0.000362 -0.003001
-5.7e-05 0.000365 -0.002994
-8.1e-05 0.000379 -0.002964
-0.000105 0.000396 -0.002927
-0.000129 0.000416 -0.002884
-0.000153 0.000437 -0.002838
-0.000393 0.000627 -0.002428
-0.000417 0.000626 -0.002429
-0.000442 0.000624 -0.002434
-0.000467 0.000619 -0.002444
-0.000492 0.000611 -0.00246
-0.000517 0.000596 -0.002492
-0.000542 0.000575 -0.002537
-0.000568 0.000555 -0.00258
-0.000593 0.000536 -0.002619
-0.000618 0.000521 -0.002651
-0.000643 0.000507 -0.002681
-0.000668 0.000493 -0.002711
0.000616 0.000565 -0.002514
0.000592 0.000581 -0.00248
0.000568 0.000596 -0.002448
0.000543 0.000604 -0.002431
0.000519 0.000608 -0.002421
0.000494 0.00061 -0.002416
0.00047 0.00061 -0.002416
0.001021 0.000664 -0.002822
0.001833 0.000393 -0.002383
0.000951 0.000636 -0.002845
0.000898 0.000564 -0.002837
0.000475 0.000724 -0.002417
0.00045 0.000726 -0.00242
0.001045 0.000474 -0.002816
0.001265 0.000754 -0.00213
0.000189 0.000374 -0.002919
0.000166 0.000353 -0.002964
0.000141 0.000339 -0.002994
0.000116 0.000337 -0.002999
9.1e-05 0.000336 -0.002999
6.7e-05 0.000336 -0.003
4.2e-05 0.000336 -0.003
1.7e-05 0.000335 -0.003001
-7e-06 0.000335 -0.003001
-3.2e-05 0.000335 -0.003
-5.7e-05 0.000338 -0.002993
-8.1e-05 0.000352 -0.002963
-0.000105 0.000369 -0.002927
-0.000129 0.000388 -0.002885
-0.000153 0.00041 -0.002838
-0.000393 0.0006 -0.002427
-0.000417 0.000599 -0.002428
-0.000442 0.000597 -0.002433
-0.000467 0.000592 -0.002443
-0.000492 0.000584 -0.00246
-0.000517 0.000569 -0.002492
-0.000542 0.000548 -0.002537
-0.000568 0.000527 -0.002581
-0.000593 0.00051 -0.002617
-0.000618 0.000494 -0.002652
-0.000643 0.00048 -0.002681
-0.000668 0.000466 -0.002711
0.000616 0.000538 -0.002514
0.000592 0.000554 -0.00248
0.000568 0.000569 -0.002448
0.000543 0.000577 -0.00243
0.000519 0.000581 -0.002421
0.000494 0.000583 -0.002416
0.00047 0.000583 -0.002416
0.00122 0.00064 -0.00214
0.001022 0.000636 -0.002824
0.000233 0.000705 -0.00283
0.001022 0.000527 -0.002825
0.00184 0.000718 -0.001642
0.000999 0.000472 -0.002832
0.000189 0.000346 -0.002919
0.000166 0.000326 -0.002964
0.00014 0.000312 -0.002994
0.000116 0.000309 -0.002999
9.1e-05 0.000309 -0.003
6.6e-05 0.000309 -0.003
4.2e-05 0.000308 -0.003001
1.7e-05 0.000308 -0.003001
-7e-06 0.000308 -0.003001
-3.2e-05 0.000308 -0.003
-5.7e-05 0.000311 -0.002993
-8.1e-05 0.000325 -0.002963
-0.000105 0.000342 -0.002926
-0.000129 0.000361 -0.002885
-0.000153 0.000382 -0.002839
-0.000393 0.000573 -0.002427
-0.000418 0.000572 -0.002428
-0.000442 0.00057 -0.002433
-0.000467 0.000565 -0.002443
-0.000492 0.000557 -0.00246
-0.000517 0.000542 -0.002493
-0.000542 0.00052 -0.00254
-0.000568 0.0005 -0.00258
-0.000593 0.000483 -0.002618
-0.000618 0.000467 -0.002652
-0.000643 0.000453 -0.002682
-0.000668 0.000439 -0.00271
0.000616 0.000511 -0.002515
0.000592 0.000527 -0.002479
0.000568 0.000542 -0.002447
0.000543 0.00055 -0.002431
0.000519 0.000554 -0.002421
0.000494 0.000556 -0.002416
0.00047 0.000556 -0.002416
0.000974 0.000664 -0.002836
0.000927 0.00061 -0.002849
0.000646 0.000714 -0.002574
0.000277 0.000669 -0.002716
0.000952 0.000498 -0.002849
0.001068 0.000421 -0.002807
0.000687 0.000574 -0.002631
0.000189 0.000319 -0.00292
0.000166 0.000299 -0.002964
0.00014 0.000285 -0.002994
0.000116 0.000282 -0.002999
9.1e-05 0.000281 -0.003
6.6e-05 0.000281 -0.003001
4.2e-05 0.000281 -0.003001
1.7e-05 0.00028 -0.003002
-7e-06 0.00028 -0.003002
-3.2e-05 0.000281 -0.003001
-5.7e-05 0.000284 -0.002993
-8.1e-05 0.000298 -0.002963
-0.000105 0.000315 -0.002926
-0.000129 0.000334 -0.002884
-0.000153 0.000356 -0.002838
-0.000393 0.000546 -0.002427
-0.000418 0.000545 -0.002428
-0.000442 0.000543 -0.002433
-0.000467 0.000538 -0.002443
-0.000492 0.000529 -0.00246
-0.000517 0.000514 -0.002493
-0.000542 0.000493 -0.002539
-0.000568 0.000473 -0.002581
-0.000593 0.000456 -0.002618
-0.000618 0.000439 -0.002653
-0.000643 0.000426 -0.002681
-0.000668 0.000412 -0.00271
0.000616 0.000483 -0.002515
0.000592 0.0005 -0.002479
0.000568 0.000515 -0.002448
0.000543 0.000523 -0.00243
0.000519 0.000527 -0.002421
0.000494 0.000529 -0.002416
0.000469 0.000529 -0.002416
0.000865 0.000634 -0.002812
0.000764 0.000633 -0.002721
0.000262 0.000652 -0.002757
0.000975 0.000499 -0.002841
0.00036 0.000692 -0.002461
0.000343 0.000761 -0.002493
0.000866 0.000688 -0.002813
0.000166 0.000271 -0.002965
0.00014 0.000258 -0.002993
0.000116 0.000255 -0.002999
9.1e-05 0.000254 -0.003
6.6e-05 0.000254 -0.003001
4.2e-05 0.000254 -0.003001
1.7e-05 0.000253 -0.003002
-8e-06 0.000253 -0.003002
-3.2e-05 0.000253 -0.003001
-5.7e-05 0.000257 -0.002993
-8.1e-05 0.000271 -0.002962
-0.000105 0.000288 -0.002925
-0.000129 0.000308 -0.002883
-0.000153 0.000328 -0.002839
-0.000393 0.000519 -0.002427
-0.000418 0.000518 -0.002428
-0.000442 0.000516 -0.002433
-0.000467 0.00051 -0.002443
-0.000492 0.000503 -0.00246
-0.000517 0.000488 -0.002492
-0.000542 0.000466 -0.002538
-0.000568 0.000446 -0.002581
-0.000593 0.000428 -0.002619
-0.000618 0.000412 -0.002653
-0.000643 0.000398 -0.002681
-0.000668 0.000385 -0.002711
0.000616 0.000456 -0.002515
0.000592 0.000473 -0.002479
0.000568 0.000487 -0.002448
0.000543 0.000495 -0.002431
0.000519 0.0005 -0.00242
0.000494 0.000502 -0.002416
0.000469 0.000501 -0.002416
0.000952 0.000608 -0.002847
0.000688 0.000683 -0.002631
0.000316 0.000725 -0.00258
0.000927 0.000446 -0.002852
0.001632 0.000677 -0.002338
0.000326 0.000749 -0.002525
0.000215 0.000638 -0.002863
0.000166 0.000245 -0.002964
0.00014 0.000231 -0.002993
0.000116 0.000228 -0.002999
9.1e-05 0.000227 -0.003
6.6e-05 0.000227 -0.003
4.2e-05 0.000227 -0.003001
1.7e-05 0.000226 -0.003001
-8e-06 0.000226 -0.003001
-3.2e-05 0.000227 -0.003
-5.7e-05 0.00023 -0.002992
-8.1e-05 0.000244 -0.002963
-0.000105 0.000261 -0.002925
-0.000129 0.000281 -0.002883
-0.000153 0.000301 -0.002838
-0.000314 -2.6e-05 -0.00208
-0.000393 0.000492 -0.002427
-0.000418 0.000491 -0.002428
-0.000442 0.000488 -0.002433
-0.000467 0.000483 -0.002443
-0.000492 0.000475 -0.00246
-0.000517 0.00046 -0.002492
-0.000543 0.000438 -0.002539
-0.000568 0.000419 -0.002581
-0.000593 0.0004 -0.00262
-0.000618 0.000385 -0.002653
-0.000643 0.000372 -0.002681
-0.000666 0.000358 -0.002712
0.000616 0.000429 -0.002514
0.000592 0.000446 -0.002479
0.000568 0.00046 -0.002448
0.000543 0.000468 -0.00243
0.000519 0.000473 -0.00242
0.000494 0.000475 -0.002416
0.000469 0.000474 -0.002416
0.000975 0.000608 -0.00284
0.000318 0.000748 -0.002588
0.000304 0.000704 -0.00263
0.000262 0.000625 -0.002757
0.001671 0.000444 -0.002354
0.001591 0.000532 -0.002318
0.001494 0.000527 -0.002255
0.000165 0.000217 -0.002964
0.00014 0.000204 -0.002992
0.000116 0.000201 -0.002998
9.1e-05 0.0002 -0.003
6.6e-05 0.0002 -0.003001
4.2e-05 0.000199 -0.003001
1.7e-05 0.000199 -0.003001
-8e-06 0.000199 -0.003001
-3.2e-05 0.0002 -0.003
-5.7e-05 0.000203 -0.002992
-8.1e-05 0.000217 -0.002962
-0.000105 0.000234 -0.002925
-0.000129 0.000254 -0.002882
-0.000153 0.000274 -0.002839
-0.00029 -2.7e-05 -0.002082
-0.000369 0.000463 -0.002429
-0.000393 0.000464 -0.002427
-0.000418 0.000464 -0.002428
-0.000442 0.000461 -0.002433
-0.000467 0.000456 -0.002443
-0.000492 0.000448 -0.00246
-0.000517 0.000433 -0.002492
-0.000543 0.000411 -0.00254
-0.000568 0.000391 -0.002582
-0.000593 0.000373 -0.00262
-0.000618 0.000358 -0.002653
-0.000643 0.000344 -0.002681
-0.000666 0.000331 -0.002712
0.000616 0.000402 -0.002515
0.000592 0.000419 -0.002479
0.000568 0.000433 -0.002447
0.000543 0.000441 -0.00243
0.000519 0.000446 -0.00242
0.000494 0.000447 -0.002416
0.000469 0.000447 -0.002416
0.001545 0.000663 -0.002292
0.000976 0.000553 -0.002841
0.000952 0.000553 -0.002848
0.000798 0.000587 -0.002754
0.000865 0.000471 -0.002812
0.001548 0.000742 -0.002295
0.000165 0.00019 -0.002965
0.00014 0.000177 -0.002991
0.000116 0.000174 -0.002997
9.1e-05 0.000173 -0.003
6.6e-05 0.000173 -0.003
4.2e-05 0.000172 -0.003001
1.7e-05 0.000172 -0.003001
-8e-06 0.000172 -0.003001
-3.2e-05 0.000173 -0.002998
-5.7e-05 0.000176 -0.002991
-8.1e-05 0.00019 -0.002962
-0.000105 0.000207 -0.002924
-0.000129 0.000226 -0.002882
-0.000153 0.000246 -0.002839
-0.000369 0.000436 -0.002429
-0.000393 0.000437 -0.002427
-0.000418 0.000437 -0.002428
-0.000442 0.000434 -0.002433
-0.000467 0.000429 -0.002443
-0.000492 0.000421 -0.00246
-0.000517 0.000406 -0.002492
-0.000543 0.000383 -0.00254
-0.000568 0.000364 -0.002582
-0.000593 0.000346 -0.00262
-0.000618 0.00033 -0.002653
-0.000643 0.000317 -0.002681
-0.000668 0.000303 -0.002711
0.000616 0.000375 -0.002515
0.000592 0.000392 -0.002478
0.000567 0.000406 -0.002447
0.000543 0.000414 -0.00243
0.000518 0.000419 -0.00242
0.000494 0.00042 -0.002416
0.000469 0.00042 -0.002416
0.000445 0.000418 -0.002419
0.001068 0.000611 -0.002807
0.000999 0.000554 -0.002833
0.000975 0.000526 -0.002841
0.001841 0.000745 -0.001643
0.001045 0.000447 -0.002815
0.000687 0.000548 -0.00263
0.000727 0.00052 -0.002681
0.000952 0.000444 -0.002848
0.000975 0.000445 -0.00284
0.000165 0.000163 -0.002965
0.00014 0.000151 -0.002989
0.000116 0.000148 -0.002996
9.1e-05 0.000146 -0.002998
6.6e-05 0.000146 -0.003
4.2e-05 0.000145 -0.003
1.7e-05 0.000145 -0.003
-8e-06 0.000146 -0.002999
-3.2e-05 0.000147 -0.002996
-5.7e-05 0.00015 -0.002989
-8.1e-05 0.000163 -0.002962
-0.000105 0.00018 -0.002925
-0.000129 0.000199 -0.002883
-0.000153 0.000219 -0.00284
-0.000369 0.000409 -0.00243
-0.000393 0.00041 -0.002427
-0.000418 0.000409 -0.002428
-0.000442 0.000407 -0.002433
-0.000467 0.000402 -0.002443
-0.000492 0.000393 -0.002461
-0.000517 0.000379 -0.002492
-0.000543 0.000356 -0.002541
-0.000568 0.000337 -0.002582
-0.000593 0.000319 -0.00262
-0.000618 0.000303 -0.002653
-0.000643 0.000289 -0.002682
-0.000668 0.000276 -0.00271
0.000616 0.000348 -0.002514
0.000592 0.000364 -0.002479
0.000567 0.000379 -0.002447
0.000543 0.000387 -0.00243
0.000518 0.000392 -0.00242
0.000494 0.000393 -0.002416
0.000469 0.000393 -0.002416
0.000445 0.000391 -0.002419
0.000975 0.000635 -0.002839
0.000999 0.000581 -0.002833
0.000999 0.000527 -0.002833
0.00111 0.000425 -0.002783
0.001068 0.000448 -0.002807
0.000727 0.000601 -0.002682
0.000199 0.000598 -0.002896
0.000215 0.000611 -0.002862
0.000359 0.000665 -0.00246
0.00014 0.000126 -0.002986
0.000116 0.000122 -0.002992
9.1e-05 0.000121 -0.002995
6.6e-05 0.00012 -0.002997
4.2e-05 0.000119 -0.002998
1.7e-05 0.000119 -0.002997
-8e-06 0.00012 -0.002996
-3.2e-05 0.000121 -0.002992
-5.7e-05 0.000124 -0.002986
-8.1e-05 0.000136 -0.002961
-0.000105 0.000153 -0.002924
-0.000129 0.000172 -0.002883
-0.000153 0.000192 -0.00284
-0.000177 0.000215 -0.00279
-0.000369 0.000382 -0.00243
-0.000393 0.000383 -0.002427
-0.000418 0.000382 -0.002428
-0.000442 0.00038 -0.002433
-0.000467 0.000375 -0.002443
-0.000492 0.000366 -0.002461
-0.000517 0.000351 -0.002492
-0.000543 0.00033 -0.002538
-0.000568 0.00031 -0.002582
-0.000593 0.000292 -0.00262
-0.000618 0.000276 -0.002653
-0.000643 0.000262 -0.002683
-0.000668 0.000249 -0.002711
0.000616 0.000321 -0.002514
0.000592 0.000337 -0.002478
0.000567 0.000352 -0.002447
0.000543 0.00036 -0.00243
0.000518 0.000364 -0.00242
0.000494 0.000366 -0.002416
0.000469 0.000366 -0.002416
0.000999 0.000635 -0.002832
0.000927 0.000582 -0.00285
0.001022 0.000554 -0.002825
0.000865 0.000553 -0.002812
0.00171 0.000699 -0.002371
0.000247 0.000611 -0.002794
0.000763 0.000579 -0.002721
0.000231 0.000624 -0.002828
0.000475 0.00067 -0.002416
0.000165 0.00011 -0.002961
0.00014 0.000101 -0.00298
0.000116 9.8e-05 -0.002986
9.1e-05 9.7e-05 -0.002989
6.6e-05 9.5e-05 -0.002991
4.2e-05 9.5e-05 -0.002992
1.7e-05 9.5e-05 -0.002992
-7e-06 9.6e-05 -0.00299
-3.2e-05 9.7e-05 -0.002986
-5.7e-05 0.0001 -0.00298
-8.1e-05 0.000109 -0.00296
-0.000105 0.000126 -0.002923
-0.000129 0.000144 -0.002884
-0.000153 0.000165 -0.002839
-0.000177 0.000187 -0.00279
-0.000265 -2.7e-05 -0.002083
-0.000369 0.000354 -0.00243
-0.000393 0.000356 -0.002427
-0.000418 0.000355 -0.002428
-0.000442 0.000352 -0.002433
-0.000467 0.000347 -0.002443
-0.000492 0.000339 -0.00246
-0.000517 0.000324 -0.002493
-0.000543 0.000303 -0.002538
-0.000568 0.000283 -0.002581
-0.000593 0.000264 -0.00262
-0.000618 0.000248 -0.002654
-0.000643 0.000235 -0.002683
-0.000668 0.000222 -0.002711
0.000616 0.000294 -0.002512
0.000592 0.00031 -0.002478
0.000567 0.000325 -0.002447
0.000543 0.000332 -0.00243
0.000518 0.000337 -0.00242
0.000494 0.000339 -0.002416
0.000469 0.000339 -0.002416
0.000727 0.00071 -0.002681
0.000291 0.000712 -0.002677
0.000688 0.000656 -0.002631
0.000646 0.000687 -0.002573
-0.000241 -2.8e-05 -0.002085
0.001671 0.000662 -0.002354
0.001833 0.000502 -0.002382
0.00171 0.000537 -0.00237
0.000165 8.4e-05 -0.002959
0.000141 7.8e-05 -0.002972
0.000116 7.5e-05 -0.002977
9.1e-05 7.3e-05 -0.00298
6.7e-05 7.2e-05 -0.002982
4.2e-05 7.2e-05 -0.002983
1.7e-05 7.2e-05 -0.002983
-7e-06 7.3e-05 -0.002981
-3.2e-05 7.4e-05 -0.002977
-5.7e-05 7.6e-05 -0.002972
-8.1e-05 8.3e-05 -0.002957
-0.000105 9.9e-05 -0.002923
-0.000129 0.000117 -0.002884
-0.000153 0.000138 -0.00284
-0.000177 0.000159 -0.002792
-0.000216 -2.8e-05 -0.002086
-0.000191 -2.9e-05 -0.002088
-0.000369 0.000327 -0.00243
-0.000393 0.000328 -0.002427
-0.000418 0.000328 -0.002428
-0.000442 0.000325 -0.002433
-0.000467 0.00032 -0.002443
-0.000492 0.000312 -0.00246
-0.000517 0.000297 -0.002492
-0.000543 0.000276 -0.002538
-0.000568 0.000255 -0.002582
-0.000593 0.000237 -0.00262
-0.000618 0.000221 -0.002654
-0.000643 0.000208 -0.002683
-0.000668 0.000194 -0.002711
0.000616 0.000268 -0.002512
0.000592 0.000283 -0.002478
0.000567 0.000298 -0.002447
0.000543 0.000305 -0.00243
0.000518 0.00031 -0.00242
0.000494 0.000312 -0.002416
0.000469 0.000311 -0.002416
0.000898 0.000619 -0.002837
0.000832 0.000597 -0.002783
0.000764 0.000606 -0.002721
0.000832 0.000516 -0.002783
0.001091 0.000476 -0.002798
0.000927 0.000473 -0.002851
0.001045 0.00061 -0.002816
0.000189 7.5e-05 -0.002919
0.000166 6.1e-05 -0.00295
0.000141 5.6e-05 -0.00296
0.000116 5.3e-05 -0.002965
9.1e-05 5.2e-05 -0.002968
6.7e-05 5.1e-05 -0.00297
4.2e-05 5e-05 -0.002971
1.7e-05 5e-05 -0.002971
-7e-06 5.1e-05 -0.002969
-3.2e-05 5.2e-05 -0.002966
-5.6e-05 5.4e-05 -0.002961
-8.1e-05 5.9e-05 -0.00295
-0.000105 7.3e-05 -0.002921
-0.000129 9e-05 -0.002883
-0.000153 0.00011 -0.002841
-0.000369 0.0003 -0.00243
-0.000393 0.000301 -0.002427
-0.000418 0.000301 -0.002428
-0.000443 0.000298 -0.002433
-0.000467 0.000293 -0.002443
-0.000492 0.000285 -0.00246
-0.000517 0.00027 -0.002493
-0.000543 0.000248 -0.002539
-0.000568 0.000228 -0.002582
-0.000593 0.00021 -0.00262
-0.000618 0.000195 -0.002653
-0.000643 0.00018 -0.002684
-0.000669 0.000167 -0.002711
0.000616 0.000241 -0.002511
0.000592 0.000256 -0.002478
0.000567 0.000271 -0.002446
0.000543 0.000278 -0.002429
0.000518 0.000283 -0.00242
0.000494 0.000285 -0.002416
0.000469 0.000284 -0.002416
0.001179 0.000693 -0.002168
0.002528 0.000618 -0.001632
0.001045 0.000555 -0.002817
0.000832 0.00057 -0.002783
0.000798 0.000534 -0.002752
0.001068 0.000475 -0.002807
0.000247 0.000638 -0.002794
0.000214 7e-05 -0.002872
0.000189 5e-05 -0.002916
0.000166 3.9e-05 -0.002938
0.000141 3.5e-05 -0.002946
0.000116 3.3e-05 -0.00295
9.2e-05 3.2e-05 -0.002953
6.7e-05 3.1e-05 -0.002954
4.2e-05 3e-05 -0.002955
1.8e-05 3.1e-05 -0.002955
-7e-06 3.1e-05 -0.002953
-3.2e-05 3.2e-05 -0.00295
-5.6e-05 3.4e-05 -0.002947
-8.1e-05 3.8e-05 -0.002938
-0.000105 4.7e-05 -0.002917
-0.000129 6.3e-05 -0.002883
-0.000153 8.2e-05 -0.002841
-0.000369 0.000273 -0.00243
-0.000393 0.000274 -0.002427
-0.000418 0.000273 -0.002428
-0.000443 0.000271 -0.002433
-0.000467 0.000266 -0.002443
-0.000492 0.000258 -0.002459
-0.000517 0.000242 -0.002493
-0.000543 0.000221 -0.002539
-0.000568 0.000201 -0.002581
-0.000593 0.000183 -0.00262
-0.000618 0.000167 -0.002653
-0.000643 0.000153 -0.002683
-0.000669 0.00014 -0.002711
0.000616 0.000213 -0.002512
0.000591 0.000229 -0.002478
0.000567 0.000244 -0.002446
0.000543 0.000251 -0.002429
0.000518 0.000256 -0.00242
0.000494 0.000257 -0.002416
0.000469 0.000257 -0.002416
0.001591 0.00075 -0.002318
0.000221 0.000719 -0.002866
0.001161 0.000691 -0.002185
0.000277 0.000696 -0.002717
0.000277 0.000614 -0.002718
0.000501 0.000721 -0.002418
0.000213 4.3e-05 -0.002871
0.00019 2.8e-05 -0.002905
0.000166 2e-05 -0.00292
0.000141 1.7e-05 -0.002927
0.000117 1.5e-05 -0.00293
9.2e-05 1.4e-05 -0.002933
6.7e-05 1.3e-05 -0.002934
4.3e-05 1.3e-05 -0.002935
1.8e-05 1.3e-05 -0.002934
-7e-06 1.3e-05 -0.002933
-3.1e-05 1.4e-05 -0.00293
-5.6e-05 1.6e-05 -0.002927
-8e-05 1.9e-05 -0.00292
-0.000105 2.5e-05 -0.002906
-0.000129 3.8e-05 -0.002878
-0.000153 5.7e-05 -0.002838
-0.000167 -2.9e-05 -0.002089
-0.000369 0.000246 -0.00243
-0.000393 0.000247 -0.002427
-0.000418 0.000246 -0.002428
-0.000443 0.000244 -0.002433
-0.000467 0.000239 -0.002444
-0.000492 0.000231 -0.002459
-0.000517 0.000215 -0.002494
-0.000543 0.000194 -0.002539
-0.000568 0.000174 -0.002581
-0.000593 0.000156 -0.00262
-0.000618 0.000139 -0.002655
-0.000643 0.000126 -0.002684
0.000616 0.000186 -0.002511
0.000591 0.000202 -0.002478
0.000567 0.000216 -0.002446
0.000543 0.000224 -0.002429
0.000518 0.000229 -0.00242
0.000494 0.00023 -0.002415
0.000469 0.00023 -0.002415
0.001044 0.000666 -0.002812
0.001045 0.000637 -0.002816
0.001146 0.000556 -0.002536
0.001298 0.000707 -0.002126
0.000199 0.000571 -0.002896
-0.000142 -2.9e-05 -0.00209
-0.000118 -3e-05 -0.00209
0.000832 0.000543 -0.002783
0.000213 2.1e-05 -0.002861
0.000191 1.1e-05 -0.002884
0.000166 6e-06 -0.002894
0.000142 3e-06 -0.002898
0.000117 2e-06 -0.002901
9.2e-05 1e-06 -0.002903
6.8e-05 0.0 -0.002903
4.3e-05 0.0 -0.002903
1.8e-05 0.0 -0.002903
-6e-06 1e-06 -0.002902
-3.1e-05 1e-06 -0.0029
-5.5e-05 2e-06 -0.002898
-8e-05 4e-06 -0.002893
-0.000105 8e-06 -0.002884
-0.000129 1.7e-05 -0.002865
-0.000153 3.1e-05 -0.002835
-0.000177 5.2e-05 -0.00279
-9.3e-05 -3e-05 -0.002092
-0.000369 0.000219 -0.00243
-0.000393 0.00022 -0.002427
-0.000418 0.000219 -0.002428
-0.000443 0.000217 -0.002433
-0.000467 0.000211 -0.002443
-0.000492 0.000204 -0.00246
-0.000517 0.000188 -0.002493
-0.000543 0.000166 -0.002539
-0.000568 0.000146 -0.002582
-0.000593 0.000128 -0.002621
-0.000618 0.000113 -0.002652
-0.000644 9.9e-05 -0.002683
0.000616 0.000159 -0.00251
0.000591 0.000174 -0.002478
0.000567 0.000189 -0.002446
0.000543 0.000197 -0.002429
0.000518 0.000201 -0.002419
0.000494 0.000203 -0.002415
0.000469 0.000203 -0.002415
0.000444 0.000201 -0.002419
0.001129 0.000714 -0.002695
0.000649 0.000736 -0.002584
0.000927 0.000527 -0.002851
0.001139 0.000579 -0.002618
0.000798 0.00056 -0.002753
0.00192 0.000646 -0.002311
0.000192 1e-06 -0.002847
0.000167 -0.0 -0.002848
0.000142 -1e-06 -0.002849
0.000118 -1e-06 -0.002849
9.3e-05 -1e-06 -0.002849
6.8e-05 -1e-06 -0.002849
4.4e-05 -1e-06 -0.002848
1.9e-05 -1e-06 -0.002846
-3e-05 -0.0 -0.002846
-5.5e-05 -0.0 -0.002845
-7.9e-05 -0.0 -0.002844
-0.000129 2e-06 -0.002838
-0.000153 1e-05 -0.002821
-0.000177 2.7e-05 -0.002784
-0.000369 0.000192 -0.00243
-0.000393 0.000192 -0.002427
-0.000418 0.000192 -0.002428
-0.000442 0.00019 -0.002433
-0.000467 0.000185 -0.002443
-0.000492 0.000177 -0.00246
-0.000517 0.000161 -0.002492
-0.000543 0.000139 -0.002539
-0.000568 0.000119 -0.002582
-0.000593 0.000101 -0.00262
-0.000618 8.7e-05 -0.00265
-0.000644 7.2e-05 -0.002683
-0.000669 5.9e-05 -0.002711
0.000616 0.000132 -0.00251
0.000591 0.000148 -0.002476
0.000567 0.000163 -0.002445
0.000543 0.00017 -0.002429
0.000518 0.000174 -0.002419
0.000494 0.000176 -0.002415
0.000469 0.000176 -0.002415
0.000444 0.000174 -0.002418
0.000198 0.000735 -0.002895
0.000832 0.000624 -0.002784
0.001631 0.000542 -0.002336
0.000897 0.000456 -0.002836
0.000727 0.000546 -0.002682
0.001022 0.000446 -0.002824
0.0011 0.000602 -0.00279
0.000381 0.000724 -0.002446
0.000996 0.000695 -0.002822
0.000143 -3e-06 -0.002796
0.000118 -3e-06 -0.002796
9.4e-05 -3e-06 -0.002795
6.9e-05 -4e-06 -0.002795
4.5e-05 -3e-06 -0.002795
2e-05 -4e-06 -0.002795
-6.8e-05 -3e-05 -0.002092
-2.9e-05 -5e-06 -0.002797
-5.4e-05 -4e-06 -0.002795
-7.9e-05 -4e-06 -0.002793
-4.4e-05 -3e-05 -0.002092
-0.000128 -4e-06 -0.002793
-0.000152 -2e-06 -0.002789
-0.000369 0.000165 -0.002429
-0.000393 0.000165 -0.002427
-0.000418 0.000165 -0.002428
-0.000442 0.000162 -0.002433
-0.000467 0.000157 -0.002443
-0.000492 0.000149 -0.00246
-0.000518 0.000133 -0.002493
-0.000543 0.000112 -0.00254
-0.000568 9.2e-05 -0.002583
-0.000593 7.4e-05 -0.00262
-0.000618 5.9e-05 -0.002651
-0.000644 4.5e-05 -0.002683
-0.000669 3.2e-05 -0.00271
0.000616 0.000105 -0.00251
0.000591 0.000121 -0.002476
0.000567 0.000135 -0.002445
0.000543 0.000143 -0.002429
0.000518 0.000147 -0.002419
0.000494 0.000149 -0.002415
0.000469 0.000149 -0.002415
0.000444 0.000147 -0.002418
0.001139 0.000742 -0.002617
0.001068 0.000583 -0.002807
0.000927 0.000555 -0.002851
0.00038 0.00067 -0.002444
0.000763 0.000525 -0.00272
0.000262 0.000598 -0.002757
0.000797 0.00048 -0.002751
0.000763 0.000498 -0.002721
-1.9e-05 -3e-05 -0.002093
6e-06 -3e-05 -0.002093
3e-05 -3e-05 -0.002093
-0.000127 -5e-06 -0.002737
-0.000152 -4e-06 -0.002736
-0.000369 0.000138 -0.002429
-0.000393 0.000138 -0.002427
-0.000418 0.000138 -0.002428
-0.000442 0.000135 -0.002433
-0.000467 0.000131 -0.002443
-0.000492 0.000122 -0.002461
-0.000518 0.000107 -0.002493
-0.000543 8.5e-05 -0.002539
-0.000568 6.4e-05 -0.002583
-0.000593 4.7e-05 -0.00262
-0.000619 3.1e-05 -0.002653
-0.000644 1.8e-05 -0.002681
0.000616 7.8e-05 -0.002511
0.000591 9.4e-05 -0.002475
0.000567 0.000108 -0.002444
0.000543 0.000116 -0.002428
0.000518 0.00012 -0.002419
0.000494 0.000122 -0.002415
0.000469 0.000122 -0.002414
0.000998 0.000664 -0.00283
0.000999 0.000608 -0.002832
0.001069 0.000556 -0.002808
0.001091 0.00053 -0.002798
0.00034 0.000711 -0.002484
0.000247 0.000584 -0.002794
0.00113 0.000687 -0.002696
0.000361 0.000719 -0.002461
0.000194 -1e-06 -0.002675
0.00017 -3e-06 -0.002677
0.00012 -2e-06 -0.002677
9.6e-05 -2e-06 -0.002675
7.1e-05 -1e-06 -0.002674
2.2e-05 -1e-06 -0.002673
-5.2e-05 -2e-06 -0.002675
-7.7e-05 -1e-06 -0.002672
-0.000101 -2e-06 -0.002673
-0.000126 -2e-06 -0.002673
-0.000369 0.00011 -0.002429
-0.000393 0.000111 -0.002426
-0.000418 0.000111 -0.002428
-0.000443 0.000108 -0.002432
-0.000467 0.000103 -0.002442
-0.000492 9.5e-05 -0.00246
-0.000518 8e-05 -0.002492
-0.000543 5.8e-05 -0.002539
-0.000568 3.7e-05 -0.002583
-0.000593 2e-05 -0.00262
-0.000618 7e-06 -0.002647
-0.000643 -2e-06 -0.002665
-0.000668 -5e-06 -0.002673
0.000567 8.2e-05 -0.002444
0.000542 8.9e-05 -0.002429
0.000518 9.3e-05 -0.002419
0.000494 9.5e-05 -0.002414
0.000469 9.5e-05 -0.002414
0.000832 0.000705 -0.002785
0.000952 0.00058 -0.002848
0.000898 0.000537 -0.002837
0.001631 0.000515 -0.002337
0.00034 0.000738 -0.002484
0.001139 0.000715 -0.002618
0.001853 0.000503 -0.002367
0.00022 -5e-06 -0.002625
0.000195 -5e-06 -0.002626
0.00017 -6e-06 -0.002626
0.000146 -6e-06 -0.002626
0.000121 -6e-06 -0.002626
9.6e-05 -6e-06 -0.002625
7.2e-05 -6e-06 -0.002626
4.7e-05 -6e-06 -0.002626
2.2e-05 -6e-06 -0.002626
-2e-06 -6e-06 -0.002625
-2.7e-05 -6e-06 -0.002624
-5.1e-05 -7e-06 -0.002625
-7.6e-05 -7e-06 -0.002626
-0.000101 -7e-06 -0.002625
-0.000369 8.3e-05 -0.002428
-0.000393 8.4e-05 -0.002427
-0.000418 8.4e-05 -0.002428
-0.000443 8.1e-05 -0.002432
-0.000468 7.6e-05 -0.002442
-0.000492 6.8e-05 -0.00246
-0.000518 5.4e-05 -0.002489
-0.000568 1e-05 -0.002584
-0.000593 -1e-06 -0.002606
-0.000618 -5e-06 -0.002615
-0.000643 -4e-06 -0.002612
-0.000667 -4e-06 -0.002612
5.5e-05 -3e-05 -0.002093
0.000567 5.4e-05 -0.002444
0.000542 6.2e-05 -0.002429
0.000518 6.6e-05 -0.002419
0.001068 0.000639 -0.002806
0.000764 0.000741 -0.002724
0.000799 0.000722 -0.002755
0.000231 0.000733 -0.002829
0.000262 0.00068 -0.002757
0.001138 0.000609 -0.002336
0.000319 -6e-06 -0.002571
0.000294 -1e-05 -0.002577
0.001134 0.000728 -0.002657
0.000403 0.000699 -0.002433
0.00022 -8e-06 -0.002575
0.000196 -8e-06 -0.002574
0.000171 -8e-06 -0.002574
0.001134 0.000619 -0.002657
0.000122 -8e-06 -0.002572
9.7e-05 -7e-06 -0.002569
7.3e-05 -7e-06 -0.00257
4.8e-05 -8e-06 -0.002571
2.3e-05 -8e-06 -0.002571
-1e-06 -8e-06 -0.002571
-2.6e-05 -8e-06 -0.002571
-0.000418 5.7e-05 -0.002427
-0.000442 5.4e-05 -0.002431
-0.000468 4.9e-05 -0.002442
-0.000492 4.1e-05 -0.002458
-0.000593 -7e-06 -0.002561
-0.000617 -6e-06 -0.002558
-0.000642 -5e-06 -0.002556
-0.000666 -4e-06 -0.002554
0.000616 -1e-06 -0.002506
0.000591 1.2e-05 -0.002477
0.000567 2.7e-05 -0.002444
0.000542 3.5e-05 -0.002428
0.000304 0.000731 -0.002631
0.000277 0.00075 -0.002718
0.000262 0.000734 -0.002757
0.002496 0.000645 -0.001669
0.000246 0.000748 -0.002792
0.000798 0.000668 -0.002755
0.001022 0.0005 -0.002825
0.00032 -9e-06 -0.002517
0.000295 -7e-06 -0.002513
0.000246 -6e-06 -0.002511
0.000221 -6e-06 -0.002509
0.000895 0.000705 -0.002827
0.000688 0.00071 -0.002631
0.000501 0.000747 -0.002419
0.000999 0.000418 -0.002832
7.3e-05 -5e-06 -0.002507
4.9e-05 -5e-06 -0.002506
2.4e-05 -5e-06 -0.002505
-2.5e-05 -4e-06 -0.002503
-5e-05 -3e-06 -0.002501
-7.4e-05 -4e-06 -0.002503
-9.9e-05 -5e-06 -0.002504
-0.000369 2.9e-05 -0.002427
-0.000393 3e-05 -0.002425
-0.000418 3e-05 -0.002426
-0.000443 2.7e-05 -0.00243
-0.000468 2.2e-05 -0.002441
-0.000492 1.3e-05 -0.00246
8e-05 -2.9e-05 -0.002092
-0.000616 -1e-05 -0.002508
-0.000641 -9e-06 -0.002507
0.000616 -6e-06 -0.002456
0.000592 -4e-06 -0.002452
0.000567 1e-06 -0.002443
0.000999 0.000499 -0.002833
0.000451 0.000752 -0.002422
0.000199 0.000626 -0.002896
0.000865 0.00058 -0.002811
0.001591 0.000695 -0.002319
0.000832 0.000651 -0.002783
0.000394 5e-06 -0.002431
0.00037 -1e-06 -0.002444
0.000345 -4e-06 -0.00245
0.000321 -3e-06 -0.002448
0.001134 0.000565 -0.002656
0.000222 -4e-06 -0.002447
0.000865 0.000716 -0.002811
0.000952 0.000525 -0.002848
0.000688 0.000628 -0.002632
0.000247 0.000556 -0.002794
0.00045 0.000672 -0.002419
7.4e-05 -5e-06 -0.002444
0.000688 0.000737 -0.002633
0.000831 0.000489 -0.002782
0.0 -4e-06 -0.002445
-2.4e-05 -4e-06 -0.002446
-4.9e-05 -4e-06 -0.002445
-7.3e-05 -4e-06 -0.002445
-9.8e-05 -4e-06 -0.002445
-0.000369 3e-06 -0.002425
-0.000393 4e-06 -0.002424
-0.000443 1e-06 -0.002428
-0.000467 -2e-06 -0.002434
-0.000542 -6e-06 -0.002442
-0.000566 -6e-06 -0.002442
-0.00064 -5e-06 -0.00244
-0.000665 -6e-06 -0.002441
0.000617 -4e-06 -0.002394
0.000592 -5e-06 -0.002396
0.001746 0.000468 -0.002383
0.000494 -4e-06 -0.002392
0.00171 0.000673 -0.00237
0.000304 0.000649 -0.002632
0.000316 0.000671 -0.00258
0.000395 -7e-06 -0.002398
0.000371 -7e-06 -0.002398
0.000346 -8e-06 -0.002399
0.000321 -8e-06 -0.0024
0.000727 0.000574 -0.002682
0.000763 0.000552 -0.002721
0.000898 0.000483 -0.002837
0.000975 0.000472 -0.00284
0.000215 0.000584 -0.002862
0.000798 0.000615 -0.002753
0.000149 -1.1e-05 -0.002404
0.000124 -1.1e-05 -0.002404
0.0001 -1.2e-05 -0.002404
7.5e-05 -1.2e-05 -0.002404
0.000972 0.000695 -0.002828
0.000797 0.000507 -0.002752
1e-06 -1.2e-05 -0.002404
-2.4e-05 -1.2e-05 -0.002404
-4.8e-05 -1.2e-05 -0.002404
-7.3e-05 -1e-05 -0.002403
-9.8e-05 -1.1e-05 -0.002403
-0.000245 -1e-05 -0.002397
-0.00027 -1e-05 -0.002396
-0.000368 -8e-06 -0.002391
-0.000467 -6e-06 -0.002385
-0.000491 -5e-06 -0.002384
-0.000516 -5e-06 -0.002382
-0.000541 -5e-06 -0.002382
-0.000565 -5e-06 -0.002381
-0.00059 -4e-06 -0.00238
-0.000614 -3e-06 -0.002377
-0.000639 -3e-06 -0.002376
0.000618 -7e-06 -0.002344
0.000593 -9e-06 -0.002347
0.000569 -1e-05 -0.002348
0.000544 -1.1e-05 -0.002351
0.000519 -1.2e-05 -0.002353
0.000495 -1.3e-05 -0.002354
0.00167 0.000689 -0.002353
0.00111 0.000453 -0.002783
0.000396 -1.3e-05 -0.002353
0.000371 -1.3e-05 -0.002352
0.000347 -1.3e-05 -0.002352
0.000273 -1.3e-05 -0.002352
0.000248 -1.3e-05 -0.002351
0.001091 0.000449 -0.002798
0.000277 0.000723 -0.002718
0.00015 -1.1e-05 -0.002345
0.000125 -1.2e-05 -0.002347
0.0001 -1.2e-05 -0.002346
7.6e-05 -1.2e-05 -0.002346
0.000948 0.000696 -0.002833
0.000865 0.000525 -0.002812
-2.3e-05 -1.2e-05 -0.002345
-9.7e-05 -1.1e-05 -0.002342
-0.000146 -1.3e-05 -0.002346
-0.000171 -1.3e-05 -0.002345
-0.000195 -1.2e-05 -0.002344
-0.00022 -1.3e-05 -0.002345
-0.000244 -1.3e-05 -0.002345
-0.000269 -1.2e-05 -0.002343
0.000104 -2.9e-05 -0.002092
-0.000466 -1.5e-05 -0.002347
-0.000491 -1.4e-05 -0.002343
-0.000515 -1.3e-05 -0.002341
-0.00054 -1.3e-05 -0.00234
-0.000565 -1.1e-05 -0.002337
-0.000589 -1e-05 -0.002335
-0.000614 -1e-05 -0.002333
-0.000638 -9e-06 -0.002331
-0.000663 -8e-06 -0.002327
0.001091 0.000422 -0.002798
0.000569 -1.5e-05 -0.002301
0.000545 -1.3e-05 -0.002295
0.00052 -1.1e-05 -0.002292
0.000496 -1e-05 -0.002289
0.001146 0.00061 -0.002536
0.000922 0.000699 -0.002833
0.000372 -9e-06 -0.002286
0.000348 -1e-05 -0.002286
0.000323 -9e-06 -0.002286
0.000274 -9e-06 -0.002285
0.000249 -9e-06 -0.002284
0.000129 -2.9e-05 -0.002092
0.0002 -8e-06 -0.002282
0.000175 -8e-06 -0.00228
0.000151 -8e-06 -0.002281
0.000798 0.000641 -0.002754
0.001129 0.000717 -0.002275
0.001134 0.000732 -0.002235
0.000231 0.000597 -0.002829
0.000153 -2.9e-05 -0.002092
0.000277 0.000586 -0.002719
0.000291 0.000603 -0.002678
0.000178 -2.8e-05 -0.002091
-7.1e-05 -8e-06 -0.002277
-9.6e-05 -7e-06 -0.002275
-0.00012 -7e-06 -0.002273
-0.000145 -7e-06 -0.002275
-0.00017 -9e-06 -0.002278
-0.000194 -7e-06 -0.002275
-0.000219 -7e-06 -0.002275
-0.000342 -9e-06 -0.002278
-0.000367 -9e-06 -0.002277
0.000203 -2.8e-05 -0.002091
0.000227 -2.7e-05 -0.00209
-0.000539 -1.1e-05 -0.002279
-0.000564 -1.2e-05 -0.002281
-0.000638 -1.3e-05 -0.00228
-0.000662 -1.4e-05 -0.002283
0.000252 -2.7e-05 -0.002088
0.000546 -9e-06 -0.002229
0.000521 -9e-06 -0.002229
0.000496 -8e-06 -0.002225
0.001091 0.000503 -0.002798
0.001238 0.00075 -0.002131
0.001298 0.000626 -0.002126
0.001045 0.000528 -0.002816
0.000832 0.000678 -0.002784
0.000349 -6e-06 -0.00222
0.000324 -6e-06 -0.002219
0.000427 0.000753 -0.002427
0.000291 0.000658 -0.002677
0.000316 0.000698 -0.00258
0.000201 -5e-06 -0.002217
0.000176 -5e-06 -0.002215
0.000152 -6e-06 -0.002218
0.000292 0.000739 -0.002678
0.001068 0.000502 -0.002808
0.001853 0.000394 -0.002368
0.00108 0.000548 -0.002803
-9.5e-05 -6e-06 -0.002215
-0.000119 -5e-06 -0.002213
-0.000144 -6e-06 -0.002215
-0.000169 -6e-06 -0.002215
0.001544 0.000555 -0.00229
-0.000341 -7e-06 -0.002214
-0.000366 -7e-06 -0.002213
-0.00039 -6e-06 -0.00221
-0.000415 -6e-06 -0.00221
-0.00044 -6e-06 -0.002211
0.000865 0.000444 -0.002811
0.000927 0.000418 -0.002852
0.000216 0.00053 -0.002863
0.000475 0.000698 -0.002416
0.000426 0.0007 -0.002424
0.000497 -5e-06 -0.002163
0.000473 -5e-06 -0.002162
0.001101 0.000465 -0.002792
0.002478 0.000592 -0.001686
0.000764 0.000714 -0.002723
0.000798 0.000695 -0.002755
0.00035 -7e-06 -0.002164
0.000325 -8e-06 -0.002165
0.001631 0.000732 -0.002337
0.001134 0.000674 -0.002657
0.000476 0.000751 -0.002418
0.000898 0.00051 -0.002837
0.001045 0.000501 -0.002816
0.000177 -1e-05 -0.002167
0.000152 -1e-05 -0.002167
0.001041 0.000727 -0.002787
0.002845 0.000644 -0.000812
0.000277 0.000642 -0.002717
0.000943 0.000732 -0.002815
0.000968 0.00073 -0.002812
0.00159 0.00056 -0.002317
-2e-05 -1.1e-05 -0.002166
-4.5e-05 -1.1e-05 -0.002164
-9.4e-05 -1e-05 -0.002165
-0.000119 -9e-06 -0.002163
-0.000143 -1e-05 -0.002164
-0.00034 -7e-06 -0.002157
-0.000365 -7e-06 -0.002155
-0.000389 -7e-06 -0.002154
-0.000414 -6e-06 -0.002153
-0.000439 -6e-06 -0.002153
0.000304 0.000623 -0.00263
0.000316 0.000644 -0.00258
0.00045 0.000699 -0.00242
0.000501 0.000693 -0.002418
0.001268 0.000715 -0.002125
0.000975 0.000417 -0.002841
0.001045 0.000583 -0.002816
0.0002 0.000707 -0.002897
0.001022 0.000582 -0.002825
0.001146 0.000719 -0.002536
0.002584 0.000661 -0.001518
0.000898 0.000592 -0.002837
0.000262 0.000707 -0.002757
0.001243 0.000638 -0.00213
0.0002 0.000653 -0.002897
0.000252 -1.6e-05 -0.002125
0.000227 -1.7e-05 -0.002126
0.000202 -1.7e-05 -0.002126
0.000178 -1.8e-05 -0.002127
0.000153 -1.8e-05 -0.002127
0.000128 -1.8e-05 -0.002127
0.000104 -1.8e-05 -0.002127
7.9e-05 -1.9e-05 -0.002128
5.4e-05 -1.9e-05 -0.002128
3e-05 -1.9e-05 -0.002128
5e-06 -1.9e-05 -0.002128
-2e-05 -1.9e-05 -0.002128
-4.4e-05 -1.9e-05 -0.002127
-6.9e-05 -1.9e-05 -0.002127
-9.3e-05 -1.9e-05 -0.002127
-0.000118 -1.9e-05 -0.002126
-0.000143 -1.9e-05 -0.002125
-0.000167 -1.9e-05 -0.002124
-0.000192 -1.8e-05 -0.002123
-0.000217 -1.8e-05 -0.002122
-0.000241 -1.7e-05 -0.002121
-0.000266 -1.7e-05 -0.00212
-0.00029 -1.7e-05 -0.002119
-0.00034 -1.5e-05 -0.002115
-0.000364 -1.5e-05 -0.002113
-0.000389 -1.4e-05 -0.002112
-0.000413 -1.4e-05 -0.00211
-0.000438 -1.3e-05 -0.002108
0.001045 0.00042 -0.002816
0.00034 0.000684 -0.002484
0.000646 0.000578 -0.002575
0.000831 0.000462 -0.002782
0.001148 0.000618 -0.002445
0.000952 0.000417 -0.002849
0.001022 0.000419 -0.002824
0.000263 0.000571 -0.002758
0.001097 0.00066 -0.002785
0.000231 0.000542 -0.00283
0.000201 0.000517 -0.002897
0.00034 0.000657 -0.002483
0.000325 0.000641 -0.002522
0.000315 0.000617 -0.002579
0.000304 0.000595 -0.002631
0.000292 0.000575 -0.002679
0.000277 0.000559 -0.002718
0.000263 0.000543 -0.002758
0.000247 0.000529 -0.002794
0.000231 0.000515 -0.00283
0.000216 0.000502 -0.002864
0.000201 0.000489 -0.002898
0.001101 0.00052 -0.002792
0.001812 0.000556 -0.002395
0.001003 0.000696 -0.002819
0.002586 0.00058 -0.001534
0.001671 0.000607 -0.002354
0.001101 0.000492 -0.002792
0.001671 0.000553 -0.002354
0.002193 0.000617 -0.001661
0.001892 0.000559 -0.002337
0.001072 0.00069 -0.002791
0.001091 0.000394 -0.002798
0.001068 0.000393 -0.002808
0.001045 0.000392 -0.002816
0.001022 0.000391 -0.002825
0.000999 0.000391 -0.002833
0.000975 0.00039 -0.002841
0.000952 0.000389 -0.002849
0.000927 0.000391 -0.002852
0.000898 0.000402 -0.002837
0.000865 0.000417 -0.002811
0.000831 0.000435 -0.002781
0.000797 0.000453 -0.002751
0.000763 0.000471 -0.00272
0.000727 0.000493 -0.002682
0.000687 0.000521 -0.002629
0.000645 0.000552 -0.002571
0.000475 0.000643 -0.002416
0.00045 0.000645 -0.002419
0.000426 0.000646 -0.002424
0.000403 0.000645 -0.002432
0.00038 0.000643 -0.002444
0.000359 0.000638 -0.00246
0.00034 0.00063 -0.002483
0.000325 0.000614 -0.002522
0.000315 0.00059 -0.002579
0.000304 0.000568 -0.002631
0.000292 0.000548 -0.002679
0.000277 0.000532 -0.002718
0.000263 0.000516 -0.002759
0.000247 0.000502 -0.002794
0.000231 0.000488 -0.00283
0.000216 0.000475 -0.002864
0.000201 0.000462 -0.002897
0.001833 0.00042 -0.002383
0.001115 0.00058 -0.002767
0.001872 0.000613 -0.002352
0.001632 0.000705 -0.002337
0.001122 0.000593 -0.002732
0.001747 0.000522 -0.002384
0.001129 0.000551 -0.002695
0.001872 0.000477 -0.002351
0.001147 0.000673 -0.002444
0.00105 0.000691 -0.002802
0.001091 0.000367 -0.002799
0.001068 0.000366 -0.002808
0.001045 0.000365 -0.002816
0.001022 0.000364 -0.002825
0.000999 0.000363 -0.002833
0.000975 0.000363 -0.002841
0.000952 0.000362 -0.002849
0.000927 0.000364 -0.002852
0.000897 0.000375 -0.002837
0.000865 0.00039 -0.002811
0.000831 0.000407 -0.002782
0.000797 0.000425 -0.002751
0.000763 0.000443 -0.002721
0.000727 0.000466 -0.002681
0.000688 0.000492 -0.002633
0.00045 0.000618 -0.002419
0.000426 0.000619 -0.002424
0.000403 0.000618 -0.002432
0.000381 0.000616 -0.002444
0.00036 0.000611 -0.00246
0.00034 0.000603 -0.002483
0.000325 0.000587 -0.002523
0.000315 0.000563 -0.002578
0.000304 0.000541 -0.00263
0.000291 0.000521 -0.002678
0.000277 0.000505 -0.002719
0.000263 0.000489 -0.002758
0.000247 0.000475 -0.002794
0.000231 0.000461 -0.00283
0.000216 0.000448 -0.002864
0.0002 0.000435 -0.002897
0.001631 0.000461 -0.002336
0.00171 0.000564 -0.00237
0.001411 0.000754 -0.002214
0.001148 0.000746 -0.002398
0.001304 0.000757 -0.002135
0.00159 0.000506 -0.002317
0.002774 0.000506 -0.000832
0.001143 0.000703 -0.002577
0.000992 0.000733 -0.002801
0.001068 0.000339 -0.002808
0.001045 0.000338 -0.002817
0.001022 0.000337 -0.002825
0.000999 0.000336 -0.002833
0.000975 0.000335 -0.002842
0.000952 0.000335 -0.002849
0.000927 0.000337 -0.002852
0.000897 0.000347 -0.002837
0.000865 0.000363 -0.002811
0.000831 0.00038 -0.002782
0.000797 0.000398 -0.002752
0.000763 0.000416 -0.002721
0.000727 0.000438 -0.002681
0.000687 0.000467 -0.002628
0.00045 0.000591 -0.002419
0.000426 0.000592 -0.002424
0.000403 0.000591 -0.002432
0.000381 0.000589 -0.002444
0.00036 0.000584 -0.00246
0.00034 0.000576 -0.002483
0.000326 0.000559 -0.002524
0.000315 0.000536 -0.002578
0.000304 0.000513 -0.002632
0.000291 0.000494 -0.002678
0.000278 0.000477 -0.00272
0.000262 0.000462 -0.002758
0.000247 0.000447 -0.002795
0.000231 0.000434 -0.00283
0.000215 0.000421 -0.002863
0.0002 0.000408 -0.002897
0.001146 0.000611 -0.002396
0.001591 0.000614 -0.002318
0.001129 0.000633 -0.002695
0.001148 0.000727 -0.002444
0.001206 0.000788 -0.002117
0.001812 0.000393 -0.002396
0.001268 0.000634 -0.002125
0.001139 0.000688 -0.002618
0.002329 0.00059 -0.001684
0.001068 0.000311 -0.002808
0.001045 0.00031 -0.002817
0.001022 0.000309 -0.002826
0.000999 0.000309 -0.002834
0.000975 0.000308 -0.002842
0.000952 0.000308 -0.002849
0.000927 0.00031 -0.002852
0.000897 0.00032 -0.002836
0.000865 0.000336 -0.002811
0.000831 0.000353 -0.002782
0.000797 0.000371 -0.002752
0.000763 0.00039 -0.002719
0.000727 0.000411 -0.002681
0.000687 0.000439 -0.00263
0.00045 0.000564 -0.002419
0.000426 0.000565 -0.002424
0.000403 0.000564 -0.002432
0.00038 0.000561 -0.002444
0.000359 0.000556 -0.00246
0.00034 0.000548 -0.002484
0.000326 0.000532 -0.002524
0.000315 0.000509 -0.002578
0.000304 0.000486 -0.002631
0.000292 0.000467 -0.002679
0.000277 0.00045 -0.00272
0.000262 0.000435 -0.002758
0.000247 0.00042 -0.002795
0.000231 0.000406 -0.00283
0.000215 0.000394 -0.002863
0.000199 0.000381 -0.002897
0.001138 0.000637 -0.002335
0.002555 0.000486 -0.00159
0.001146 0.000691 -0.002536
0.001147 0.000709 -0.002491
0.001185 0.000788 -0.002131
0.001129 0.000663 -0.002275
0.001148 0.000572 -0.002492
0.001129 0.00066 -0.002695
0.001841 0.000654 -0.002372
0.001068 0.000284 -0.002808
0.001045 0.000283 -0.002817
0.001022 0.000283 -0.002825
0.000999 0.000282 -0.002833
0.000975 0.000281 -0.002841
0.000952 0.000281 -0.002849
0.000927 0.000283 -0.002851
0.000897 0.000293 -0.002836
0.000864 0.000309 -0.00281
0.000831 0.000326 -0.002781
0.000797 0.000343 -0.002753
0.000763 0.000362 -0.002719
0.000727 0.000384 -0.002681
0.000686 0.000413 -0.002628
0.00045 0.000537 -0.002418
0.000426 0.000537 -0.002424
0.000402 0.000537 -0.002431
0.00038 0.000534 -0.002444
0.000359 0.000529 -0.00246
0.00034 0.000521 -0.002484
0.000325 0.000505 -0.002523
0.000315 0.000482 -0.002578
0.000304 0.000459 -0.002631
0.000292 0.00044 -0.002679
0.000277 0.000423 -0.002719
0.000263 0.000407 -0.002759
0.000247 0.000393 -0.002794
0.000231 0.000379 -0.00283
0.000215 0.000366 -0.002864
0.000199 0.000353 -0.002898
0.001872 0.000395 -0.002352
0.00113 0.000744 -0.002275
0.001866 0.000711 -0.001898
0.001143 0.000676 -0.002578
0.001101 0.000574 -0.002791
0.001853 0.000421 -0.002367
0.002085 0.000718 -0.001631
0.001498 0.00074 -0.002262
0.001941 0.000679 -0.002277
0.001068 0.000257 -0.002807
0.001045 0.000256 -0.002816
0.001022 0.000256 -0.002825
0.000999 0.000255 -0.002833
0.000975 0.000254 -0.002841
0.000952 0.000254 -0.002849
0.000927 0.000256 -0.002851
0.000897 0.000266 -0.002836
0.000864 0.000282 -0.002809
0.000831 0.000299 -0.002781
0.000797 0.000316 -0.002752
0.000763 0.000336 -0.002719
0.000726 0.000358 -0.002679
0.000686 0.000386 -0.002627
0.00045 0.00051 -0.002418
0.000426 0.00051 -0.002423
0.000402 0.00051 -0.002432
0.00038 0.000507 -0.002444
0.000359 0.000502 -0.00246
0.00034 0.000494 -0.002484
0.000325 0.000478 -0.002523
0.000315 0.000455 -0.002578
0.000304 0.000432 -0.002632
0.000291 0.000413 -0.002678
0.000277 0.000396 -0.00272
0.000263 0.00038 -0.002759
0.000247 0.000366 -0.002794
0.000231 0.000352 -0.00283
0.000215 0.000339 -0.002864
0.000199 0.000326 -0.002897
0.002542 0.000566 -0.001611
0.001386 0.000721 -0.002175
0.001079 0.000602 -0.002803
0.002139 0.000613 -0.001646
0.001139 0.000634 -0.002618
0.001631 0.000488 -0.002337
0.0025 0.000534 -0.001673
0.002195 0.000697 -0.001663
0.001829 0.000668 -0.002376
0.001068 0.00023 -0.002808
0.001045 0.000229 -0.002817
0.001022 0.000229 -0.002824
0.000999 0.000227 -0.002833
0.000975 0.000227 -0.002842
0.000952 0.000227 -0.002848
0.000927 0.000229 -0.002851
0.000897 0.000239 -0.002836
0.000864 0.000255 -0.002809
0.000831 0.000272 -0.002781
0.000797 0.000289 -0.002752
0.000763 0.000308 -0.00272
0.00045 0.000483 -0.002418
0.000426 0.000483 -0.002424
0.000402 0.000482 -0.002432
0.00038 0.00048 -0.002444
0.000359 0.000475 -0.00246
0.00034 0.000466 -0.002484
0.000325 0.000452 -0.002521
0.000304 0.000405 -0.002632
0.000291 0.000386 -0.002678
0.000277 0.000369 -0.002719
0.000263 0.000353 -0.002759
0.000247 0.000339 -0.002794
0.000231 0.000325 -0.00283
0.000215 0.000312 -0.002864
0.000199 0.000299 -0.002897
0.000184 0.000287 -0.00293
0.001139 0.000497 -0.002619
0.00167 0.00058 -0.002353
0.001134 0.000646 -0.002657
0.001783 0.000618 -0.002395
0.001147 0.0007 -0.002444
0.001148 0.000627 -0.002492
0.001145 0.000639 -0.002394
0.001138 0.000664 -0.002336
0.002554 0.00065 -0.001589
0.001116 0.000635 -0.002767
0.002579 0.000627 -0.001546
0.001068 0.000203 -0.002808
0.001045 0.000202 -0.002817
0.001022 0.000201 -0.002826
0.000999 0.0002 -0.002834
0.000975 0.0002 -0.002841
0.000951 0.0002 -0.002848
0.000926 0.000202 -0.00285
0.000897 0.000212 -0.002835
0.000864 0.000228 -0.002808
0.000831 0.000245 -0.002781
0.000797 0.000262 -0.002751
0.000763 0.000281 -0.00272
0.000726 0.000304 -0.002678
0.000686 0.000332 -0.002627
0.00045 0.000455 -0.002418
0.000426 0.000456 -0.002424
0.000402 0.000455 -0.002432
0.00038 0.000453 -0.002444
0.000359 0.000448 -0.00246
0.00034 0.000439 -0.002484
0.000325 0.000424 -0.002523
0.000315 0.0004 -0.002578
0.000304 0.000377 -0.002632
0.000291 0.000358 -0.002678
0.000277 0.000341 -0.00272
0.000263 0.000325 -0.002759
0.000247 0.000312 -0.002794
0.000231 0.000298 -0.00283
0.000215 0.000285 -0.002863
0.000199 0.000272 -0.002897
0.000183 0.000259 -0.00293
0.002141 0.000694 -0.001648
0.001833 0.000529 -0.002383
0.001139 0.000661 -0.002618
0.001955 0.0006 -0.002243
0.001801 0.000729 -0.00174
0.001591 0.000641 -0.002318
0.00167 0.000499 -0.002353
0.002243 0.000596 -0.001673
0.002478 0.000565 -0.001686
0.001133 0.000593 -0.002656
0.001124 0.000647 -0.002732
0.001747 0.000685 -0.002384
0.001068 0.000176 -0.002807
0.001045 0.000175 -0.002817
0.001022 0.000174 -0.002825
0.000999 0.000173 -0.002833
0.000975 0.000173 -0.002841
0.000951 0.000173 -0.002846
0.000926 0.000175 -0.002848
0.000897 0.000185 -0.002835
0.000864 0.000201 -0.002808
0.000831 0.000217 -0.002781
0.000797 0.000235 -0.002752
0.000763 0.000253 -0.002721
0.000726 0.000277 -0.002678
0.000686 0.000306 -0.002625
0.00045 0.000428 -0.002418
0.000426 0.000429 -0.002424
0.000402 0.000428 -0.002432
0.00038 0.000426 -0.002444
0.000359 0.00042 -0.00246
0.00034 0.000412 -0.002484
0.000325 0.000396 -0.002524
0.000315 0.000373 -0.002578
0.000304 0.000351 -0.002631
0.000291 0.000331 -0.002678
0.000277 0.000314 -0.00272
0.000262 0.000298 -0.002759
0.000247 0.000285 -0.002794
0.000231 0.000271 -0.002829
0.000215 0.000257 -0.002864
0.000198 0.000244 -0.002897
0.000182 0.000232 -0.002929
0.001148 0.000564 -0.002445
0.001631 0.000597 -0.002336
0.001496 0.000715 -0.002259
0.001879 0.000678 -0.002339
0.001126 0.000674 -0.002733
0.001747 0.000631 -0.002384
0.001243 0.000719 -0.002131
0.002444 0.000603 -0.001689
0.001954 0.000564 -0.002275
0.001134 0.000623 -0.002235
0.001783 0.00059 -0.002395
0.002498 0.000617 -0.001671
0.001068 0.000149 -0.002806
0.001045 0.000148 -0.002815
0.001022 0.000147 -0.002824
0.000998 0.000147 -0.002832
0.000975 0.000146 -0.00284
0.000951 0.000147 -0.002845
0.000925 0.000149 -0.002846
0.000897 0.000158 -0.002834
0.000864 0.000174 -0.002807
0.000831 0.00019 -0.002782
0.000797 0.000208 -0.002751
0.000763 0.000226 -0.002721
0.000725 0.00025 -0.002677
0.000685 0.000279 -0.002624
0.000645 0.000308 -0.00257
0.000426 0.000402 -0.002424
0.000402 0.000401 -0.002432
0.00038 0.000398 -0.002444
0.000359 0.000393 -0.00246
0.00034 0.000385 -0.002484
0.000325 0.000369 -0.002523
0.000315 0.000345 -0.002579
0.000304 0.000323 -0.002631
0.000291 0.000304 -0.002678
0.000277 0.000287 -0.00272
0.000262 0.000271 -0.002759
0.000246 0.000258 -0.002793
0.000231 0.000244 -0.002829
0.000215 0.00023 -0.002864
0.000198 0.000218 -0.002897
0.000182 0.000205 -0.002929
0.002515 0.000562 -0.001653
0.001335 0.000748 -0.002138
0.001546 0.00069 -0.002292
0.001852 0.000639 -0.002367
0.001949 0.000696 -0.002204
0.00171 0.000645 -0.00237
0.00167 0.000526 -0.002353
0.00113 0.000608 -0.002276
0.001872 0.000558 -0.002352
0.001781 0.000674 -0.002392
0.001067 0.000124 -0.002803
0.001044 0.000122 -0.002813
0.001021 0.000121 -0.002822
0.000998 0.00012 -0.00283
0.000974 0.000121 -0.002836
0.00095 0.000121 -0.002841
0.000925 0.000123 -0.002843
0.000896 0.000131 -0.002834
0.000864 0.000147 -0.002808
0.000831 0.000163 -0.002782
0.000797 0.000181 -0.002751
0.000763 0.000199 -0.002721
0.000685 0.000252 -0.002624
0.000645 0.000281 -0.00257
0.00045 0.000374 -0.002418
0.000426 0.000374 -0.002424
0.000402 0.000374 -0.002432
0.00038 0.000371 -0.002444
0.00036 0.000366 -0.00246
0.00034 0.000358 -0.002484
0.000325 0.000343 -0.002521
0.000315 0.000318 -0.002579
0.000304 0.000296 -0.002632
0.000291 0.000277 -0.002678
0.000277 0.00026 -0.002719
0.000262 0.000244 -0.002759
0.000247 0.00023 -0.002795
0.000231 0.000216 -0.002829
0.000215 0.000203 -0.002864
0.000198 0.00019 -0.002897
0.000181 0.000178 -0.002928
0.001148 0.000536 -0.002446
0.001546 0.000635 -0.002292
0.001892 0.000587 -0.002337
0.001832 0.000639 -0.00238
0.00181 0.00064 -0.002391
0.001853 0.000557 -0.002368
0.001149 0.000517 -0.002493
0.000281 -2.7e-05 -0.002085
0.000305 -2.7e-05 -0.00208
0.001146 0.000557 -0.002395
0.001935 0.000699 -0.002125
0.001671 0.000716 -0.002354
0.001065 9.9e-05 -0.002797
0.001042 9.8e-05 -0.002808
0.001019 9.6e-05 -0.002817
0.000996 9.6e-05 -0.002825
0.000972 9.6e-05 -0.00283
0.000948 9.7e-05 -0.002835
0.000923 9.9e-05 -0.002838
0.000896 0.000105 -0.002832
0.000863 0.00012 -0.002807
0.000831 0.000136 -0.002782
0.000797 0.000153 -0.002752
0.000763 0.000172 -0.00272
0.000329 -2.8e-05 -0.002075
0.000684 0.000226 -0.002621
0.000645 0.000253 -0.002571
0.00045 0.000347 -0.002418
0.000426 0.000347 -0.002424
0.000402 0.000346 -0.002432
0.00038 0.000344 -0.002444
0.000359 0.000339 -0.00246
0.00034 0.00033 -0.002485
0.000325 0.000316 -0.002521
0.000315 0.000291 -0.002579
0.000304 0.000268 -0.002632
0.000291 0.000249 -0.002679
