0.002142 0.000297 0.00212
0.001372 0.000288 0.002684
0.001021 0.000564 0.002481
0.001165 0.00038 0.002604
0.000695 0.000487 0.002515
0.000625 0.00048 0.002859
0.001296 0.000513 0.002692
0.001325 0.000559 0.002702
0.000555 0.000635 0.002961
0.001432 0.000249 0.002654
0.001454 0.000248 0.002642
0.001476 0.000247 0.00263
0.001496 0.000247 0.002616
0.001511 0.000252 0.002594
0.001515 0.000265 0.002556
0.001517 0.00028 0.002516
0.001518 0.000296 0.002473
0.001518 0.000314 0.002429
0.001516 0.000331 0.002383
0.001509 0.000354 0.002329
0.001498 0.00038 0.002269
0.001465 0.000441 0.002134
0.001456 0.000465 0.002077
0.001463 0.000477 0.002042
0.001475 0.000484 0.002017
0.001492 0.000487 0.001997
0.00151 0.000489 0.001981
0.001531 0.000489 0.001967
0.001552 0.000488 0.001955
0.001576 0.000484 0.001947
0.001603 0.000479 0.001942
0.001635 0.000469 0.001945
0.001678 0.000451 0.001964
0.001729 0.000425 0.001996
0.001776 0.000404 0.002021
0.00182 0.000384 0.002041
0.001859 0.000368 0.002055
0.001899 0.000352 0.00207
0.001938 0.000337 0.002083
0.001976 0.000323 0.002095
0.002014 0.000308 0.002107
0.00205 0.000295 0.002117
0.002085 0.000283 0.002125
0.002118 0.000272 0.00213
0.001059 0.000542 0.002518
0.000824 0.000649 0.002354
0.001059 0.000406 0.002519
0.000532 0.000282 0.002968
0.001394 0.000317 0.002674
0.000734 0.000616 0.002394
0.001372 0.000478 0.002685
0.00098 0.000672 0.002435
0.001164 0.000625 0.002604
0.000482 0.000638 0.002976
0.001432 0.000222 0.002654
0.001454 0.000221 0.002642
0.001476 0.00022 0.00263
0.001496 0.00022 0.002616
0.00151 0.000225 0.002593
0.001515 0.000238 0.002557
0.001517 0.000253 0.002515
0.001519 0.000269 0.002474
0.001518 0.000286 0.002429
0.001516 0.000304 0.002384
0.001508 0.000328 0.002328
0.001498 0.000353 0.002269
0.001466 0.000414 0.002134
0.001456 0.000438 0.002077
0.001462 0.00045 0.002042
0.001475 0.000457 0.002016
0.001492 0.00046 0.001997
0.001511 0.000461 0.001981
0.001531 0.000461 0.001967
0.001552 0.00046 0.001955
0.001576 0.000457 0.001947
0.001603 0.000452 0.001942
0.001635 0.000442 0.001946
0.001678 0.000424 0.001964
0.001729 0.000398 0.001995
0.001776 0.000376 0.002021
0.001819 0.000357 0.00204
0.00186 0.000341 0.002056
0.001899 0.000325 0.00207
0.001938 0.000309 0.002084
0.001976 0.000295 0.002096
0.002014 0.000281 0.002107
0.00205 0.000268 0.002116
0.002085 0.000256 0.002125
0.002118 0.000245 0.00213
0.00135 0.000286 0.002695
0.000849 0.000646 0.002352
0.0008 0.00065 0.002359
0.00069 0.000406 0.002578
0.001372 0.000315 0.002685
0.000824 0.000459 0.002353
0.001416 0.000482 0.002661
0.001058 0.000624 0.002517
0.00113 0.000642 0.002578
0.000458 0.00064 0.00298
0.001432 0.000195 0.002654
0.001454 0.000194 0.002642
0.001476 0.000193 0.00263
0.001496 0.000193 0.002615
0.00151 0.000198 0.002593
0.001515 0.000211 0.002556
0.001517 0.000226 0.002516
0.001518 0.000242 0.002474
0.001518 0.000259 0.002429
0.001516 0.000277 0.002383
0.001509 0.0003 0.002329
0.001497 0.000327 0.002268
0.001465 0.000387 0.002133
0.001456 0.000411 0.002076
0.001462 0.000423 0.002041
0.001475 0.000429 0.002016
0.001492 0.000433 0.001997
0.00151 0.000434 0.001981
0.001531 0.000434 0.001967
0.001552 0.000433 0.001955
0.001576 0.00043 0.001946
0.001603 0.000425 0.001942
0.001635 0.000415 0.001945
0.001678 0.000396 0.001965
0.001728 0.000372 0.001994
0.001776 0.000349 0.002021
0.00182 0.00033 0.002041
0.00186 0.000314 0.002056
0.0019 0.000297 0.002071
0.001938 0.000282 0.002084
0.001976 0.000268 0.002096
0.002014 0.000254 0.002107
0.002049 0.000241 0.002115
0.002085 0.000228 0.002125
0.002118 0.000218 0.002129
0.000876 0.000532 0.002354
0.001372 0.000424 0.002685
0.000625 0.000345 0.002858
0.001403 -2.8e-05 0.001559
0.001394 0.000344 0.002674
0.00113 0.000424 0.002578
0.000531 0.000445 0.002968
0.001021 0.000646 0.00248
0.001095 0.000659 0.00255
0.000433 0.000643 0.002983
0.001432 0.000168 0.002654
0.001454 0.000167 0.002642
0.001475 0.000166 0.002629
0.001494 0.000167 0.002614
0.00151 0.000171 0.002592
0.001515 0.000183 0.002557
0.001517 0.000199 0.002516
0.001518 0.000215 0.002473
0.001518 0.000231 0.00243
0.001516 0.00025 0.002383
0.001456 0.000385 0.002076
0.001462 0.000396 0.002042
0.001475 0.000402 0.002017
0.001492 0.000406 0.001997
0.001511 0.000407 0.001981
0.00153 0.000407 0.001967
0.001552 0.000406 0.001955
0.001576 0.000403 0.001946
0.001603 0.000398 0.001942
0.001635 0.000388 0.001945
0.001679 0.000369 0.001965
0.001729 0.000344 0.001995
0.001775 0.000323 0.00202
0.00182 0.000303 0.002041
0.00186 0.000286 0.002056
0.0019 0.00027 0.002071
0.001939 0.000255 0.002084
0.001976 0.000241 0.002095
0.002014 0.000226 0.002107
0.002049 0.000214 0.002116
0.002085 0.000201 0.002125
0.002118 0.000191 0.002129
0.000556 0.000362 0.002964
0.001394 0.000426 0.002673
0.00135 0.000422 0.002696
0.001198 0.000419 0.002629
0.000715 0.000663 0.002417
0.000652 0.000539 0.00278
0.000531 0.0005 0.002968
0.000683 0.000707 0.002636
0.00141 0.000142 0.002664
0.001432 0.000141 0.002652
0.001453 0.00014 0.00264
0.001473 0.00014 0.002626
0.001493 0.000141 0.002611
0.001509 0.000145 0.002591
0.001515 0.000157 0.002556
0.001517 0.000171 0.002516
0.001518 0.000188 0.002473
0.001518 0.000204 0.00243
0.001517 0.000223 0.002384
0.001497 0.000272 0.002268
0.001484 0.0003 0.002205
0.001456 0.000357 0.002076
0.001462 0.000369 0.002041
0.001475 0.000375 0.002016
0.001492 0.000378 0.001997
0.001511 0.00038 0.001981
0.001531 0.00038 0.001967
0.001552 0.000379 0.001955
0.001576 0.000376 0.001946
0.001603 0.00037 0.001942
0.001635 0.000361 0.001945
0.001679 0.000342 0.001965
0.001729 0.000317 0.001996
0.001819 0.000276 0.002041
0.00186 0.000259 0.002056
0.0019 0.000243 0.002072
0.001938 0.000228 0.002084
0.001976 0.000214 0.002096
0.002014 0.000199 0.002107
0.002049 0.000187 0.002116
0.002085 0.000174 0.002126
0.002117 0.000164 0.002128
0.000556 0.000253 0.002964
0.000532 0.000363 0.002969
0.000556 0.000281 0.002964
0.001383 -2.8e-05 0.001574
0.001363 -2.9e-05 0.001589
0.001164 0.000435 0.002604
0.000777 0.000704 0.002368
0.000674 0.000602 0.00269
0.001021 0.0007 0.002482
0.000664 0.000691 0.002738
0.001408 0.000117 0.002661
0.001429 0.000116 0.002649
0.00145 0.000115 0.002636
0.001471 0.000116 0.002622
0.00149 0.000116 0.002607
0.001507 0.000119 0.002588
0.001514 0.00013 0.002555
0.001517 0.000145 0.002515
0.001518 0.000161 0.002473
0.001518 0.000177 0.002429
0.001517 0.000195 0.002384
0.001344 -2.9e-05 0.001604
0.001498 0.000245 0.002268
0.001483 0.000274 0.002203
0.001466 0.000305 0.002135
0.001456 0.00033 0.002076
0.001463 0.000341 0.002042
0.001475 0.000348 0.002016
0.001492 0.000351 0.001997
0.001511 0.000353 0.001981
0.001531 0.000353 0.001967
0.001552 0.000352 0.001955
0.001576 0.000349 0.001946
0.001604 0.000343 0.001942
0.001636 0.000333 0.001946
0.001679 0.000315 0.001965
0.001729 0.00029 0.001996
0.001775 0.000268 0.002019
0.001819 0.000249 0.00204
0.00186 0.000232 0.002056
0.0019 0.000216 0.002072
0.001938 0.000201 0.002084
0.001976 0.000186 0.002096
0.002013 0.000172 0.002107
0.002049 0.000159 0.002116
0.002085 0.000147 0.002125
0.002115 0.000139 0.002125
0.002138 0.000137 0.002115
0.000579 0.000254 0.002954
0.001165 0.000516 0.002605
0.000639 0.000387 0.002819
0.000734 0.000562 0.002394
0.000755 0.000702 0.002379
0.000664 0.000583 0.002737
0.00098 0.000726 0.002435
0.001164 0.000706 0.002604
0.001404 9.3e-05 0.002655
0.001425 9.2e-05 0.002643
0.001446 9.1e-05 0.00263
0.001467 9.2e-05 0.002616
0.001486 9.3e-05 0.002601
0.001503 9.5e-05 0.002583
0.001514 0.000103 0.002555
0.001517 0.000117 0.002515
0.001518 0.000133 0.002473
0.001518 0.00015 0.00243
0.001517 0.000168 0.002384
0.001497 0.000218 0.002267
0.001483 0.000247 0.002203
0.001465 0.000279 0.002132
0.001456 0.000303 0.002076
0.001463 0.000314 0.002042
0.001475 0.000321 0.002016
0.001492 0.000324 0.001997
0.001511 0.000325 0.001981
0.001531 0.000326 0.001967
0.001552 0.000324 0.001955
0.001576 0.000321 0.001946
0.001604 0.000316 0.001943
0.001636 0.000306 0.001946
0.001679 0.000287 0.001965
0.001729 0.000262 0.001996
0.001776 0.000241 0.00202
0.001819 0.000222 0.00204
0.00186 0.000205 0.002056
0.0019 0.000189 0.00207
0.001939 0.000173 0.002084
0.001976 0.000159 0.002096
0.002013 0.000145 0.002106
0.002049 0.000132 0.002115
0.002085 0.00012 0.002123
0.002113 0.000113 0.002121
0.002135 0.000112 0.00211
0.000665 0.000283 0.002739
0.001198 0.0005 0.002629
0.00113 0.000533 0.002577
0.000508 0.000202 0.002973
0.00135 0.000232 0.002695
0.001198 0.000527 0.002629
0.000625 0.000535 0.002859
0.000652 0.00062 0.002781
0.001295 0.00065 0.002692
0.001398 7.1e-05 0.002647
0.00142 7e-05 0.002635
0.00144 6.9e-05 0.002622
0.001461 6.9e-05 0.002608
0.00148 7e-05 0.002593
0.001498 7.2e-05 0.002575
0.001512 7.8e-05 0.002551
0.001517 9e-05 0.002515
0.001518 0.000106 0.002473
0.001518 0.000123 0.00243
0.001517 0.000141 0.002384
0.001482 0.00022 0.002202
0.001456 0.000276 0.002076
0.001463 0.000287 0.002042
0.001475 0.000293 0.002017
0.001492 0.000297 0.001997
0.001511 0.000298 0.001981
0.001531 0.000299 0.001967
0.001552 0.000297 0.001955
0.001576 0.000294 0.001946
0.001604 0.000288 0.001943
0.001636 0.000279 0.001946
0.001679 0.00026 0.001965
0.00173 0.000235 0.001996
0.001775 0.000214 0.002019
0.001819 0.000194 0.00204
0.00186 0.000177 0.002056
0.0019 0.000161 0.002072
0.001939 0.000146 0.002084
0.001977 0.000132 0.002096
0.002014 0.000118 0.002107
0.002049 0.000106 0.002115
0.002084 9.4e-05 0.002122
0.002109 9e-05 0.002116
0.002131 8.8e-05 0.002104
0.000695 0.000514 0.002514
0.000652 0.000403 0.00278
0.000664 0.000419 0.002738
0.001324 -3e-05 0.001618
0.00135 0.000367 0.002696
0.001165 0.000543 0.002605
0.000696 0.000676 0.002516
0.00113 0.000669 0.002577
0.001263 0.000662 0.002674
0.001368 5.2e-05 0.002647
0.00139 5e-05 0.002636
0.001412 4.9e-05 0.002623
0.001433 4.9e-05 0.00261
0.001453 4.9e-05 0.002596
0.001473 4.9e-05 0.002582
0.001491 5.1e-05 0.002564
0.001506 5.5e-05 0.002543
0.001516 6.4e-05 0.002513
0.001518 7.9e-05 0.002473
0.001518 9.6e-05 0.002429
0.001483 0.000192 0.002204
0.001466 0.000223 0.002134
0.001456 0.000249 0.002076
0.001463 0.00026 0.002042
0.001475 0.000266 0.002016
0.001492 0.00027 0.001997
0.001511 0.000271 0.001981
0.001531 0.000271 0.001967
0.001552 0.00027 0.001955
0.001576 0.000267 0.001946
0.001604 0.000261 0.001942
0.001636 0.000252 0.001946
0.001678 0.000234 0.001963
0.001729 0.000208 0.001996
0.001777 0.000186 0.002021
0.001819 0.000167 0.00204
0.00186 0.000151 0.002056
0.0019 0.000134 0.002071
0.001939 0.000119 0.002084
0.001976 0.000105 0.002096
0.002014 9e-05 0.002107
0.002049 7.8e-05 0.002115
0.00208 7e-05 0.002117
0.002104 6.7e-05 0.002107
0.002125 6.6e-05 0.002095
0.000701 0.000541 0.002453
0.001372 0.000233 0.002685
0.000639 0.000279 0.002819
0.001264 0.000526 0.002673
0.000596 0.000562 0.002929
0.001313 3.7e-05 0.002653
0.001336 3.5e-05 0.002643
0.001358 3.3e-05 0.002632
0.00138 3.1e-05 0.00262
0.001401 3.1e-05 0.002608
0.001422 3e-05 0.002595
0.001443 3e-05 0.002581
0.001463 3e-05 0.002567
0.001481 3.2e-05 0.00255
0.001497 3.5e-05 0.00253
0.001511 4.1e-05 0.002506
0.001516 5.3e-05 0.002471
0.001518 6.9e-05 0.002429
0.001517 8.6e-05 0.002384
0.001304 -3e-05 0.001633
0.001465 0.000197 0.002133
0.001456 0.000222 0.002075
0.001463 0.000233 0.002042
0.001475 0.000239 0.002016
0.001492 0.000243 0.001997
0.00151 0.000244 0.001981
0.00153 0.000244 0.001966
0.001552 0.000243 0.001954
0.001576 0.00024 0.001946
0.001604 0.000234 0.001943
0.001636 0.000224 0.001946
0.001677 0.000207 0.001963
0.001729 0.000181 0.001995
0.001776 0.000159 0.002021
0.00182 0.00014 0.00204
0.00186 0.000124 0.002056
0.0019 0.000107 0.002072
0.001939 9.1e-05 0.002085
0.001976 7.8e-05 0.002095
0.002013 6.4e-05 0.002106
0.002047 5.3e-05 0.002112
0.002073 4.8e-05 0.002107
0.002096 4.6e-05 0.002097
0.001232 0.000376 0.002652
0.000625 0.000399 0.002858
0.0008 0.000568 0.002359
0.000905 0.000579 0.002363
0.001416 0.000509 0.002662
0.001198 0.000636 0.002629
0.0013 2e-05 0.002634
0.001322 1.9e-05 0.002623
0.001344 1.8e-05 0.002612
0.001366 1.7e-05 0.0026
0.001387 1.6e-05 0.002587
0.000531 0.000582 0.002967
0.000625 0.000616 0.002859
0.000652 0.000728 0.002782
0.001468 1.6e-05 0.00253
0.001486 1.8e-05 0.002513
0.001501 2.2e-05 0.002492
0.001511 3e-05 0.002463
0.001516 4.3e-05 0.002427
0.001517 5.9e-05 0.002384
0.001509 8.3e-05 0.002328
0.001497 0.000109 0.002268
0.001284 -3.1e-05 0.001647
0.001456 0.000194 0.002075
0.001462 0.000206 0.002041
0.001475 0.000212 0.002016
0.001492 0.000216 0.001996
0.00151 0.000217 0.001981
0.001531 0.000217 0.001966
0.001552 0.000216 0.001954
0.001576 0.000213 0.001946
0.001604 0.000207 0.001942
0.001636 0.000197 0.001946
0.001678 0.000179 0.001964
0.001729 0.000154 0.001995
0.001777 0.000131 0.002021
0.00182 0.000112 0.002041
0.00186 9.6e-05 0.002057
0.001901 7.9e-05 0.002072
0.001939 6.5e-05 0.002084
0.001976 5.1e-05 0.002095
0.00201 4e-05 0.002101
0.00204 3.2e-05 0.002101
0.002064 2.8e-05 0.002093
0.001095 0.000468 0.002551
0.000639 0.000414 0.00282
0.000611 0.000385 0.002894
0.000715 0.000582 0.002417
0.001349 0.000504 0.002696
0.001257 1.2e-05 0.002614
0.001279 1e-05 0.002603
0.0013 9e-06 0.002591
0.00132 9e-06 0.002576
0.001341 9e-06 0.002563
0.001325 0.000614 0.0027
0.001296 0.000622 0.002692
0.001264 0.00039 0.002672
0.001297 0.000377 0.002692
0.001297 0.000296 0.002691
0.001464 8e-06 0.002482
0.001484 9e-06 0.002467
0.0015 1.3e-05 0.002446
0.00151 2.1e-05 0.002418
0.001514 3.5e-05 0.002379
0.001508 5.6e-05 0.002327
0.001497 8.3e-05 0.002267
0.001455 0.000167 0.002075
0.001462 0.000179 0.002041
0.001475 0.000185 0.002016
0.001491 0.000189 0.001996
0.00151 0.00019 0.00198
0.00153 0.00019 0.001966
0.001552 0.000189 0.001954
0.001576 0.000186 0.001946
0.001604 0.00018 0.001943
0.001636 0.00017 0.001945
0.001678 0.000152 0.001964
0.00173 0.000126 0.001996
0.001776 0.000104 0.002021
0.00182 8.5e-05 0.002041
0.00186 6.9e-05 0.002056
0.0019 5.2e-05 0.002072
0.001937 3.9e-05 0.002082
0.001972 2.7e-05 0.002089
0.002001 1.9e-05 0.002089
0.002027 1.5e-05 0.002082
0.002049 1.4e-05 0.002071
0.00207 1.4e-05 0.002058
0.002091 1.3e-05 0.002045
0.002111 1.3e-05 0.00203
0.001326 0.000314 0.002702
0.000596 0.000372 0.002929
0.000734 0.000535 0.002394
0.000849 0.000537 0.002352
0.001394 0.000534 0.002674
0.00121 7e-06 0.00259
0.001231 5e-06 0.002577
0.001252 5e-06 0.002564
0.001273 5e-06 0.00255
0.001294 4e-06 0.002537
0.001315 5e-06 0.002525
0.000824 0.000567 0.002353
0.001356 5e-06 0.002498
0.001377 3e-06 0.002485
0.001418 3e-06 0.002457
0.001438 3e-06 0.002443
0.001458 4e-06 0.002428
0.001495 7e-06 0.002395
0.001505 1.5e-05 0.002367
0.001506 3.1e-05 0.002325
0.001496 5.6e-05 0.002266
0.001462 0.000118 0.002129
0.001456 0.00014 0.002075
0.001462 0.000152 0.002041
0.001475 0.000158 0.002016
0.001492 0.000161 0.001996
0.00151 0.000163 0.00198
0.00153 0.000163 0.001966
0.001552 0.000162 0.001954
0.001576 0.000159 0.001946
0.001604 0.000152 0.001943
0.001635 0.000143 0.001945
0.001678 0.000125 0.001964
0.001729 9.9e-05 0.001995
0.001777 7.7e-05 0.002022
0.00182 5.8e-05 0.002041
0.00186 4.2e-05 0.002056
0.001898 2.7e-05 0.002069
0.001931 1.6e-05 0.002074
0.00196 9e-06 0.002072
0.001983 7e-06 0.002062
0.002005 6e-06 0.00205
0.002025 6e-06 0.002036
0.002045 7e-06 0.002021
0.002064 8e-06 0.002005
0.002084 8e-06 0.001992
0.000755 0.000593 0.002379
0.000734 0.000644 0.002394
0.000579 0.000362 0.002955
0.001296 0.000404 0.002692
0.001137 8e-06 0.002567
0.00116 4e-06 0.002559
0.001181 3e-06 0.002547
0.001202 3e-06 0.002534
0.001222 3e-06 0.002519
0.001241 3e-06 0.002504
0.001261 4e-06 0.002489
0.000428 0.000703 0.002971
0.000454 0.0007 0.002969
0.001342 4e-06 0.002433
0.001362 5e-06 0.002419
0.001383 5e-06 0.002406
0.001402 5e-06 0.00239
0.001422 5e-06 0.002376
0.001462 6e-06 0.002347
0.001483 6e-06 0.002334
0.001497 1.1e-05 0.00231
0.001495 3e-05 0.002264
0.001264 -3.1e-05 0.001662
0.001465 8.8e-05 0.002132
0.001455 0.000113 0.002074
0.001462 0.000124 0.002041
0.001475 0.000131 0.002015
0.001491 0.000134 0.001996
0.00151 0.000136 0.00198
0.00153 0.000136 0.001966
0.001552 0.000135 0.001954
0.001576 0.000131 0.001945
0.001603 0.000126 0.001942
0.001636 0.000116 0.001945
0.001679 9.7e-05 0.001966
0.001729 7.2e-05 0.001996
0.001776 5e-05 0.002021
0.00182 3.1e-05 0.002041
0.001857 1.7e-05 0.002052
0.001888 9e-06 0.002053
0.001912 5e-06 0.002045
0.001934 4e-06 0.002033
0.001955 4e-06 0.00202
0.001976 3e-06 0.002008
0.001996 4e-06 0.001992
0.002017 3e-06 0.001981
0.002037 3e-06 0.001966
0.002058 3e-06 0.001952
0.001095 0.000523 0.00255
0.000755 0.000648 0.002379
0.000715 0.000636 0.002417
0.000682 0.000545 0.002634
0.001105 5e-06 0.002523
0.001125 6e-06 0.002508
0.001146 4e-06 0.002496
0.001166 5e-06 0.002481
0.001185 6e-06 0.002466
0.001205 6e-06 0.002452
0.001226 6e-06 0.002439
0.001246 6e-06 0.002424
0.001394 0.000235 0.002674
0.000579 0.0002 0.002953
0.00053 0.000665 0.002964
0.001328 6e-06 0.002369
0.001349 5e-06 0.002356
0.00137 5e-06 0.002343
0.00139 5e-06 0.002328
0.001408 7e-06 0.002312
0.001244 -3.1e-05 0.001676
0.001224 -3.2e-05 0.001691
0.001464 6.2e-05 0.00213
0.001455 8.6e-05 0.002074
0.001462 9.7e-05 0.002041
0.001475 0.000104 0.002015
0.001491 0.000107 0.001996
0.00151 0.000109 0.00198
0.00153 0.000109 0.001966
0.001552 0.000108 0.001954
0.001576 0.000105 0.001945
0.001603 9.8e-05 0.001942
0.001636 8.9e-05 0.001946
0.001678 7e-05 0.001964
0.001731 4.3e-05 0.001998
0.001776 2.3e-05 0.002021
0.001813 1e-05 0.00203
0.001839 5e-06 0.002026
0.001859 5e-06 0.002011
0.001879 6e-06 0.001996
0.0019 5e-06 0.001984
0.001921 5e-06 0.00197
0.001941 5e-06 0.001956
0.001961 5e-06 0.001942
0.001982 5e-06 0.001929
0.002004 3e-06 0.001917
0.002025 3e-06 0.001904
0.000579 0.000227 0.002954
0.000905 0.000633 0.002364
0.000905 0.00047 0.002363
0.00098 0.000454 0.002435
0.000905 0.000497 0.002363
0.000939 0.000481 0.002388
0.001113 5e-06 0.002447
0.001135 4e-06 0.002435
0.001156 3e-06 0.002422
0.001177 3e-06 0.00241
0.001198 2e-06 0.002396
0.001219 2e-06 0.002383
0.001239 2e-06 0.00237
0.000715 0.000528 0.002416
0.001264 0.000363 0.002673
0.000625 0.000372 0.002858
0.001322 0.0 0.002317
0.001343 -0.0 0.002304
0.001364 -0.0 0.002291
0.001385 -0.0 0.002277
0.001405 -1e-06 0.002263
0.001425 -1e-06 0.002249
0.001446 -1e-06 0.002236
0.001465 0.0 0.00222
0.001455 6e-05 0.002073
0.001462 7e-05 0.00204
0.001474 7.7e-05 0.002015
0.001491 8e-05 0.001996
0.00151 8.1e-05 0.00198
0.00153 8.2e-05 0.001965
0.001552 8.1e-05 0.001954
0.001575 7.8e-05 0.001944
0.001603 7.2e-05 0.001941
0.001635 6.2e-05 0.001944
0.001767 3e-06 0.002007
0.00179 1e-06 0.001997
0.001809 2e-06 0.001982
0.001829 3e-06 0.001967
0.001849 3e-06 0.001953
0.001869 3e-06 0.001938
0.001888 3e-06 0.001923
0.001908 4e-06 0.001908
0.001929 4e-06 0.001895
0.001949 5e-06 0.00188
0.00197 5e-06 0.001867
0.00199 5e-06 0.001853
0.000507 0.000365 0.002973
0.00098 0.000591 0.002434
0.000876 0.000641 0.002354
0.000603 -9e-06 0.002069
0.000579 -9e-06 0.002076
0.001088 -1e-06 0.00241
0.001108 -1e-06 0.002396
0.001128 -1e-06 0.002382
0.001149 -2e-06 0.002369
0.00117 -2e-06 0.002355
0.001188 -0.0 0.002339
0.001209 -0.0 0.002325
0.00098 0.000618 0.002434
0.000532 0.0002 0.002969
0.001291 -1e-06 0.00227
0.000674 0.000332 0.002688
0.00135 0.0 0.002227
0.001372 -1e-06 0.002215
0.001392 -1e-06 0.002201
0.001412 -0.0 0.002186
0.001432 0.0 0.002172
0.001453 0.0 0.002158
0.001454 3.3e-05 0.002072
0.001461 4.4e-05 0.00204
0.001474 5e-05 0.002015
0.001491 5.3e-05 0.001995
0.00151 5.5e-05 0.001979
0.00153 5.5e-05 0.001965
0.001552 5.3e-05 0.001954
0.001575 5.1e-05 0.001944
0.001602 4.5e-05 0.00194
0.001634 3.6e-05 0.001942
0.001718 0.0 0.001979
0.001739 -1e-06 0.001966
0.001761 -2e-06 0.001954
0.001783 -3e-06 0.001943
0.001803 -3e-06 0.001928
0.001823 -3e-06 0.001914
0.001843 -2e-06 0.001899
0.000665 0.000365 0.002739
0.000682 0.000626 0.002635
0.001264 0.000309 0.002672
0.000556 -9e-06 0.002084
0.000532 -8e-06 0.002089
0.001204 -3.2e-05 0.001705
0.001033 -1e-06 0.002374
0.001052 1e-06 0.002358
0.001093 1e-06 0.00233
0.001114 1e-06 0.002317
0.001133 2e-06 0.002301
0.001151 3e-06 0.002285
0.001174 2e-06 0.002273
0.001192 3e-06 0.002257
0.000556 0.000199 0.002963
0.001254 3e-06 0.002216
0.001274 3e-06 0.002202
0.001183 -3.2e-05 0.001718
0.001376 3e-06 0.002133
0.001396 3e-06 0.002118
0.001439 1e-06 0.002094
0.001451 8e-06 0.002068
0.00146 1.7e-05 0.002038
0.001473 2.3e-05 0.002013
0.00149 2.6e-05 0.001995
0.00151 2.7e-05 0.001979
0.00153 2.8e-05 0.001965
0.001551 2.7e-05 0.001953
0.001575 2.4e-05 0.001944
0.001603 1.7e-05 0.001942
0.001665 -1e-06 0.001945
0.001683 2e-06 0.001928
0.001163 -3.2e-05 0.001732
0.001766 0.0 0.001874
0.001786 1e-06 0.001859
0.001805 2e-06 0.001844
0.001827 0.0 0.001833
0.001394 0.000398 0.002673
0.00069 0.000704 0.002578
0.000872 2.2e-05 0.002355
0.000915 3e-06 0.002374
0.000625 0.000725 0.002859
0.001014 5e-06 0.002302
0.001035 4e-06 0.002289
0.001263 0.000718 0.002669
0.001232 0.000295 0.002653
0.001198 0.000283 0.002628
0.001137 4e-06 0.00222
0.001158 4e-06 0.002207
0.001178 4e-06 0.002193
0.00124 4e-06 0.002152
0.00126 4e-06 0.002138
0.001095 0.000333 0.00255
0.000694 0.000407 0.002512
0.001342 3e-06 0.002084
0.001363 3e-06 0.002071
0.001384 3e-06 0.002057
0.001404 3e-06 0.002043
0.001425 3e-06 0.002029
0.001444 3e-06 0.002015
0.001463 4e-06 0.001999
0.001483 5e-06 0.001984
0.001525 4e-06 0.001958
0.001547 3e-06 0.001946
0.001567 3e-06 0.001932
0.001587 3e-06 0.001918
0.001607 2e-06 0.001904
0.001628 4e-06 0.00189
0.001648 4e-06 0.001875
0.001667 4e-06 0.00186
0.001729 4e-06 0.001819
0.00175 3e-06 0.001807
0.00177 4e-06 0.001792
0.00179 4e-06 0.001778
0.001832 3e-06 0.001752
0.001852 3e-06 0.001738
0.001874 3e-06 0.001726
0.001894 3e-06 0.001712
0.001916 1e-06 0.0017
0.000664 0.000446 0.002739
0.000579 0.000553 0.002954
0.000861 5e-06 0.002339
0.000882 3e-06 0.002327
0.000734 0.000508 0.002394
0.000689 0.000433 0.002577
0.001198 0.000311 0.002627
0.000639 0.000604 0.00282
0.001008 -0.0 0.002249
0.000406 0.000675 0.002979
0.000639 0.000251 0.002819
0.001143 -3.2e-05 0.001747
0.000527 0.000696 0.002956
0.001113 -3e-06 0.002185
0.001135 -4e-06 0.002172
0.001156 -4e-06 0.002159
0.001176 -4e-06 0.002146
0.000556 0.000525 0.002963
0.001417 0.000237 0.002662
0.001164 0.000299 0.002604
0.00106 0.000351 0.00252
0.00085 0.000456 0.002352
0.00069 0.000379 0.002577
0.001321 -6e-06 0.002052
0.001342 -6e-06 0.002039
0.001362 -6e-06 0.002025
0.001382 -6e-06 0.002011
0.001403 -6e-06 0.001997
0.001423 -6e-06 0.001983
0.001443 -6e-06 0.001968
0.001464 -6e-06 0.001955
0.001544 -5e-06 0.001898
0.001564 -4e-06 0.001883
0.001583 -4e-06 0.001868
0.001603 -4e-06 0.001854
0.001623 -3e-06 0.001839
0.001643 -2e-06 0.001825
0.001662 -1e-06 0.001809
0.001683 -2e-06 0.001795
0.001702 -1e-06 0.00178
0.001722 -0.0 0.001765
0.001741 0.0 0.001751
0.001761 1e-06 0.001736
0.0018 2e-06 0.001705
0.001819 3e-06 0.00169
0.001839 4e-06 0.001675
0.00186 4e-06 0.001661
0.00188 4e-06 0.001648
0.001131 0.000342 0.002579
0.001349 0.000558 0.002695
0.000837 -4e-06 0.002305
0.000859 -5e-06 0.002292
0.00088 -6e-06 0.00228
0.000701 0.000487 0.002452
0.000695 0.00046 0.002513
0.001198 0.000364 0.002629
0.001296 0.00054 0.002691
0.001022 0.000725 0.002486
0.000984 0.000748 0.002446
0.000689 0.000461 0.002576
0.000551 0.000695 0.002949
0.001086 -8e-06 0.002145
0.001105 -6e-06 0.002129
0.000611 0.000331 0.002894
0.001145 -5e-06 0.002099
0.000531 0.000527 0.002968
0.000507 0.000311 0.002972
0.00113 0.000315 0.002578
0.000876 0.000451 0.002355
0.001095 0.000441 0.00255
0.000715 0.000555 0.002416
0.001308 -6e-06 0.00199
0.001329 -6e-06 0.001976
0.00137 -6e-06 0.001949
0.001388 -4e-06 0.001932
0.001408 -4e-06 0.001918
0.001492 -6e-06 0.001865
0.001513 -6e-06 0.001853
0.001534 -7e-06 0.00184
0.001553 -6e-06 0.001824
0.001573 -6e-06 0.00181
0.001656 -7e-06 0.001756
0.001677 -7e-06 0.001743
0.001698 -7e-06 0.001731
0.001719 -7e-06 0.001718
0.00174 -7e-06 0.001704
0.001778 -6e-06 0.001673
0.001797 -6e-06 0.001657
0.001816 -5e-06 0.001642
0.001836 -4e-06 0.001626
0.001854 -3e-06 0.00161
0.000507 0.000338 0.002972
0.001394 0.000561 0.002673
0.000806 -6e-06 0.002259
0.000826 -5e-06 0.002245
0.000847 -6e-06 0.002232
0.000715 0.000501 0.002416
0.000625 0.000453 0.002859
0.001326 0.000531 0.002702
0.000689 0.000515 0.002577
0.000682 0.00049 0.002634
0.000674 0.000467 0.002689
0.001025 -1e-06 0.002099
0.001198 0.000446 0.002629
0.001232 0.000431 0.002652
0.001122 -3.1e-05 0.001759
0.001267 -0.0 0.00193
0.001288 1e-06 0.001916
0.001101 -3.1e-05 0.001773
0.00135 -0.0 0.001876
0.001371 -0.0 0.001862
0.001081 -3.1e-05 0.001787
0.00106 -3.1e-05 0.0018
0.001453 -1e-06 0.001808
0.001473 -1e-06 0.001794
0.001618 -3e-06 0.001701
0.001638 -3e-06 0.001687
0.001745 -6e-06 0.001625
0.001764 -5e-06 0.001609
0.001786 -6e-06 0.001597
0.001807 -7e-06 0.001584
0.001829 -8e-06 0.001572
0.000532 0.000336 0.002968
0.000749 -2e-06 0.002219
0.000768 -2e-06 0.002204
0.000788 -1e-06 0.002189
0.000611 0.00044 0.002894
0.000597 0.000426 0.002929
0.000888 0.0 0.002117
0.000908 1e-06 0.002103
0.000876 0.000505 0.002354
0.00099 1e-06 0.002047
0.001009 2e-06 0.002032
0.001039 -3e-05 0.001813
0.001297 0.000241 0.002691
0.001191 3e-06 0.001904
0.001212 3e-06 0.001891
0.001233 2e-06 0.00188
0.001354 3e-06 0.001794
0.001376 2e-06 0.001782
0.001562 1e-06 0.001662
0.001582 -0.0 0.001648
0.001018 -3e-05 0.001826
0.000997 -3e-05 0.001839
0.001685 -1e-06 0.001581
0.001705 -0.0 0.001565
0.001727 -2e-06 0.001555
0.001748 -3e-06 0.001542
0.001768 -2e-06 0.001527
0.000712 1e-06 0.002164
0.000731 2e-06 0.002149
0.000752 1e-06 0.002136
0.000772 2e-06 0.002121
0.000812 2e-06 0.002093
0.000832 3e-06 0.002078
0.000853 2e-06 0.002066
0.000872 2e-06 0.00205
0.000893 3e-06 0.002036
0.000914 3e-06 0.002023
0.000849 0.00051 0.002352
0.000976 2e-06 0.001983
0.000997 2e-06 0.00197
0.001016 2e-06 0.001955
0.001038 1e-06 0.001943
0.001059 1e-06 0.00193
0.000597 0.00029 0.002929
0.001131 0.000396 0.002579
0.000824 0.00054 0.002353
0.001372 0.00056 0.002685
0.001163 -0.0 0.001863
0.001183 -0.0 0.001849
0.001204 -1e-06 0.001836
0.001325 -0.0 0.001751
0.001345 0.0 0.001738
0.001365 0.0 0.001723
0.001507 1e-06 0.001625
0.001528 1e-06 0.001612
0.001547 2e-06 0.001596
0.001568 1e-06 0.001583
0.001587 2e-06 0.001568
0.001669 2e-06 0.001513
0.001691 1e-06 0.001501
0.001712 0.0 0.001488
0.000976 -2.9e-05 0.001852
0.000682 0.000463 0.002635
0.000678 2e-06 0.002114
0.000699 1e-06 0.002102
0.00072 1e-06 0.002089
0.00074 1e-06 0.002075
0.000762 0.0 0.002062
0.000783 -0.0 0.00205
0.000804 -1e-06 0.002036
0.000825 -1e-06 0.002024
0.000846 -2e-06 0.002012
0.000868 -3e-06 0.001999
0.000889 -4e-06 0.001987
0.000674 0.000494 0.00269
0.000715 0.000609 0.002417
0.001021 0.000402 0.00248
0.000973 -5e-06 0.001934
0.000994 -6e-06 0.001922
0.001015 -7e-06 0.001909
0.001036 -7e-06 0.001896
0.001056 -7e-06 0.001883
0.001077 -8e-06 0.001869
0.001097 -8e-06 0.001855
0.001118 -7e-06 0.001841
0.001139 -8e-06 0.001828
0.001159 -8e-06 0.001814
0.00118 -8e-06 0.001801
0.0012 -8e-06 0.001787
0.001221 -9e-06 0.001774
0.001242 -9e-06 0.001761
0.001262 -9e-06 0.001746
0.001282 -9e-06 0.001732
0.001302 -9e-06 0.001718
0.001322 -8e-06 0.001703
0.001342 -7e-06 0.001688
0.001362 -8e-06 0.001675
0.001482 -5e-06 0.001588
0.001501 -5e-06 0.001573
0.001521 -4e-06 0.001559
0.001542 -4e-06 0.001544
0.001561 -3e-06 0.001529
0.00158 -2e-06 0.001514
0.0016 -2e-06 0.001499
0.001639 -0.0 0.001469
0.001658 1e-06 0.001453
0.001678 1e-06 0.001439
0.001699 1e-06 0.001426
0.001718 2e-06 0.00141
0.000673 0.000441 0.002687
0.000652 -4e-06 0.002076
0.000674 -5e-06 0.002065
0.000695 -6e-06 0.002053
0.000717 -7e-06 0.002041
0.000738 -7e-06 0.002028
0.000611 0.000684 0.002895
0.000639 0.000713 0.002821
0.001232 0.000621 0.002652
0.001372 0.000587 0.002684
0.001198 0.000691 0.002629
0.001164 0.000734 0.002604
0.000695 0.000568 0.002515
0.000701 0.000595 0.002454
0.000931 -1.5e-05 0.001917
0.000952 -1.5e-05 0.001904
0.000973 -1.6e-05 0.001891
0.000994 -1.7e-05 0.001878
0.001015 -1.7e-05 0.001865
0.001036 -1.8e-05 0.001852
0.001057 -1.8e-05 0.001839
0.001077 -1.8e-05 0.001826
0.001099 -1.9e-05 0.001813
0.001119 -1.9e-05 0.001799
0.00114 -1.9e-05 0.001786
0.00116 -1.9e-05 0.001772
0.00118 -1.9e-05 0.001758
0.001201 -1.9e-05 0.001745
0.001221 -1.9e-05 0.001731
0.001242 -1.9e-05 0.001717
0.001261 -1.9e-05 0.001702
0.001282 -1.8e-05 0.001688
0.001302 -1.9e-05 0.001674
0.001322 -1.8e-05 0.00166
0.001342 -1.8e-05 0.001645
0.001362 -1.7e-05 0.00163
0.001381 -1.7e-05 0.001616
0.001402 -1.6e-05 0.001601
0.00142 -1.6e-05 0.001585
0.00146 -1.5e-05 0.001556
0.00148 -1.4e-05 0.001541
0.001499 -1.3e-05 0.001526
0.001518 -1.2e-05 0.00151
0.001538 -1.1e-05 0.001495
0.001557 -1e-05 0.001479
0.001577 -1e-05 0.001464
0.001615 -8e-06 0.001433
0.001635 -7e-06 0.001419
0.001654 -6e-06 0.001403
0.001673 -5e-06 0.001387
0.000507 0.000392 0.002972
0.001326 0.000423 0.002702
0.001326 0.00045 0.002702
0.001372 0.000451 0.002684
0.0008 0.000677 0.002359
0.001232 0.000349 0.002652
0.000701 0.000514 0.002452
0.00098 0.000509 0.002435
0.000905 0.000606 0.002363
0.001296 0.000458 0.002692
0.00113 0.000505 0.002578
0.00135 0.000313 0.002696
0.001326 0.000341 0.002702
0.001021 0.000537 0.002481
0.000933 -2.7e-05 0.001877
0.000955 -2.8e-05 0.001864
0.000682 0.000328 0.002633
0.000689 0.000352 0.002576
0.000694 0.00038 0.002511
0.000701 0.000405 0.002452
0.000715 0.000419 0.002416
0.000734 0.000426 0.002394
0.000754 0.000431 0.002378
0.000777 0.000432 0.002367
0.0008 0.000432 0.002359
0.000824 0.000431 0.002354
0.000849 0.000429 0.002352
0.000876 0.000423 0.002354
0.000905 0.000415 0.002364
0.000939 0.0004 0.002388
0.000981 0.000372 0.002437
0.001021 0.000347 0.00248
0.001059 0.000325 0.002518
0.001095 0.000305 0.00255
0.00113 0.000288 0.002579
0.001164 0.000272 0.002603
0.001198 0.000256 0.002628
0.001232 0.000241 0.002651
0.001264 0.000227 0.002672
0.001297 0.000214 0.002692
0.001325 0.000206 0.0027
0.001349 0.000205 0.002695
0.001372 0.000206 0.002685
0.001394 0.000208 0.002674
0.001417 0.00021 0.002662
0.000507 0.000175 0.002973
0.000532 0.000173 0.002968
0.000556 0.000173 0.002962
0.000578 0.000174 0.002952
0.000596 0.000182 0.002928
0.000611 0.000196 0.002893
0.000625 0.000209 0.002857
0.000639 0.000224 0.002819
0.000652 0.00024 0.00278
0.000664 0.000256 0.002738
0.000674 0.000277 0.002689
0.000682 0.000301 0.002632
0.00069 0.000324 0.002578
0.000695 0.000352 0.002513
0.000701 0.000379 0.002451
0.000715 0.000392 0.002416
0.000734 0.000399 0.002393
0.000754 0.000404 0.002377
0.000777 0.000405 0.002367
0.0008 0.000405 0.002359
0.000824 0.000404 0.002354
0.00085 0.000401 0.002352
0.000876 0.000396 0.002354
0.000905 0.000388 0.002363
0.001021 0.000319 0.002481
0.001059 0.000297 0.002519
0.001095 0.000278 0.00255
0.00113 0.000261 0.002578
0.001164 0.000245 0.002603
0.001198 0.000229 0.002628
0.001232 0.000214 0.002651
0.001265 0.0002 0.002673
0.001297 0.000187 0.002692
0.001325 0.000179 0.002699
0.001349 0.000178 0.002694
0.001372 0.000179 0.002684
0.001394 0.000181 0.002673
0.001417 0.000183 0.002662
0.000507 0.000148 0.002972
0.000531 0.000147 0.002966
0.000555 0.000147 0.002959
0.000577 0.000148 0.002949
0.000596 0.000155 0.002928
0.000611 0.000168 0.002893
0.000625 0.000182 0.002857
0.000639 0.000197 0.002819
0.000652 0.000212 0.00278
0.000665 0.000229 0.002739
0.000674 0.000251 0.002687
0.000682 0.000273 0.002633
0.00069 0.000297 0.002577
0.000695 0.000325 0.002513
0.000701 0.000351 0.002451
0.000715 0.000365 0.002416
0.000734 0.000372 0.002393
0.000754 0.000376 0.002377
0.000777 0.000378 0.002367
0.0008 0.000378 0.002359
0.000824 0.000377 0.002353
0.000849 0.000374 0.002352
0.000876 0.000369 0.002354
0.000905 0.000361 0.002364
0.00094 0.000344 0.00239
0.001022 0.000291 0.002483
0.001059 0.00027 0.002519
0.001095 0.000251 0.00255
0.00113 0.000234 0.002578
0.001164 0.000218 0.002603
0.001198 0.000202 0.002628
0.001232 0.000187 0.002651
0.001265 0.000173 0.002673
0.001297 0.00016 0.002692
0.001325 0.000153 0.002698
0.001349 0.000152 0.002692
0.001372 0.000153 0.002683
0.001394 0.000154 0.002673
0.001416 0.000156 0.002661
0.000482 0.000124 0.002974
0.000506 0.000122 0.002969
0.00053 0.000122 0.002963
0.000553 0.000122 0.002955
0.000576 0.000123 0.002946
0.000596 0.000128 0.002927
0.000611 0.000141 0.002893
0.000625 0.000155 0.002857
0.000639 0.00017 0.002818
0.000652 0.000186 0.002779
0.000664 0.000202 0.002738
0.000674 0.000223 0.002688
0.000682 0.000246 0.002633
0.000689 0.000271 0.002575
0.000695 0.000298 0.002512
0.000701 0.000324 0.002451
0.000715 0.000337 0.002417
0.000734 0.000345 0.002393
0.000754 0.000349 0.002377
0.000777 0.000351 0.002367
0.0008 0.000351 0.002359
0.000824 0.00035 0.002353
0.00085 0.000347 0.002352
0.000876 0.000342 0.002354
0.000906 0.000333 0.002365
0.00094 0.000318 0.002389
0.001022 0.000265 0.002482
0.001059 0.000243 0.002519
0.001095 0.000224 0.00255
0.00113 0.000207 0.002576
0.001164 0.00019 0.002603
0.001198 0.000175 0.002628
0.001232 0.00016 0.00265
0.001265 0.000145 0.002672
0.001297 0.000133 0.002691
0.001323 0.000128 0.002694
0.001347 0.000127 0.002688
0.001371 0.000127 0.00268
0.001393 0.000128 0.00267
0.00048 9.9e-05 0.002968
0.000504 9.8e-05 0.002963
0.000528 9.8e-05 0.002956
0.000551 9.8e-05 0.002949
0.000574 9.9e-05 0.00294
0.000595 0.000103 0.002924
0.000611 0.000114 0.002893
0.000625 0.000128 0.002857
0.000639 0.000143 0.002818
0.000652 0.000159 0.002779
0.000664 0.000175 0.002738
0.000674 0.000196 0.002688
0.000682 0.000219 0.002634
0.000689 0.000244 0.002575
0.000695 0.00027 0.002513
0.000701 0.000297 0.002452
0.000715 0.00031 0.002416
0.000734 0.000318 0.002393
0.000754 0.000322 0.002377
0.000777 0.000324 0.002367
0.0008 0.000324 0.002359
0.000824 0.000323 0.002353
0.00085 0.00032 0.002352
0.000876 0.000315 0.002354
0.000906 0.000306 0.002364
0.000939 0.000291 0.002389
0.001022 0.000237 0.002482
0.00106 0.000215 0.00252
0.001095 0.000197 0.00255
0.00113 0.00018 0.002576
0.001165 0.000163 0.002604
0.001198 0.000147 0.002628
0.001232 0.000133 0.002651
0.001265 0.000118 0.002672
0.001296 0.000107 0.002688
0.001322 0.000103 0.002688
0.001346 0.000102 0.002682
0.001369 0.000103 0.002674
0.001392 0.000104 0.002665
0.000501 7.6e-05 0.002953
0.000525 7.5e-05 0.002947
0.000548 7.5e-05 0.00294
0.000571 7.6e-05 0.002931
0.000593 7.9e-05 0.002917
0.000611 8.7e-05 0.002892
0.000625 0.000101 0.002857
0.000639 0.000116 0.002818
0.000652 0.000131 0.002779
0.000665 0.000148 0.002739
0.000674 0.000168 0.002689
0.000682 0.000191 0.002634
0.000689 0.000217 0.002575
0.000695 0.000243 0.002514
0.000701 0.00027 0.002451
0.000715 0.000283 0.002416
0.000734 0.000291 0.002393
0.000754 0.000295 0.002377
0.000777 0.000297 0.002366
0.0008 0.000297 0.002359
0.000824 0.000296 0.002353
0.00085 0.000293 0.002351
0.000876 0.000288 0.002354
0.000906 0.000279 0.002365
0.00098 0.000237 0.002435
0.001021 0.000211 0.002481
0.001059 0.000189 0.002519
0.001095 0.00017 0.00255
0.00113 0.000153 0.002577
0.001165 0.000136 0.002604
0.001199 0.00012 0.002629
0.001232 0.000105 0.002651
0.001264 9.2e-05 0.002671
0.001294 8.3e-05 0.002682
0.001319 8e-05 0.00268
0.001343 8e-05 0.002674
0.001366 8e-05 0.002666
0.001389 8e-05 0.002657
0.000473 5.6e-05 0.002946
0.000497 5.5e-05 0.002941
0.000521 5.4e-05 0.002935
0.000544 5.4e-05 0.002927
0.000568 5.4e-05 0.002919
0.00059 5.6e-05 0.002907
0.000609 6.2e-05 0.002888
0.000625 7.4e-05 0.002856
0.000638 8.9e-05 0.002818
0.000652 0.000104 0.00278
0.000664 0.000121 0.002738
0.000675 0.00014 0.00269
0.000682 0.000164 0.002634
0.000689 0.000189 0.002575
0.000715 0.000256 0.002416
0.000734 0.000264 0.002393
0.000754 0.000268 0.002377
0.000777 0.000269 0.002366
0.0008 0.000269 0.002359
0.000824 0.000268 0.002353
0.00085 0.000266 0.002351
0.000876 0.000261 0.002354
0.000906 0.000252 0.002364
0.001021 0.000183 0.002482
0.001059 0.000161 0.002519
0.001095 0.000142 0.00255
0.00113 0.000126 0.002577
0.001165 0.000108 0.002604
0.001199 9.3e-05 0.002629
0.001232 7.8e-05 0.00265
0.001263 6.6e-05 0.002668
0.00129 6e-05 0.002673
0.001315 5.8e-05 0.002669
0.001339 5.8e-05 0.002662
0.001362 5.8e-05 0.002654
0.000468 3.6e-05 0.00293
0.000492 3.6e-05 0.002925
0.000516 3.5e-05 0.002918
0.000539 3.5e-05 0.002911
0.000562 3.5e-05 0.002902
0.000585 3.6e-05 0.002892
0.000606 4e-05 0.002877
0.000624 4.8e-05 0.002853
0.000638 6.2e-05 0.002818
0.000652 7.6e-05 0.002781
0.000664 9.3e-05 0.002738
0.000682 0.000137 0.002634
0.000689 0.000162 0.002575
0.0007 0.000217 0.002448
0.000715 0.000229 0.002416
0.000734 0.000237 0.002393
0.000754 0.000241 0.002376
0.000777 0.000242 0.002366
0.0008 0.000242 0.002359
0.000824 0.000241 0.002353
0.000849 0.000239 0.002351
0.000876 0.000233 0.002354
0.000905 0.000225 0.002364
0.000939 0.00021 0.002386
0.001021 0.000156 0.002481
0.00106 0.000134 0.00252
0.001095 0.000115 0.00255
0.00113 9.8e-05 0.002577
0.001165 8.1e-05 0.002604
0.001199 6.5e-05 0.002629
0.001231 5.2e-05 0.002648
0.00126 4.3e-05 0.002659
0.001286 3.9e-05 0.002659
0.001311 3.8e-05 0.002654
0.001334 3.8e-05 0.002647
0.000412 2.3e-05 0.002918
0.000437 2.1e-05 0.002914
0.000461 2e-05 0.002909
0.000485 1.9e-05 0.002903
0.000509 1.9e-05 0.002896
0.000532 1.9e-05 0.002889
0.000555 1.9e-05 0.002881
0.000578 2e-05 0.002871
0.0006 2.2e-05 0.002858
0.00062 2.7e-05 0.002841
0.000637 3.7e-05 0.002814
0.000652 5e-05 0.002779
0.000665 6.6e-05 0.002739
0.000674 8.8e-05 0.002686
0.000682 0.00011 0.002633
0.000689 0.000135 0.002575
0.0007 0.000189 0.00245
0.000715 0.000202 0.002415
0.000734 0.000209 0.002393
0.000754 0.000214 0.002377
0.000777 0.000215 0.002366
0.0008 0.000215 0.002358
0.000824 0.000214 0.002353
0.000849 0.000212 0.002351
0.000876 0.000206 0.002354
0.000905 0.000198 0.002363
0.000939 0.000183 0.002386
0.00106 0.000106 0.00252
0.001095 8.8e-05 0.00255
0.00113 7.2e-05 0.002575
0.001165 5.4e-05 0.002604
0.001198 4e-05 0.002626
0.001228 3e-05 0.002638
0.001255 2.4e-05 0.002642
0.00128 2.2e-05 0.002639
0.001419 2.5e-05 0.002589
0.001441 2.7e-05 0.002577
0.000327 1.9e-05 0.002895
0.000353 1.5e-05 0.002896
0.000378 1.3e-05 0.002892
0.000401 1.2e-05 0.002885
0.000425 1.1e-05 0.002878
0.000449 1e-05 0.002873
0.000473 1e-05 0.002867
0.000496 1e-05 0.002858
0.00052 1e-05 0.002851
0.000543 1e-05 0.002842
0.000567 1e-05 0.002836
0.000589 1.1e-05 0.002826
0.000612 1.2e-05 0.002815
0.000632 1.7e-05 0.002799
0.000649 2.7e-05 0.002771
0.000663 4.1e-05 0.002735
0.000674 6e-05 0.002687
0.000682 8.3e-05 0.002633
0.000689 0.000108 0.002575
0.000694 0.000136 0.00251
0.000701 0.000161 0.002451
0.000715 0.000175 0.002415
0.000734 0.000182 0.002392
0.000754 0.000186 0.002377
0.000777 0.000188 0.002366
0.0008 0.000188 0.002358
0.000824 0.000187 0.002352
0.000849 0.000184 0.002351
0.000876 0.000179 0.002353
0.000905 0.000171 0.002363
0.000939 0.000155 0.002388
0.00106 7.9e-05 0.00252
0.001095 6.1e-05 0.00255
0.00113 4.5e-05 0.002575
0.001163 2.9e-05 0.002599
0.001193 1.9e-05 0.002612
0.001221 1.3e-05 0.002616
0.001245 1.2e-05 0.002612
0.001409 1.2e-05 0.002559
0.001432 1.3e-05 0.00255
0.001454 1.5e-05 0.002539
0.000291 1.3e-05 0.00286
0.000315 8e-06 0.002859
0.000339 8e-06 0.002853
0.000363 7e-06 0.002846
0.000386 7e-06 0.002839
0.00041 7e-06 0.002832
0.000434 6e-06 0.002825
0.000457 6e-06 0.002819
0.000481 5e-06 0.002812
0.000505 4e-06 0.002806
0.000529 4e-06 0.002799
0.000576 4e-06 0.002785
0.000599 4e-06 0.002777
0.000643 9e-06 0.002751
0.00066 1.8e-05 0.002725
0.000673 3.4e-05 0.002686
0.00069 8e-05 0.002576
0.000695 0.000108 0.002512
0.0007 0.000135 0.002449
0.000715 0.000148 0.002415
0.000734 0.000155 0.002392
0.000754 0.000159 0.002377
0.000777 0.000161 0.002366
0.0008 0.000161 0.002358
0.000824 0.00016 0.002352
0.000849 0.000157 0.002351
0.000876 0.000152 0.002353
0.000905 0.000144 0.002363
0.000939 0.000129 0.002386
0.001022 7.4e-05 0.002483
0.00106 5.2e-05 0.00252
0.001095 3.4e-05 0.002549
0.001128 1.9e-05 0.002571
0.001157 1e-05 0.002583
0.001184 6e-06 0.002584
0.001348 6e-06 0.00253
0.001394 7e-06 0.002514
0.001418 8e-06 0.002505
0.001441 8e-06 0.002496
0.000277 5e-06 0.002819
0.000301 3e-06 0.002814
0.000324 3e-06 0.002806
0.000347 3e-06 0.002798
0.000371 3e-06 0.002792
0.000394 4e-06 0.002782
0.000418 3e-06 0.002776
0.000442 2e-06 0.00277
0.000465 3e-06 0.002763
0.00065 6e-06 0.002695
0.000669 1.3e-05 0.002672
0.000682 2.9e-05 0.002633
0.000694 8.1e-05 0.002511
0.0007 0.000107 0.00245
0.000715 0.000121 0.002415
0.000734 0.000128 0.002392
0.000754 0.000132 0.002377
0.000777 0.000134 0.002365
0.0008 0.000134 0.002358
0.000824 0.000133 0.002352
0.000849 0.00013 0.002351
0.000876 0.000125 0.002353
0.000905 0.000117 0.002363
0.001022 4.7e-05 0.002483
0.001059 2.6e-05 0.002518
0.001091 1.2e-05 0.002538
0.001309 2e-06 0.002491
0.001333 3e-06 0.002482
0.000258 4e-06 0.002764
0.000282 4e-06 0.002757
0.000305 5e-06 0.002748
0.000375 5e-06 0.002724
0.000398 6e-06 0.002715
0.000421 6e-06 0.002707
0.000445 6e-06 0.0027
0.000468 6e-06 0.002692
0.000632 7e-06 0.002637
0.000656 6e-06 0.002631
0.000676 1e-05 0.002615
0.000691 2.4e-05 0.002579
0.0007 8e-05 0.002449
0.000715 9.4e-05 0.002415
0.000734 0.000101 0.002392
0.000754 0.000105 0.002377
0.000777 0.000107 0.002365
0.0008 0.000107 0.002357
0.000824 0.000106 0.002352
0.000849 0.000103 0.002351
0.000876 9.8e-05 0.002353
0.000905 8.9e-05 0.002363
0.001054 7e-06 0.002501
0.001079 5e-06 0.002498
0.001102 5e-06 0.002489
0.001265 6e-06 0.002434
0.001289 6e-06 0.002428
0.001312 6e-06 0.00242
0.000286 5e-06 0.002689
0.000404 4e-06 0.002655
0.000428 4e-06 0.002648
0.000452 3e-06 0.002642
0.000476 3e-06 0.002636
0.000499 3e-06 0.002628
0.000523 1e-06 0.002621
0.000618 1e-06 0.002595
0.000642 -0.0 0.002589
0.000665 1e-06 0.002579
0.000685 6e-06 0.00256
0.000699 5.5e-05 0.002446
0.000715 6.6e-05 0.002415
0.000733 7.4e-05 0.002392
0.000754 7.8e-05 0.002376
0.000777 8e-05 0.002365
0.0008 8e-05 0.002357
0.000824 7.9e-05 0.002352
0.000849 7.6e-05 0.002351
0.000876 7.1e-05 0.002352
0.000905 6.2e-05 0.002363
0.00104 0.0 0.002459
0.001063 1e-06 0.002451
0.001087 1e-06 0.002443
0.001249 3e-06 0.002384
0.001272 4e-06 0.002376
0.001295 4e-06 0.002367
0.000907 -2.7e-05 0.001889
0.000248 1e-06 0.002653
0.000273 0.0 0.002647
0.000296 -1e-06 0.002641
0.000413 -1e-06 0.002602
0.000437 -1e-06 0.002595
0.00046 -1e-06 0.002588
0.000484 -1e-06 0.002581
0.000508 -2e-06 0.002575
0.000531 -2e-06 0.002566
0.000648 -0.0 0.002526
0.000671 0.0 0.002517
0.000691 5e-06 0.0025
0.000715 3.9e-05 0.002415
0.000733 4.7e-05 0.002392
0.000754 5.1e-05 0.002376
0.000776 5.3e-05 0.002364
0.0008 5.3e-05 0.002356
0.000824 5.2e-05 0.002351
0.000849 4.9e-05 0.00235
0.000876 4.5e-05 0.002351
0.000905 3.6e-05 0.002361
0.000884 -2.8e-05 0.001898
0.000861 -2.8e-05 0.001907
0.001235 -1e-06 0.00234
0.001258 -1e-06 0.002332
0.001281 -2e-06 0.002325
0.001305 -1e-06 0.002317
0.000838 -2.9e-05 0.001916
0.000232 -1e-06 0.002601
0.000254 -0.0 0.002591
0.000278 -1e-06 0.002584
0.000301 -1e-06 0.002577
0.000815 -2.9e-05 0.001925
0.000792 -3e-05 0.001933
0.000394 1e-06 0.002544
0.000417 2e-06 0.002533
0.000441 2e-06 0.002527
0.000487 2e-06 0.002509
0.000769 -3e-05 0.001942
0.000746 -3.1e-05 0.00195
0.000675 2e-06 0.00245
0.000696 6e-06 0.002435
0.000715 1.3e-05 0.002413
0.000733 2e-05 0.002392
0.000754 2.4e-05 0.002376
0.000776 2.6e-05 0.002364
0.0008 2.6e-05 0.002356
0.000824 2.5e-05 0.002351
0.000849 2.2e-05 0.002351
0.00098 2e-06 0.002353
0.001003 3e-06 0.002343
0.001073 2e-06 0.002321
0.001121 2e-06 0.002308
0.001215 1e-06 0.002279
0.001239 0.0 0.002273
0.001262 0.0 0.002266
0.000143 -1e-06 0.002566
0.000165 1e-06 0.002557
0.000188 1e-06 0.002547
0.000211 2e-06 0.002538
0.000234 4e-06 0.002528
0.000257 4e-06 0.00252
0.000281 3e-06 0.002514
0.000609 2e-06 0.002408
0.000633 3e-06 0.0024
0.000656 3e-06 0.002393
0.00068 3e-06 0.002386
0.000703 3e-06 0.002378
0.000726 3e-06 0.00237
0.00075 3e-06 0.002362
0.000773 4e-06 0.002353
0.000796 4e-06 0.002346
0.00082 3e-06 0.002339
0.000843 3e-06 0.002331
0.000914 3e-06 0.002309
0.000938 3e-06 0.002303
0.00096 4e-06 0.002292
0.000984 4e-06 0.002285
0.001054 5e-06 0.002261
0.001077 4e-06 0.002255
0.0011 5e-06 0.002246
0.001124 4e-06 0.00224
0.000722 -3.1e-05 0.001958
0.000699 -3.1e-05 0.001966
0.000123 2e-06 0.002506
0.000146 3e-06 0.002497
0.000169 3e-06 0.002489
0.000193 3e-06 0.002481
0.000241 1e-06 0.002469
0.000264 1e-06 0.002462
0.000288 -0.0 0.002456
0.000455 -3e-06 0.002412
0.000478 -4e-06 0.002404
0.000502 -4e-06 0.002397
0.00055 -5e-06 0.002384
0.000573 -5e-06 0.002377
0.000597 -5e-06 0.00237
0.000621 -6e-06 0.002364
0.000644 -6e-06 0.002357
0.000668 -6e-06 0.002349
0.000691 -6e-06 0.002341
0.000738 -6e-06 0.002327
0.000761 -6e-06 0.002318
0.000785 -6e-06 0.00231
0.000808 -5e-06 0.002303
0.000676 -3.1e-05 0.001973
0.000902 -6e-06 0.002272
0.000925 -5e-06 0.002263
0.000948 -5e-06 0.002255
0.000971 -4e-06 0.002247
0.000994 -3e-06 0.002238
0.001017 -3e-06 0.002229
0.001041 -3e-06 0.002221
0.001064 -2e-06 0.002212
0.001087 -2e-06 0.002203
0.001202 2e-06 0.002159
0.001225 3e-06 0.002149
0.001248 3e-06 0.00214
0.001271 4e-06 0.002132
0.001294 4e-06 0.002124
0.001317 4e-06 0.002115
0.000108 -2e-06 0.002459
0.000132 -3e-06 0.002453
0.000156 -4e-06 0.002447
0.00018 -6e-06 0.002443
0.000275 -7e-06 0.002415
0.000298 -7e-06 0.002408
0.000392 -6e-06 0.002376
0.000415 -6e-06 0.002369
0.000438 -5e-06 0.00236
0.000462 -6e-06 0.002352
0.000484 -4e-06 0.002342
0.000508 -5e-06 0.002337
0.000556 -6e-06 0.002323
0.000579 -5e-06 0.002313
0.000602 -5e-06 0.002307
0.000625 -4e-06 0.002297
0.000648 -4e-06 0.002289
0.000672 -5e-06 0.002283
0.000696 -5e-06 0.002275
0.000742 -4e-06 0.002259
0.000766 -4e-06 0.002252
0.000883 -5e-06 0.002215
0.000907 -4e-06 0.002206
0.00093 -4e-06 0.002199
0.000954 -5e-06 0.002192
0.000977 -5e-06 0.002185
0.001001 -5e-06 0.002178
0.001025 -7e-06 0.002173
0.00105 -9e-06 0.00217
0.001189 -5e-06 0.00212
0.001213 -7e-06 0.002113
0.001236 -6e-06 0.002104
0.001259 -5e-06 0.002095
0.001281 -4e-06 0.002085
0.001304 -3e-06 0.002076
9.2e-05 -5e-06 0.00241
0.000116 -6e-06 0.002404
0.000139 -6e-06 0.002396
0.000162 -5e-06 0.002387
0.000185 -4e-06 0.002377
0.00021 -6e-06 0.002374
0.000232 -5e-06 0.002363
0.000652 -3.1e-05 0.001981
0.000371 -1e-06 0.002311
0.000393 -0.0 0.002301
0.000418 -2e-06 0.002296
0.000464 -1e-06 0.002281
0.000487 -0.0 0.002271
0.000558 -0.0 0.002248
0.000581 -0.0 0.002241
0.000604 -0.0 0.002233
0.000628 -1e-06 0.002226
0.000675 -0.0 0.00221
0.000863 -1e-06 0.002151
0.000886 -1e-06 0.002145
0.000933 -1e-06 0.002129
0.000957 -2e-06 0.002123
0.00098 -1e-06 0.002114
0.001003 -1e-06 0.002106
0.001098 -2e-06 0.002077
0.001122 -3e-06 0.002073
0.001145 -3e-06 0.002065
0.00117 -4e-06 0.00206
0.001193 -4e-06 0.002053
0.001218 -6e-06 0.002048
0.001266 -6e-06 0.002036
0.001289 -7e-06 0.002028
9.4e-05 -1e-06 0.002338
0.000118 -1e-06 0.00233
0.000142 -1e-06 0.002323
0.000164 -0.0 0.002313
0.000188 0.0 0.002305
0.000211 1e-06 0.002297
0.000234 1e-06 0.002288
0.000257 1e-06 0.002281
0.000629 -3.2e-05 0.001989
0.000373 2e-06 0.00224
0.000397 1e-06 0.002232
0.000514 3e-06 0.002193
0.000537 3e-06 0.002186
0.000561 3e-06 0.002179
0.000584 3e-06 0.002171
0.000608 1e-06 0.002165
0.000937 2e-06 0.002059
0.00096 2e-06 0.002052
0.000984 1e-06 0.002046
0.000605 -3.1e-05 0.001997
0.000582 -3.1e-05 0.002004
0.000558 -3.1e-05 0.002011
0.001078 0.0 0.002018
0.001102 0.0 0.002011
0.001126 -0.0 0.002004
0.001149 -0.0 0.001996
0.001173 -0.0 0.001989
0.001267 -1e-06 0.001961
7.5e-05 1e-06 0.002277
9.8e-05 2e-06 0.002269
0.000122 1e-06 0.002264
0.000144 3e-06 0.002251
0.000168 2e-06 0.002246
0.000192 2e-06 0.002238
0.000215 3e-06 0.002229
0.000238 2e-06 0.002223
0.000497 0.0 0.002142
0.000521 1e-06 0.002134
0.000544 1e-06 0.002128
0.000568 1e-06 0.00212
0.000592 -0.0 0.002114
0.000615 -1e-06 0.002107
0.000639 -1e-06 0.002099
0.000919 1e-06 0.002005
0.000942 2e-06 0.001997
0.000965 2e-06 0.001989
0.000535 -3.1e-05 0.002018
0.001082 3e-06 0.00195
0.001105 4e-06 0.00194
0.001129 4e-06 0.001933
0.001152 3e-06 0.001926
0.001176 3e-06 0.00192
8e-05 2e-06 0.002213
0.000104 1e-06 0.002207
0.000127 1e-06 0.0022
0.000151 1e-06 0.002193
0.000175 0.0 0.002186
0.000199 -1e-06 0.002181
0.000223 -2e-06 0.002174
0.000295 -3e-06 0.002156
