-0.001576 -4e-06 0.00161
-0.001556 -5e-06 0.001624
-0.001535 -5e-06 0.001637
-0.001514 -5e-06 0.00165
-0.001492 -4e-06 0.001662
-0.001472 -4e-06 0.001675
-0.001451 -4e-06 0.001689
-0.00221 0.00063 0.002037
-0.002047 0.000637 0.002023
-0.002048 0.000609 0.002023
-0.00211 0.000701 0.001295
-0.001348 -6e-06 0.001757
-0.001328 -5e-06 0.001771
-0.001307 -5e-06 0.001785
-0.001518 0.000715 0.00202
-0.002323 0.000487 0.001841
-0.002124 0.00073 0.001274
-0.001225 -6e-06 0.001838
-0.001205 -6e-06 0.001852
-0.001184 -6e-06 0.001866
-0.001163 -6e-06 0.001879
-0.0011 -5e-06 0.001917
-0.001079 -5e-06 0.00193
-0.001059 -6e-06 0.001945
-0.001038 -5e-06 0.001957
-0.001018 -6e-06 0.001972
-0.000996 -6e-06 0.001984
-0.000913 -5e-06 0.002036
-0.000892 -5e-06 0.002049
-0.000871 -5e-06 0.002062
-0.000809 -5e-06 0.002103
-0.000789 -6e-06 0.002117
-0.00077 -7e-06 0.002133
-0.00075 -8e-06 0.002148
-0.000728 -6e-06 0.002159
-0.002187 0.000471 0.002049
-0.002247 0.000518 0.002003
-0.002098 0.000669 0.002037
-0.002303 0.000724 0.001889
-0.002275 0.000721 0.00193
-0.002345 0.000664 0.001238
-0.0016 0.000724 0.001896
-0.00228 0.000627 0.001967
-0.001527 -7e-06 0.001579
-0.001507 -8e-06 0.001593
-0.001487 -8e-06 0.001607
-0.001466 -8e-06 0.001621
-0.001446 -9e-06 0.001636
-0.001426 -9e-06 0.001649
-0.00232 0.000707 0.001838
-0.002099 0.000723 0.002038
-0.00232 0.000659 0.001904
-0.002294 0.000655 0.001946
-0.001325 -1.2e-05 0.00172
-0.001304 -1.2e-05 0.001734
-0.001284 -1.2e-05 0.001748
-0.001263 -1.2e-05 0.001761
-0.001243 -1.2e-05 0.001774
-0.001222 -1.3e-05 0.001788
-0.001201 -1.3e-05 0.001802
-0.001181 -1.3e-05 0.001815
-0.00116 -1.2e-05 0.001828
-0.001139 -1.3e-05 0.001841
-0.001119 -1.3e-05 0.001855
-0.001097 -1.3e-05 0.001868
-0.001076 -1.2e-05 0.001881
-0.001056 -1.2e-05 0.001894
-0.001035 -1.2e-05 0.001906
-0.001014 -1.2e-05 0.001919
-0.000992 -1.1e-05 0.001932
-0.000971 -1.1e-05 0.001945
-0.00095 -1.1e-05 0.001957
-0.000907 -9e-06 0.001982
-0.000886 -9e-06 0.001994
-0.000865 -9e-06 0.002007
-0.00078 -7e-06 0.002057
-0.000758 -6e-06 0.002069
-0.000736 -5e-06 0.00208
-0.000694 -5e-06 0.002106
-0.000674 -5e-06 0.00212
-0.00223 0.000465 0.002021
-0.002144 0.000596 0.002045
-0.002263 0.000627 0.001985
-0.002226 0.000657 0.002018
-0.002288 0.000723 0.001908
-0.002389 0.000646 0.001244
-0.002124 0.000703 0.001274
-0.002334 0.000497 0.001884
-0.002295 0.000627 0.001948
-0.001504 -1.5e-05 0.001543
-0.002322 0.000695 0.001872
-0.002314 0.00069 0.001899
-0.002302 0.000687 0.001921
-0.001424 -1.7e-05 0.001602
-0.001405 -1.8e-05 0.001616
-0.001385 -1.9e-05 0.001631
-0.001365 -2e-05 0.001645
-0.001345 -2e-05 0.00166
-0.001325 -2.1e-05 0.001674
-0.001304 -2.1e-05 0.001688
-0.001284 -2.1e-05 0.001702
-0.001264 -2.2e-05 0.001716
-0.001243 -2.2e-05 0.00173
-0.001223 -2.2e-05 0.001743
-0.001202 -2.3e-05 0.001757
-0.001182 -2.3e-05 0.001771
-0.001161 -2.3e-05 0.001784
-0.00114 -2.2e-05 0.001796
-0.001119 -2.2e-05 0.00181
-0.001099 -2.3e-05 0.001824
-0.001077 -2.2e-05 0.001836
-0.001056 -2.2e-05 0.001849
-0.001035 -2.2e-05 0.001862
-0.001015 -2.2e-05 0.001876
-0.000993 -2.1e-05 0.001888
-0.000972 -2.1e-05 0.001901
-0.000951 -2.1e-05 0.001913
-0.00093 -2e-05 0.001925
-0.000908 -1.9e-05 0.001937
-0.000887 -1.9e-05 0.001949
-0.000865 -1.8e-05 0.001962
-0.000757 -1.4e-05 0.002021
-0.000735 -1.3e-05 0.002033
-0.000649 -1e-05 0.002081
-0.002213 0.000465 0.002039
-0.002144 0.000515 0.002045
-0.002279 0.000518 0.001966
-0.00226 0.000751 0.001229
-0.002334 0.000525 0.001883
-0.002326 0.000519 0.001909
-0.00214 0.000703 0.001256
-0.002098 0.000699 0.001317
-0.002326 0.000492 0.001909
-0.002099 0.000726 0.001318
-0.001522 0.000722 0.001992
-0.002144 0.000488 0.002044
-0.002301 0.00068 0.001233
-0.001554 0.00069 0.00215
-0.002231 0.000719 0.001989
-0.001366 -3e-05 0.001601
-0.001346 -3.1e-05 0.001616
-0.001326 -3.1e-05 0.00163
-0.001306 -3.2e-05 0.001645
-0.001286 -3.2e-05 0.001659
-0.001266 -3.3e-05 0.001673
-0.001245 -3.3e-05 0.001687
-0.001225 -3.4e-05 0.001701
-0.001205 -3.4e-05 0.001715
-0.001184 -3.4e-05 0.001728
-0.001163 -3.4e-05 0.001742
-0.001143 -3.4e-05 0.001755
-0.001122 -3.4e-05 0.001769
-0.001101 -3.4e-05 0.001782
-0.00108 -3.4e-05 0.001795
-0.002334 0.000443 0.001884
-0.002326 0.000438 0.001909
-0.002311 0.000437 0.001928
-0.002294 0.000437 0.001947
-0.002279 0.000437 0.001966
-0.002263 0.000437 0.001985
-0.002246 0.000437 0.002003
-0.00223 0.000437 0.002021
-0.002213 0.000438 0.002039
-0.002187 0.000444 0.00205
-0.002144 0.00046 0.002044
-0.002097 0.00048 0.002036
-0.002048 0.0005 0.002025
-0.001579 0.0007 0.00191
-0.001561 0.000702 0.001927
-0.001545 0.000701 0.001946
-0.001532 0.000699 0.001967
-0.001522 0.000695 0.001992
-0.001518 0.000688 0.002021
-0.001522 0.000675 0.002056
-0.001538 0.000655 0.002104
-0.001554 0.000635 0.00215
-0.001564 0.000619 0.002192
-0.002389 0.000592 0.001244
-0.002346 0.000608 0.00124
-0.002302 0.000626 0.001233
-0.002254 0.000645 0.001225
-0.002214 0.000661 0.001222
-0.002184 0.000669 0.001228
-0.00216 0.000674 0.00124
-0.00214 0.000676 0.001255
-0.002124 0.000676 0.001274
-0.00211 0.000674 0.001295
-0.002098 0.000672 0.001317
-0.002784 0.000659 0.001133
-0.002795 0.000631 0.001111
-0.002191 0.000744 0.001564
-0.002756 0.000575 0.001201
-0.002818 0.000581 0.00104
-0.002284 0.000477 0.001742
-0.002304 0.000454 0.001792
-0.002324 0.000432 0.001842
-0.002334 0.000416 0.001884
-0.002326 0.000411 0.001909
-0.002311 0.00041 0.001929
-0.002295 0.00041 0.001948
-0.002279 0.00041 0.001966
-0.002263 0.00041 0.001985
-0.002247 0.00041 0.002004
-0.00223 0.00041 0.002022
-0.002213 0.00041 0.00204
-0.002187 0.000417 0.00205
-0.002145 0.000433 0.002045
-0.002097 0.000452 0.002036
-0.002048 0.000473 0.002024
-0.001579 0.000673 0.00191
-0.001561 0.000674 0.001927
-0.001545 0.000674 0.001946
-0.001532 0.000672 0.001967
-0.001522 0.000668 0.001991
-0.001518 0.00066 0.002021
-0.001522 0.000648 0.002057
-0.001539 0.000627 0.002105
-0.001554 0.000608 0.00215
-0.001565 0.000591 0.002193
-0.002248 0.000617 0.001672
-0.002388 0.000565 0.001246
-0.002345 0.000582 0.001239
-0.002301 0.000599 0.001233
-0.002254 0.000618 0.001224
-0.002212 0.000634 0.001221
-0.002184 0.000642 0.001228
-0.002159 0.000647 0.00124
-0.00214 0.000649 0.001255
-0.002123 0.000649 0.001274
-0.00211 0.000647 0.001295
-0.002098 0.000644 0.001317
-0.00275 0.00066 0.001199
-0.002795 0.000604 0.001111
-0.002804 0.000577 0.001088
-0.002812 0.00047 0.001064
-0.002812 0.000578 0.001065
-0.002776 0.000603 0.001156
-0.002284 0.000449 0.001742
-0.002305 0.000427 0.001792
-0.002324 0.000405 0.001842
-0.002335 0.000388 0.001884
-0.002327 0.000383 0.00191
-0.002312 0.000382 0.001929
-0.002296 0.000382 0.001948
-0.00228 0.000382 0.001967
-0.002264 0.000382 0.001986
-0.002247 0.000382 0.002004
-0.002231 0.000382 0.002023
-0.002213 0.000383 0.00204
-0.002187 0.00039 0.002049
-0.002145 0.000406 0.002045
-0.002096 0.000426 0.002036
-0.002049 0.000445 0.002025
-0.001579 0.000646 0.00191
-0.001561 0.000647 0.001927
-0.001545 0.000647 0.001946
-0.001532 0.000645 0.001967
-0.001522 0.000641 0.001991
-0.001518 0.000633 0.00202
-0.001523 0.00062 0.002058
-0.001538 0.000601 0.002104
-0.001554 0.000581 0.00215
-0.001565 0.000564 0.002193
-0.002425 0.000525 0.001243
-0.002387 0.000539 0.001243
-0.002346 0.000554 0.001239
-0.002301 0.000572 0.001233
-0.002254 0.000591 0.001224
-0.002212 0.000607 0.001221
-0.002183 0.000615 0.001228
-0.002159 0.00062 0.00124
-0.00214 0.000622 0.001255
-0.002123 0.000622 0.001274
-0.00211 0.00062 0.001294
-0.002739 0.000725 0.001166
-0.002707 0.000671 0.001233
-0.002773 0.000673 0.000374
-0.002413 0.000727 0.000609
-0.00221 0.000647 0.0016
-0.002189 0.000663 0.001563
-0.002285 0.000422 0.001743
-0.002305 0.000399 0.001793
-0.002323 0.000378 0.001841
-0.002335 0.000361 0.001884
-0.002327 0.000356 0.00191
-0.002311 0.000355 0.001929
-0.002295 0.000355 0.001948
-0.002279 0.000355 0.001967
-0.002263 0.000355 0.001985
-0.002247 0.000355 0.002004
-0.002231 0.000355 0.002022
-0.002213 0.000356 0.002039
-0.002187 0.000362 0.00205
-0.002145 0.000378 0.002045
-0.002097 0.000398 0.002036
-0.002048 0.000418 0.002025
-0.001561 0.00062 0.001927
-0.001545 0.00062 0.001946
-0.001532 0.000618 0.001967
-0.001523 0.000613 0.001992
-0.001519 0.000606 0.002021
-0.001522 0.000594 0.002057
-0.001539 0.000573 0.002105
-0.001554 0.000554 0.00215
-0.001566 0.000536 0.002194
-0.002425 0.000498 0.001243
-0.002387 0.000512 0.001242
-0.002345 0.000528 0.001239
-0.0023 0.000546 0.001232
-0.002254 0.000564 0.001225
-0.002212 0.00058 0.00122
-0.002183 0.000588 0.001228
-0.002159 0.000593 0.00124
-0.002139 0.000595 0.001255
-0.002123 0.000595 0.001274
-0.002109 0.000593 0.001294
-0.002727 0.000726 0.001188
-0.002763 0.000659 0.001177
-0.00297 0.000589 0.000279
-0.00257 0.00059 0.001251
-0.002741 0.000524 0.001222
-0.002286 0.000394 0.001743
-0.002305 0.000372 0.001793
-0.002324 0.00035 0.001842
-0.002335 0.000334 0.001884
-0.002326 0.000329 0.001909
-0.002311 0.000329 0.001928
-0.002294 0.000329 0.001947
-0.002279 0.000328 0.001966
-0.002262 0.000328 0.001985
-0.002246 0.000328 0.002003
-0.00223 0.000328 0.002022
-0.002213 0.000329 0.002039
-0.002188 0.000335 0.00205
-0.002144 0.000351 0.002045
-0.002096 0.000371 0.002036
-0.002048 0.000391 0.002025
-0.001561 0.000593 0.001927
-0.001545 0.000593 0.001946
-0.001532 0.000591 0.001967
-0.001523 0.000586 0.001992
-0.001518 0.000579 0.002021
-0.001523 0.000566 0.002058
-0.00154 0.000546 0.002105
-0.001555 0.000526 0.002151
-0.001566 0.000509 0.002194
-0.002424 0.000472 0.001242
-0.002387 0.000485 0.001242
-0.002345 0.000501 0.001238
-0.002299 0.000519 0.001231
-0.002253 0.000537 0.001224
-0.002212 0.000553 0.001221
-0.002183 0.000561 0.001227
-0.002159 0.000566 0.001239
-0.002139 0.000568 0.001255
-0.002123 0.000568 0.001274
-0.00211 0.000566 0.001295
-0.002712 0.000728 0.001208
-0.002734 0.000663 0.001218
-0.002816 0.000609 0.001039
-0.002211 0.000728 0.0016
-0.002708 0.000535 0.001233
-0.002756 0.000521 0.001201
-0.002306 0.000344 0.001793
-0.002323 0.000324 0.001841
-0.002334 0.000307 0.001884
-0.002326 0.000302 0.001909
-0.00231 0.000302 0.001928
-0.002294 0.000302 0.001947
-0.002278 0.000301 0.001966
-0.002262 0.000301 0.001984
-0.002246 0.000302 0.002003
-0.00223 0.000301 0.002022
-0.002213 0.000302 0.00204
-0.002188 0.000308 0.00205
-0.002144 0.000324 0.002045
-0.002097 0.000344 0.002036
-0.002048 0.000364 0.002025
-0.001561 0.000566 0.001927
-0.001545 0.000566 0.001946
-0.001532 0.000564 0.001967
-0.001523 0.000559 0.001992
-0.001518 0.000552 0.002021
-0.001523 0.000539 0.002058
-0.00154 0.000518 0.002105
-0.001554 0.000499 0.002151
-0.001566 0.000482 0.002194
-0.002424 0.000444 0.001242
-0.002387 0.000457 0.001243
-0.002345 0.000473 0.001239
-0.0023 0.000491 0.001232
-0.002254 0.00051 0.001224
-0.002212 0.000525 0.001221
-0.002182 0.000534 0.001227
-0.002159 0.000539 0.001239
-0.002139 0.00054 0.001255
-0.002123 0.00054 0.001274
-0.002109 0.000539 0.001295
-0.002778 0.000721 0.000967
-0.002575 0.000723 0.001253
-0.002812 0.000606 0.001064
-0.002807 0.000563 0.001011
-0.002742 0.000469 0.001222
-0.002766 0.000467 0.001179
-0.002285 0.00034 0.001742
-0.002306 0.000317 0.001794
-0.002323 0.000297 0.001841
-0.002334 0.00028 0.001884
-0.002326 0.000275 0.001909
-0.00231 0.000275 0.001928
-0.002294 0.000275 0.001947
-0.002278 0.000275 0.001965
-0.002262 0.000274 0.001984
-0.002245 0.000275 0.002003
-0.002229 0.000275 0.002021
-0.002213 0.000275 0.002039
-0.002187 0.000281 0.002049
-0.002144 0.000297 0.002045
-0.002097 0.000317 0.002036
-0.002047 0.000337 0.002024
-0.001561 0.000539 0.001927
-0.001545 0.000539 0.001946
-0.001532 0.000536 0.001967
-0.001522 0.000532 0.001992
-0.001518 0.000525 0.00202
-0.001522 0.000512 0.002057
-0.00154 0.000491 0.002106
-0.001555 0.000472 0.002151
-0.001567 0.000454 0.002195
-0.002424 0.000417 0.001242
-0.002387 0.00043 0.001242
-0.002345 0.000446 0.001239
-0.0023 0.000464 0.001232
-0.002254 0.000482 0.001225
-0.002212 0.000498 0.00122
-0.002182 0.000507 0.001227
-0.002159 0.000511 0.00124
-0.002139 0.000513 0.001255
-0.002123 0.000513 0.001274
-0.00211 0.000511 0.001295
-0.002786 0.00069 0.001107
-0.002775 0.000666 0.000969
-0.002707 0.000617 0.001233
-0.002776 0.000576 0.001156
-0.002756 0.000467 0.001202
-0.002286 0.000312 0.001743
-0.002307 0.00029 0.001794
-0.002323 0.00027 0.001841
-0.002334 0.000252 0.001884
-0.002326 0.000248 0.001909
-0.002311 0.000247 0.001929
-0.002295 0.000247 0.001947
-0.002279 0.000247 0.001966
-0.002263 0.000247 0.001985
-0.002246 0.000247 0.002003
-0.00223 0.000247 0.002022
-0.002213 0.000248 0.002039
-0.002187 0.000254 0.00205
-0.002143 0.00027 0.002044
-0.002097 0.000289 0.002036
-0.002047 0.00031 0.002024
-0.001561 0.000511 0.001927
-0.001545 0.000511 0.001946
-0.001532 0.000509 0.001967
-0.001522 0.000505 0.001992
-0.001518 0.000497 0.002021
-0.001522 0.000485 0.002057
-0.001539 0.000464 0.002105
-0.001554 0.000445 0.002151
-0.001567 0.000427 0.002194
-0.002426 0.000389 0.001244
-0.002388 0.000402 0.001244
-0.002345 0.000419 0.001239
-0.002299 0.000437 0.001231
-0.002255 0.000455 0.001225
-0.002212 0.000471 0.00122
-0.002182 0.000479 0.001227
-0.002159 0.000484 0.001239
-0.002139 0.000486 0.001255
-0.002123 0.000486 0.001274
-0.00211 0.000484 0.001295
-0.002806 0.000663 0.001062
-0.002753 0.000631 0.0012
-0.002665 0.000634 0.00124
-0.002804 0.000496 0.001088
-0.002285 0.000286 0.001743
-0.002307 0.000262 0.001794
-0.002323 0.000242 0.001842
-0.002334 0.000225 0.001884
-0.002325 0.000221 0.001909
-0.002311 0.00022 0.001929
-0.002295 0.000219 0.001948
-0.00228 0.000219 0.001967
-0.002263 0.000219 0.001985
-0.002247 0.000219 0.002004
-0.002231 0.000219 0.002022
-0.002212 0.000221 0.002039
-0.002186 0.000227 0.002049
-0.002143 0.000243 0.002044
-0.002097 0.000262 0.002036
-0.002047 0.000283 0.002024
-0.001578 0.000483 0.00191
-0.00156 0.000484 0.001927
-0.001544 0.000484 0.001946
-0.001531 0.000482 0.001967
-0.001522 0.000478 0.001992
-0.001518 0.00047 0.002021
-0.001523 0.000457 0.002058
-0.00154 0.000436 0.002106
-0.001555 0.000418 0.002151
-0.001567 0.0004 0.002195
-0.002425 0.000362 0.001243
-0.002387 0.000376 0.001243
-0.002345 0.000392 0.001238
-0.002298 0.000411 0.00123
-0.002254 0.000428 0.001225
-0.002212 0.000444 0.00122
-0.002182 0.000452 0.001227
-0.002159 0.000457 0.001239
-0.002139 0.000459 0.001255
-0.002123 0.000459 0.001274
-0.00211 0.000457 0.001295
-0.002777 0.000689 0.00113
-0.00228 0.000726 0.001741
-0.002618 0.000652 0.001246
-0.00274 0.000578 0.001221
-0.002287 0.000258 0.001744
-0.002307 0.000235 0.001794
-0.002323 0.000215 0.001842
-0.002334 0.000198 0.001884
-0.002325 0.000194 0.001908
-0.00231 0.000193 0.001928
-0.002294 0.000193 0.001947
-0.002279 0.000193 0.001966
-0.002262 0.000193 0.001984
-0.002246 0.000193 0.002003
-0.00223 0.000193 0.002022
-0.002211 0.000194 0.002038
-0.002185 0.0002 0.002048
-0.002143 0.000216 0.002044
-0.002096 0.000235 0.002036
-0.002047 0.000256 0.002023
-0.001578 0.000456 0.00191
-0.00156 0.000457 0.001927
-0.001544 0.000457 0.001946
-0.001531 0.000455 0.001967
-0.001522 0.000451 0.001992
-0.001518 0.000443 0.002021
-0.001523 0.00043 0.002058
-0.00154 0.00041 0.002105
-0.001554 0.00039 0.002151
-0.001568 0.000372 0.002195
-0.002424 0.000335 0.001243
-0.002387 0.000349 0.001242
-0.002345 0.000365 0.001238
-0.002299 0.000383 0.001231
-0.002254 0.000401 0.001224
-0.002212 0.000417 0.00122
-0.002183 0.000425 0.001228
-0.002159 0.00043 0.001239
-0.002139 0.000432 0.001255
-0.002123 0.000432 0.001274
-0.00211 0.00043 0.001295
-0.002809 0.000666 0.001036
-0.002718 0.000697 0.00039
-0.003001 0.000423 0.000109
-0.002664 0.000607 0.00124
-0.002461 0.000635 0.001255
-0.00241 0.000734 0.000579
-0.002307 0.000208 0.001794
-0.002324 0.000187 0.001842
-0.002333 0.000172 0.001883
-0.002324 0.000167 0.001908
-0.00231 0.000166 0.001928
-0.002295 0.000166 0.001947
-0.002278 0.000165 0.001966
-0.002262 0.000165 0.001985
-0.002246 0.000165 0.002003
-0.002229 0.000166 0.002021
-0.00221 0.000168 0.002037
-0.002184 0.000174 0.002047
-0.002142 0.00019 0.002043
-0.002096 0.000208 0.002035
-0.001389 -2.9e-05 0.001581
-0.001579 0.000429 0.00191
-0.00156 0.00043 0.001927
-0.001544 0.00043 0.001946
-0.001531 0.000428 0.001967
-0.001522 0.000423 0.001992
-0.001517 0.000416 0.00202
-0.001524 0.000402 0.002059
-0.00154 0.000382 0.002105
-0.001555 0.000363 0.002151
-0.001566 0.000346 0.002194
-0.002424 0.000308 0.001243
-0.002387 0.000321 0.001243
-0.002345 0.000337 0.001239
-0.002298 0.000356 0.001231
-0.002253 0.000374 0.001224
-0.002212 0.000389 0.001221
-0.002183 0.000398 0.001228
-0.002159 0.000403 0.00124
-0.002139 0.000405 0.001255
-0.002123 0.000405 0.001274
-0.002109 0.000403 0.001295
-0.0028 0.000661 0.001086
-0.002472 0.000743 -0.00022
-0.002879 0.000717 -0.000762
-0.002756 0.000548 0.001201
-0.002766 0.000521 0.001179
-0.002521 0.00061 0.001255
-0.002287 0.000203 0.001744
-0.002307 0.000181 0.001794
-0.002324 0.00016 0.001842
-0.002331 0.000145 0.001882
-0.002322 0.000141 0.001906
-0.002309 0.00014 0.001927
-0.002294 0.000139 0.001947
-0.002278 0.000139 0.001965
-0.002262 0.000139 0.001984
-0.002245 0.000139 0.002002
-0.002227 0.00014 0.00202
-0.002208 0.000142 0.002036
-0.002183 0.000147 0.002047
-0.002142 0.000162 0.002043
-0.001578 0.000401 0.00191
-0.00156 0.000403 0.001927
-0.001544 0.000403 0.001946
-0.001531 0.000401 0.001967
-0.001522 0.000396 0.001992
-0.001518 0.000389 0.002021
-0.001525 0.000374 0.00206
-0.00154 0.000355 0.002105
-0.001555 0.000336 0.002151
-0.001567 0.000318 0.002195
-0.002425 0.00028 0.001244
-0.002387 0.000294 0.001242
-0.002345 0.00031 0.001239
-0.002298 0.000329 0.00123
-0.002254 0.000347 0.001224
-0.002212 0.000362 0.001221
-0.002183 0.000371 0.001228
-0.002158 0.000376 0.001239
-0.002139 0.000378 0.001255
-0.002123 0.000378 0.001274
-0.002109 0.000376 0.001295
-0.002776 0.000693 0.000968
-0.002522 0.000718 0.001256
-0.002229 0.000741 0.001636
-0.002817 0.000545 0.000356
-0.002811 0.000552 0.001064
-0.002755 0.000603 0.001201
-0.002287 0.000176 0.001744
-0.002308 0.000153 0.001795
-0.002324 0.000133 0.001842
-0.002329 0.00012 0.001879
-0.002319 0.000116 0.001903
-0.002306 0.000114 0.001924
-0.002291 0.000113 0.001944
-0.002276 0.000113 0.001964
-0.002259 0.000113 0.001982
-0.002242 0.000113 0.002
-0.002224 0.000115 0.002017
-0.002205 0.000117 0.002033
-0.002181 0.000121 0.002045
-0.002142 0.000135 0.002043
-0.002096 0.000154 0.002036
-0.001578 0.000374 0.00191
-0.00156 0.000375 0.001927
-0.001544 0.000375 0.001946
-0.001531 0.000373 0.001967
-0.001522 0.000369 0.001992
-0.001518 0.000361 0.002021
-0.001524 0.000348 0.002059
-0.00154 0.000328 0.002106
-0.001554 0.000309 0.002151
-0.001567 0.000291 0.002194
-0.002424 0.000254 0.001247
-0.002387 0.000267 0.001243
-0.002345 0.000283 0.001239
-0.002299 0.000301 0.001232
-0.002253 0.00032 0.001224
-0.002212 0.000335 0.001221
-0.002182 0.000344 0.001228
-0.002159 0.000348 0.001239
-0.002139 0.00035 0.001255
-0.002123 0.00035 0.001274
-0.002109 0.000349 0.001294
-0.002664 0.000716 0.00124
-0.002572 0.000698 0.001252
-0.003001 0.00053 0.000134
-0.002707 0.000481 0.001233
-0.002802 0.000551 0.001087
-0.002795 0.000577 0.001111
-0.002288 0.000148 0.001745
-0.002307 0.000126 0.001795
-0.002322 0.000107 0.001841
-0.002325 9.5e-05 0.001876
-0.002314 9.2e-05 0.001899
-0.0023 9e-05 0.00192
-0.002286 8.9e-05 0.00194
-0.002271 8.9e-05 0.001959
-0.002255 8.9e-05 0.001978
-0.002238 8.9e-05 0.001996
-0.002219 9e-05 0.002012
-0.0022 9.2e-05 0.002028
-0.002177 9.6e-05 0.002041
-0.002142 0.000108 0.002043
-0.002095 0.000127 0.002035
-0.002046 0.000148 0.002022
-0.001578 0.000347 0.00191
-0.00156 0.000348 0.001927
-0.001544 0.000348 0.001946
-0.001531 0.000346 0.001967
-0.001522 0.000342 0.001992
-0.001518 0.000334 0.002021
-0.001523 0.000321 0.002058
-0.00154 0.0003 0.002106
-0.001555 0.000282 0.002151
-0.001566 0.000264 0.002194
-0.002425 0.000227 0.001243
-0.002387 0.00024 0.001243
-0.002345 0.000256 0.001239
-0.0023 0.000274 0.001232
-0.002253 0.000293 0.001224
-0.002212 0.000308 0.00122
-0.002182 0.000316 0.001227
-0.002158 0.000321 0.001239
-0.002139 0.000323 0.001255
-0.002123 0.000323 0.001274
-0.002109 0.000321 0.001294
-0.002619 0.000733 0.001246
-0.002737 0.000634 0.00122
-0.002264 0.000712 0.001706
-0.002741 0.000496 0.001222
-0.002286 0.000122 0.001744
-0.002306 9.9e-05 0.001794
-0.002321 8.1e-05 0.00184
-0.002318 7.2e-05 0.00187
-0.002307 6.9e-05 0.001893
-0.002293 6.8e-05 0.001913
-0.002279 6.7e-05 0.001934
-0.002264 6.6e-05 0.001953
-0.002247 6.6e-05 0.001972
-0.00223 6.7e-05 0.001989
-0.002212 6.8e-05 0.002006
-0.002193 7e-05 0.002022
-0.002171 7.3e-05 0.002036
-0.00214 8.2e-05 0.002042
-0.002095 0.0001 0.002035
-0.002046 0.000121 0.002023
-0.00156 0.000321 0.001927
-0.001544 0.000321 0.001946
-0.001531 0.000319 0.001967
-0.001522 0.000314 0.001992
-0.001518 0.000307 0.002021
-0.001524 0.000293 0.002059
-0.001539 0.000274 0.002105
-0.001554 0.000255 0.002151
-0.001567 0.000237 0.002195
-0.002425 0.000199 0.001243
-0.002387 0.000213 0.001243
-0.002344 0.000229 0.001238
-0.002299 0.000247 0.001232
-0.002253 0.000265 0.001224
-0.002211 0.000281 0.00122
-0.002182 0.000289 0.001227
-0.002158 0.000294 0.001239
-0.002139 0.000296 0.001255
-0.002123 0.000296 0.001274
-0.002109 0.000294 0.001294
-0.002588 0.000646 0.000421
-0.002619 0.000679 0.001246
-0.002248 0.000726 0.001672
-0.002157 0.00075 0.001467
-0.001406 -3e-05 0.001564
-0.001423 -3.1e-05 0.001546
-0.002286 9.5e-05 0.001743
-0.002305 7.3e-05 0.001793
-0.002316 5.7e-05 0.001835
-0.002309 5.1e-05 0.001862
-0.002297 4.8e-05 0.001884
-0.002283 4.7e-05 0.001905
-0.002269 4.6e-05 0.001925
-0.002253 4.5e-05 0.001944
-0.002237 4.5e-05 0.001963
-0.00222 4.6e-05 0.001981
-0.002202 4.7e-05 0.001998
-0.002183 4.8e-05 0.002014
-0.002162 5.1e-05 0.002028
-0.002136 5.8e-05 0.002038
-0.002095 7.3e-05 0.002034
-0.002046 9.3e-05 0.002023
-0.00156 0.000294 0.001927
-0.001544 0.000294 0.001946
-0.001531 0.000292 0.001967
-0.001522 0.000287 0.001992
-0.001518 0.00028 0.002021
-0.001523 0.000266 0.002059
-0.001539 0.000247 0.002104
-0.001554 0.000228 0.002151
-0.001566 0.00021 0.002194
-0.002424 0.000172 0.001247
-0.002386 0.000186 0.001242
-0.002343 0.000202 0.001238
-0.002299 0.00022 0.001232
-0.002252 0.000239 0.001223
-0.002211 0.000254 0.00122
-0.002182 0.000262 0.001227
-0.002158 0.000267 0.001239
-0.002139 0.000269 0.001255
-0.002123 0.000269 0.001274
-0.002109 0.000267 0.001295
-0.002701 0.000702 0.00123
-0.002708 0.000644 0.001233
-0.002463 0.000749 -0.000246
-0.002248 0.000671 0.001672
-0.001441 -3.1e-05 0.001528
-0.002286 6.8e-05 0.001744
-0.002302 4.8e-05 0.001791
-0.002305 3.6e-05 0.001826
-0.002297 3.1e-05 0.001851
-0.002285 2.9e-05 0.001873
-0.002271 2.7e-05 0.001894
-0.002256 2.6e-05 0.001914
-0.00224 2.6e-05 0.001933
-0.002224 2.6e-05 0.001951
-0.002207 2.7e-05 0.001969
-0.002189 2.8e-05 0.001986
-0.002171 2.9e-05 0.002003
-0.002151 3.1e-05 0.002018
-0.002126 3.6e-05 0.00203
-0.002092 4.8e-05 0.002032
-0.002046 6.6e-05 0.002023
-0.001578 0.000266 0.00191
-0.00156 0.000267 0.001927
-0.001544 0.000267 0.001946
-0.001531 0.000265 0.001967
-0.001522 0.00026 0.001992
-0.001518 0.000253 0.002021
-0.001523 0.000239 0.002059
-0.00154 0.000219 0.002106
-0.001554 0.0002 0.002151
-0.001568 0.000182 0.002195
-0.002424 0.000146 0.001242
-0.002386 0.000159 0.001242
-0.002344 0.000175 0.001238
-0.002298 0.000193 0.00123
-0.002252 0.000212 0.001223
-0.002211 0.000227 0.00122
-0.002182 0.000235 0.001227
-0.002158 0.00024 0.001239
-0.002139 0.000242 0.001255
-0.002123 0.000242 0.001273
-0.002109 0.00024 0.001295
-0.002755 0.00069 0.001174
-0.002786 0.00063 0.001134
-0.002462 0.000716 0.001255
-0.002803 0.000469 0.001087
-0.001457 -3.2e-05 0.00151
-0.001474 -3.2e-05 0.001492
-0.002284 4.2e-05 0.001742
-0.002294 2.6e-05 0.001783
-0.00229 1.8e-05 0.001813
-0.00228 1.4e-05 0.001837
-0.002267 1.2e-05 0.001858
-0.002253 1.1e-05 0.001879
-0.002238 1e-05 0.001898
-0.002222 1e-05 0.001917
-0.002206 1e-05 0.001935
-0.002189 1e-05 0.001953
-0.002172 1.1e-05 0.001971
-0.002153 1.2e-05 0.001988
-0.002134 1.4e-05 0.002004
-0.002112 1.8e-05 0.002017
-0.002083 2.6e-05 0.002025
-0.002045 4e-05 0.002022
-0.00149 -3.2e-05 0.001474
-0.001578 0.000239 0.00191
-0.00156 0.00024 0.001927
-0.001544 0.00024 0.001946
-0.001531 0.000237 0.001967
-0.001522 0.000233 0.001992
-0.001518 0.000226 0.002021
-0.001523 0.000212 0.002059
-0.00154 0.000192 0.002106
-0.001555 0.000173 0.002151
-0.001568 0.000154 0.002196
-0.002424 0.000118 0.001242
-0.002386 0.000132 0.001242
-0.002342 0.000149 0.001237
-0.002298 0.000166 0.001231
-0.002252 0.000185 0.001223
-0.002211 0.0002 0.00122
-0.002181 0.000208 0.001227
-0.002158 0.000213 0.001239
-0.002139 0.000215 0.001255
-0.002122 0.000215 0.001273
-0.002109 0.000213 0.001294
-0.002774 0.000658 0.001155
-0.002786 0.000603 0.001134
-0.002806 0.000591 0.00101
-0.002757 0.000494 0.001202
-0.002416 0.000753 0.000609
-0.002276 9e-06 0.001768
-0.002266 6e-06 0.001792
-0.002251 5e-06 0.001812
-0.002236 4e-06 0.001831
-0.002222 3e-06 0.001851
-0.002206 3e-06 0.00187
-0.00219 3e-06 0.001889
-0.002173 3e-06 0.001907
-0.002157 3e-06 0.001925
-0.002141 3e-06 0.001944
-0.002087 6e-06 0.001996
-0.002065 1e-05 0.002009
-0.001507 -3.3e-05 0.001456
-0.001524 -3.3e-05 0.001438
-0.001578 0.000211 0.00191
-0.00156 0.000213 0.001927
-0.001544 0.000212 0.001946
-0.001531 0.00021 0.001967
-0.001522 0.000206 0.001992
-0.001518 0.000198 0.002021
-0.001525 0.000184 0.00206
-0.00154 0.000164 0.002106
-0.001555 0.000145 0.002152
-0.001566 0.000129 0.002194
-0.002424 9.1e-05 0.001242
-0.002386 0.000104 0.001242
-0.002342 0.000122 0.001237
-0.002298 0.000139 0.001231
-0.002251 0.000158 0.001222
-0.002211 0.000173 0.00122
-0.002181 0.000181 0.001227
-0.002158 0.000186 0.001239
-0.002138 0.000188 0.001255
-0.002122 0.000188 0.001273
-0.002109 0.000186 0.001294
-0.002265 0.000739 0.001707
-0.002798 0.000511 0.000999
-0.002102 0.000751 0.001441
-0.002812 0.000524 0.001064
-0.002819 0.000526 0.001041
-0.002213 1e-06 0.001778
-0.002197 1e-06 0.001797
-0.002181 1e-06 0.001816
-0.002132 2e-06 0.001871
-0.002116 1e-06 0.00189
-0.002084 1e-06 0.001927
-0.002067 2e-06 0.001945
-0.002051 1e-06 0.001964
-0.002035 2e-06 0.001982
-0.001541 -3.3e-05 0.00142
-0.001578 0.000184 0.00191
-0.00156 0.000185 0.001927
-0.001544 0.000185 0.001946
-0.001531 0.000183 0.001967
-0.001522 0.000179 0.001992
-0.001518 0.000171 0.002021
-0.001524 0.000157 0.002059
-0.001541 0.000137 0.002107
-0.001556 0.000118 0.002152
-0.001565 0.000102 0.002193
-0.002424 6.4e-05 0.001243
-0.002385 7.8e-05 0.001241
-0.002343 9.4e-05 0.001237
-0.002298 0.000112 0.001231
-0.002251 0.000131 0.001223
-0.002211 0.000146 0.00122
-0.002181 0.000154 0.001227
-0.002157 0.000159 0.001239
-0.002138 0.000161 0.001255
-0.002122 0.000161 0.001273
-0.002795 0.000707 0.001002
-0.002665 0.000661 0.001241
-0.002521 0.000692 0.001255
-0.002785 0.000576 0.001134
-0.002231 0.000631 0.001637
-0.002265 0.000685 0.001706
-0.002248 0.000699 0.001672
-0.002803 0.000524 0.001087
-0.001557 -3.3e-05 0.001401
-0.002177 -4e-06 0.001747
-0.00216 -3e-06 0.001765
-0.002144 -3e-06 0.001783
-0.001573 -3.3e-05 0.001382
-0.002096 -3e-06 0.001839
-0.00208 -4e-06 0.001859
-0.002063 -3e-06 0.001876
-0.002046 -3e-06 0.001894
-0.00203 -3e-06 0.001913
-0.001578 0.000157 0.00191
-0.00156 0.000158 0.001927
-0.001544 0.000158 0.001946
-0.001531 0.000156 0.001967
-0.001522 0.000152 0.001992
-0.001517 0.000144 0.00202
-0.001525 0.00013 0.00206
-0.001541 0.00011 0.002107
-0.001554 9.1e-05 0.002151
-0.001566 7.4e-05 0.002194
-0.002424 3.7e-05 0.001243
-0.002386 5e-05 0.001242
-0.002341 6.8e-05 0.001236
-0.002298 8.5e-05 0.00123
-0.002251 0.000104 0.001222
-0.00221 0.000119 0.00122
-0.002181 0.000127 0.001226
-0.002157 0.000132 0.001239
-0.002138 0.000134 0.001254
-0.002122 0.000133 0.001273
-0.002798 0.000699 0.001031
-0.002803 0.000632 0.001088
-0.002571 0.000671 0.001251
-0.002163 0.000709 0.001524
-0.002265 0.000658 0.001706
-0.002818 0.000553 0.00104
-0.002231 0.000713 0.001637
-0.002111 0.0 0.001722
-0.002097 -1e-06 0.001742
-0.002062 0.0 0.001777
-0.002047 -0.0 0.001797
-0.002032 -1e-06 0.001816
-0.002014 0.0 0.001833
-0.001998 0.0 0.001852
-0.001982 -0.0 0.001871
-0.001578 0.00013 0.00191
-0.00156 0.000131 0.001927
-0.001544 0.000131 0.001946
-0.001531 0.000129 0.001967
-0.001522 0.000124 0.001992
-0.001517 0.000118 0.00202
-0.001524 0.000103 0.002059
-0.00154 8.3e-05 0.002106
-0.001556 6.3e-05 0.002152
-0.001566 4.7e-05 0.002194
-0.002421 1.1e-05 0.00124
-0.002386 2.3e-05 0.001242
-0.002342 4e-05 0.001237
-0.002297 5.8e-05 0.00123
-0.00225 7.7e-05 0.001222
-0.00221 9.2e-05 0.001219
-0.002181 0.0001 0.001226
-0.002157 0.000104 0.001239
-0.002138 0.000106 0.001254
-0.002122 0.000106 0.001273
-0.002798 0.000695 0.001058
-0.002937 0.00063 0.000299
-0.002766 0.000603 0.001179
-0.002936 0.00044 0.000299
-0.002765 0.000549 0.001179
-0.001589 -3.3e-05 0.001364
-0.001606 -3.4e-05 0.001346
-0.002765 0.000723 0.001124
-0.002086 -1e-06 0.001667
-0.002069 -1e-06 0.001685
-0.002052 -1e-06 0.001703
-0.002037 -1e-06 0.001722
-0.002021 -1e-06 0.001741
-0.002004 -1e-06 0.001759
-0.001988 -1e-06 0.001778
-0.001971 -1e-06 0.001796
-0.001956 -1e-06 0.001815
-0.001874 -1e-06 0.001907
-0.00156 0.000104 0.001927
-0.001544 0.000104 0.001946
-0.001531 0.000102 0.001967
-0.001521 9.7e-05 0.001991
-0.001517 9e-05 0.00202
-0.001523 7.6e-05 0.002059
-0.001541 5.6e-05 0.002106
-0.001556 3.6e-05 0.002153
-0.001566 2e-05 0.002194
-0.002396 -0.0 0.001218
-0.002375 3e-06 0.001233
-0.002342 1.3e-05 0.001237
-0.002298 3e-05 0.001231
-0.00225 5e-05 0.001222
-0.00221 6.4e-05 0.001219
-0.002181 7.3e-05 0.001226
-0.002157 7.7e-05 0.001238
-0.002138 7.9e-05 0.001254
-0.002122 7.9e-05 0.001273
-0.002108 7.7e-05 0.001294
-0.002665 0.000688 0.00124
-0.002806 0.000619 0.001009
-0.002969 0.000507 0.000279
-0.002775 0.000549 0.001156
-0.002784 0.00055 0.001133
-0.001622 -3.3e-05 0.001327
-0.002753 0.000723 0.001146
-0.002048 -5e-06 0.001634
-0.002034 -7e-06 0.001654
-0.002017 -6e-06 0.001672
-0.002 -6e-06 0.00169
-0.001984 -5e-06 0.001708
-0.001966 -5e-06 0.001726
-0.001951 -5e-06 0.001745
-0.001935 -6e-06 0.001765
-0.001871 -6e-06 0.001839
-0.001855 -6e-06 0.001858
-0.001838 -5e-06 0.001875
-0.001823 -6e-06 0.001895
-0.001804 -2e-06 0.001911
-0.001577 7.6e-05 0.00191
-0.001559 7.7e-05 0.001927
-0.001544 7.7e-05 0.001945
-0.001531 7.5e-05 0.001967
-0.001521 7e-05 0.001991
-0.001517 6.3e-05 0.00202
-0.001523 4.9e-05 0.002058
-0.001542 2.8e-05 0.002108
-0.001555 1e-05 0.002152
-0.001553 -2e-06 0.002183
-0.002586 0.000729 0.00042
-0.002576 0.000709 0.000768
-0.002325 -4e-06 0.001222
-0.002297 4e-06 0.00123
-0.002252 2.2e-05 0.001223
-0.00221 3.7e-05 0.001219
-0.002181 4.6e-05 0.001226
-0.002157 5e-05 0.001238
-0.002137 5.2e-05 0.001254
-0.002121 5.2e-05 0.001272
-0.002108 5e-05 0.001294
-0.00262 0.000706 0.001247
-0.002804 0.000604 0.001088
-0.00247 0.000735 0.000444
-0.002793 0.00055 0.00111
-0.001637 -3.3e-05 0.001308
-0.001653 -3.3e-05 0.001289
-0.002898 0.000592 0.000318
-0.002771 0.000592 0.000374
-0.001983 -2e-06 0.00161
-0.001969 -4e-06 0.00163
-0.001953 -4e-06 0.001649
-0.001936 -3e-06 0.001667
-0.00192 -3e-06 0.001686
-0.001902 -3e-06 0.001703
-0.001668 -3.2e-05 0.00127
-0.001806 -3e-06 0.001815
-0.00179 -3e-06 0.001834
-0.001776 -4e-06 0.001854
-0.001761 -5e-06 0.001873
-0.001744 -5e-06 0.001892
-0.001597 4.7e-05 0.001894
-0.001577 4.9e-05 0.001909
-0.001559 5e-05 0.001926
-0.001543 5e-05 0.001945
-0.001531 4.8e-05 0.001966
-0.00152 4.4e-05 0.001991
-0.001517 3.6e-05 0.00202
-0.001536 -5e-06 0.002136
-0.001521 -7e-06 0.002155
-0.002435 0.000743 0.000482
-0.002282 -5e-06 0.001184
-0.002265 -4e-06 0.001202
-0.002243 -0.0 0.001216
-0.002209 1.1e-05 0.001219
-0.002181 1.8e-05 0.001226
-0.002157 2.3e-05 0.001238
-0.002137 2.5e-05 0.001254
-0.002121 2.6e-05 0.001272
-0.002107 2.3e-05 0.001293
-0.002767 0.000689 0.001152
-0.002086 1.6e-05 0.001341
-0.002163 0.000736 0.001524
-0.002084 0.000744 0.001378
-0.00252 0.000583 0.001255
-0.002098 0.000726 0.001439
-0.002776 0.000522 0.001156
-0.002785 0.000522 0.001133
-0.001904 -1e-06 0.001607
-0.001888 -1e-06 0.001625
-0.001874 -2e-06 0.001645
-0.001859 -3e-06 0.001665
-0.001758 -1e-06 0.001773
-0.001742 -1e-06 0.001792
-0.001727 -1e-06 0.001812
-0.001711 -2e-06 0.00183
-0.001697 -2e-06 0.00185
-0.001596 2e-05 0.001893
-0.001577 2.2e-05 0.001909
-0.001559 2.3e-05 0.001926
-0.001543 2.3e-05 0.001945
-0.00153 2.1e-05 0.001966
-0.00152 1.7e-05 0.001991
-0.001518 7e-06 0.002019
-0.001519 -3e-06 0.002055
-0.001472 -4e-06 0.002112
-0.002415 0.000759 0.000582
-0.00248 0.000757 0.000449
-0.002234 -2e-06 0.001142
-0.002217 -1e-06 0.00116
-0.002202 -2e-06 0.00118
-0.002186 -2e-06 0.001199
-0.002167 -0.0 0.001214
-0.00215 0.0 0.001232
-0.002133 2e-06 0.00125
-0.002116 2e-06 0.001268
-0.002101 1e-06 0.001288
-0.002087 -0.0 0.001308
-0.002073 -2e-06 0.001329
-0.002058 -3e-06 0.001348
-0.002043 -3e-06 0.001367
-0.002027 -4e-06 0.001386
-0.002011 -4e-06 0.001405
-0.002964 0.000733 0.000203
-0.002461 0.000608 0.001255
-0.002571 0.000563 0.001251
-0.002086 0.000737 0.001407
-0.003001 0.000448 0.000134
-0.002231 0.000658 0.001637
-0.002794 0.000523 0.00111
-0.001885 -7e-06 0.001557
-0.001869 -6e-06 0.001576
-0.001853 -6e-06 0.001594
-0.001837 -6e-06 0.001613
-0.00182 -6e-06 0.001631
-0.001804 -6e-06 0.00165
-0.001684 -3.2e-05 0.00125
-0.001705 -5e-06 0.00176
-0.001689 -6e-06 0.001778
-0.001672 -6e-06 0.001796
-0.001655 -4e-06 0.001814
-0.001638 -3e-06 0.001832
-0.001604 -2e-06 0.001868
-0.001587 -1e-06 0.001885
-0.001568 -0.0 0.001902
-0.001552 0.0 0.00192
-0.001536 0.0 0.001939
-0.00152 -1e-06 0.001957
-0.001506 -2e-06 0.001978
-0.001492 -3e-06 0.001998
-0.001471 -0.0 0.002013
-0.002571 0.000644 0.001251
-0.002654 0.000644 0.000406
-0.002193 -4e-06 0.001106
-0.002179 -5e-06 0.001126
-0.002164 -5e-06 0.001146
-0.002149 -6e-06 0.001166
-0.002162 0.000682 0.001523
-0.002819 0.000499 0.001041
-0.002104 -9e-06 0.001225
-0.00209 -9e-06 0.001245
-0.002075 -1e-05 0.001265
-0.002059 -1.1e-05 0.001284
-0.002044 -1.2e-05 0.001304
-0.002029 -1.2e-05 0.001322
-0.002012 -1.2e-05 0.001341
-0.001997 -1.2e-05 0.00136
-0.00198 -1.2e-05 0.001378
-0.002996 0.000526 0.000233
-0.002087 0.000747 0.001353
-0.002994 0.000418 0.000233
-0.001883 -1.2e-05 0.00149
-0.001867 -1.2e-05 0.001508
-0.00185 -1.2e-05 0.001526
-0.001835 -1.2e-05 0.001546
-0.001818 -1.2e-05 0.001564
-0.001802 -1.2e-05 0.001582
-0.001786 -1.2e-05 0.001601
-0.001769 -1.1e-05 0.001619
-0.001687 -1.1e-05 0.001711
-0.001671 -1.1e-05 0.00173
-0.001657 -1.2e-05 0.00175
-0.001608 -1.2e-05 0.001806
-0.001593 -1.3e-05 0.001825
-0.001576 -1.2e-05 0.001843
-0.001558 -1.1e-05 0.00186
-0.001541 -1.1e-05 0.001878
-0.001524 -9e-06 0.001896
-0.001471 -7e-06 0.001948
-0.001453 -6e-06 0.001965
-0.001436 -6e-06 0.001983
-0.0017 -3.2e-05 0.001231
-0.002707 0.000508 0.001233
-0.002179 -1.1e-05 0.001062
-0.002163 -1.2e-05 0.00108
-0.002146 -1.1e-05 0.001098
-0.002795 0.000495 0.001111
-0.00208 -1.1e-05 0.001171
-0.002064 -1.1e-05 0.00119
-0.002047 -1e-05 0.001207
-0.002032 -1.1e-05 0.001227
-0.002015 -1.1e-05 0.001246
-0.002785 0.000495 0.001134
-0.002776 0.000494 0.001156
-0.002775 0.000659 0.00097
-0.002936 0.000576 0.000299
-0.001833 -8e-06 0.001446
-0.001816 -8e-06 0.001464
-0.0018 -8e-06 0.001483
-0.001783 -7e-06 0.0015
-0.001769 -9e-06 0.001521
-0.001752 -8e-06 0.001539
-0.001736 -8e-06 0.001558
-0.001715 -3.1e-05 0.001212
-0.00173 -3e-05 0.001193
-0.001642 -1e-05 0.001671
-0.001624 -9e-06 0.001689
-0.001593 -1e-05 0.001727
-0.001578 -1e-05 0.001746
-0.00156 -9e-06 0.001763
-0.001544 -9e-06 0.001782
-0.001528 -9e-06 0.001801
-0.001513 -1e-05 0.001821
-0.001498 -1.1e-05 0.00184
-0.001481 -1.1e-05 0.001858
-0.001745 -3e-05 0.001173
-0.00176 -2.9e-05 0.001154
-0.002663 0.000526 0.00124
-0.002133 -1.1e-05 0.001021
-0.002116 -1e-05 0.001039
-0.002099 -1e-05 0.001057
-0.002082 -9e-06 0.001075
-0.002064 -8e-06 0.001091
-0.002047 -8e-06 0.00111
-0.002032 -8e-06 0.001129
-0.002014 -7e-06 0.001146
-0.001999 -8e-06 0.001166
-0.00198 -6e-06 0.001182
-0.002767 0.000494 0.001179
-0.002772 0.000724 0.0011
-0.002618 0.000625 0.001246
-0.001898 -5e-06 0.001274
-0.001881 -5e-06 0.001291
-0.001865 -5e-06 0.001311
-0.002819 0.000471 0.001041
-0.002424 0.000743 0.000504
-0.00297 0.000562 0.000279
-0.002618 0.000543 0.001246
-0.001783 -5e-06 0.001402
-0.001766 -4e-06 0.00142
-0.00175 -4e-06 0.001439
-0.001735 -5e-06 0.001458
-0.001718 -5e-06 0.001477
-0.001703 -5e-06 0.001496
-0.001687 -5e-06 0.001514
-0.002129 0.000732 0.001481
-0.001543 -6e-06 0.001683
-0.001527 -7e-06 0.001702
-0.001511 -6e-06 0.001721
-0.001496 -7e-06 0.001741
-0.001479 -6e-06 0.001758
-0.001464 -7e-06 0.001777
-0.00145 -8e-06 0.001798
-0.001432 -8e-06 0.001816
-0.001384 -8e-06 0.001872
-0.001369 -8e-06 0.001891
-0.002142 0.000752 0.001487
-0.002751 0.000535 0.000943
-0.002082 -7e-06 0.000977
-0.002064 -6e-06 0.000994
-0.002049 -6e-06 0.001013
-0.002032 -6e-06 0.001031
-0.002014 -5e-06 0.001048
-0.001999 -5e-06 0.001068
-0.001982 -5e-06 0.001086
-0.001965 -4e-06 0.001104
-0.001949 -5e-06 0.001122
-0.002189 0.000717 0.001563
-0.00221 0.000701 0.0016
-0.00245 0.00074 0.000462
-0.001883 -4e-06 0.001196
-0.001868 -4e-06 0.001215
-0.001852 -4e-06 0.001233
-0.001834 -4e-06 0.001251
-0.001819 -4e-06 0.00127
-0.002766 0.00063 0.001179
-0.002813 0.000497 0.001065
-0.002708 0.000562 0.001234
-0.00174 -5e-06 0.001365
-0.001723 -5e-06 0.001383
-0.001708 -5e-06 0.001402
-0.001692 -5e-06 0.001421
-0.001675 -5e-06 0.001439
-0.001659 -5e-06 0.001458
-0.001644 -6e-06 0.001477
-0.001611 -5e-06 0.001513
-0.001594 -5e-06 0.001531
-0.001578 -5e-06 0.001551
-0.001562 -6e-06 0.001569
-0.001448 -4e-06 0.001698
-0.001431 -4e-06 0.001717
-0.001415 -4e-06 0.001735
-0.001399 -4e-06 0.001754
-0.001382 -4e-06 0.001772
-0.001335 -4e-06 0.001828
-0.001321 -6e-06 0.001849
-0.001304 -6e-06 0.001867
-0.001288 -6e-06 0.001886
-0.002807 0.000483 0.001009
-0.002265 0.000603 0.001706
-0.002018 -4e-06 0.000953
-0.002002 -4e-06 0.000972
-0.001986 -4e-06 0.000991
-0.001969 -4e-06 0.001009
-0.001955 -5e-06 0.001029
-0.001938 -5e-06 0.001047
-0.001924 -6e-06 0.001067
-0.001908 -6e-06 0.001086
-0.001893 -7e-06 0.001106
-0.002726 0.000694 0.001214
-0.001862 -8e-06 0.001145
-0.001847 -8e-06 0.001164
-0.001831 -9e-06 0.001183
-0.001816 -9e-06 0.001202
-0.001801 -1e-05 0.001222
-0.001785 -1e-05 0.00124
-0.002776 0.00063 0.001156
-0.002521 0.000637 0.001255
-0.002462 0.000662 0.001255
-0.002741 0.000551 0.001221
-0.002739 0.000606 0.001221
-0.001691 -1.2e-05 0.001355
-0.001675 -1.2e-05 0.001374
-0.001659 -1.2e-05 0.001392
-0.001643 -1.2e-05 0.001411
-0.001627 -1.2e-05 0.001429
-0.001611 -1.2e-05 0.001448
-0.001594 -1.2e-05 0.001466
-0.001577 -1.2e-05 0.001484
-0.001561 -1.2e-05 0.001503
-0.001545 -1.1e-05 0.001521
-0.001529 -1.2e-05 0.00154
-0.001494 -1.1e-05 0.001576
-0.001478 -1.1e-05 0.001594
-0.00141 -9e-06 0.001665
-0.001394 -9e-06 0.001684
-0.001376 -7e-06 0.001701
-0.001359 -7e-06 0.001718
-0.001292 -6e-06 0.001791
-0.001276 -5e-06 0.00181
-0.001259 -5e-06 0.001828
-0.001243 -5e-06 0.001846
-0.001226 -5e-06 0.001864
-0.002898 0.000483 0.000318
-0.002778 0.000726 0.001076
-0.001981 -8e-06 0.000921
-0.001966 -9e-06 0.000941
-0.001951 -1e-05 0.00096
-0.001936 -1.1e-05 0.00098
-0.001922 -1.2e-05 0.001
-0.001907 -1.2e-05 0.00102
-0.001892 -1.3e-05 0.001039
-0.001877 -1.4e-05 0.001059
-0.002802 0.000674 0.001007
-0.002742 0.000691 0.001195
-0.002792 0.000692 0.001082
-0.001817 -1.7e-05 0.001138
-0.001802 -1.8e-05 0.001157
-0.001787 -1.8e-05 0.001177
-0.001771 -1.9e-05 0.001196
-0.001756 -1.9e-05 0.001215
-0.00174 -2e-05 0.001234
-0.001725 -2e-05 0.001253
-0.00171 -2.1e-05 0.001273
-0.001694 -2.1e-05 0.001292
-0.001678 -2.1e-05 0.00131
-0.001662 -2.1e-05 0.001329
-0.001647 -2.2e-05 0.001348
-0.00163 -2.2e-05 0.001367
-0.001614 -2.2e-05 0.001386
-0.001598 -2.2e-05 0.001404
-0.001582 -2.2e-05 0.001423
-0.001566 -2.2e-05 0.001442
-0.00155 -2.2e-05 0.00146
-0.001533 -2.1e-05 0.001478
-0.001516 -2.1e-05 0.001496
-0.001499 -2.1e-05 0.001514
-0.001483 -2.1e-05 0.001533
-0.001466 -2e-05 0.00155
-0.001449 -2e-05 0.001569
-0.001432 -1.9e-05 0.001586
-0.001381 -1.8e-05 0.00164
-0.001364 -1.7e-05 0.001658
-0.001347 -1.7e-05 0.001675
-0.001329 -1.6e-05 0.001693
-0.001242 -1.2e-05 0.00178
-0.001224 -1.1e-05 0.001797
-0.002189 0.00069 0.001563
-0.002991 0.000499 0.000257
-0.002231 0.000685 0.001637
-0.002708 0.000589 0.001234
-0.00221 0.000674 0.0016
-0.00257 0.000617 0.001251
-0.002664 0.000553 0.00124
-0.00239 0.000721 0.001249
-0.002725 0.000549 0.000914
-0.002859 0.000527 0.000337
-0.002462 0.000689 0.001255
-0.002766 0.000575 0.001179
-0.002663 0.000499 0.00124
-0.002617 0.000517 0.001246
-0.00257 0.000536 0.001251
-0.00252 0.000556 0.001255
-0.002461 0.000581 0.001255
-0.002094 0.000723 0.001329
-0.002088 0.00072 0.001353
-0.002085 0.000717 0.001378
-0.002086 0.00071 0.001407
-0.002098 0.000698 0.001439
-0.002131 0.000676 0.001482
-0.002162 0.000655 0.001524
-0.002188 0.000636 0.001563
-0.002211 0.000619 0.0016
-0.002231 0.000604 0.001637
-0.002248 0.00059 0.001672
-0.002264 0.000576 0.001706
-0.002497 0.0007 0.000429
-0.00247 0.000708 0.000444
-0.00245 0.000713 0.000462
-0.002435 0.000716 0.000482
-0.002424 0.000716 0.000504
-0.002726 0.000748 0.000391
-0.002632 0.000623 -0.000475
-0.002409 0.000707 0.000579
-0.002412 0.0007 0.000609
-0.002903 0.000534 -0.00076
-0.002717 0.000616 0.00039
-0.002535 0.000731 0.000736
-0.002655 0.000698 0.000406
-0.002726 0.000685 0.000914
-0.002807 0.000455 0.001009
-0.002819 0.000444 0.001041
-0.002812 0.000443 0.001065
-0.002803 0.000442 0.001087
-0.002794 0.000441 0.00111
-0.002785 0.000441 0.001133
-0.002775 0.00044 0.001156
-0.002766 0.00044 0.001179
-0.002756 0.000439 0.001202
-0.002741 0.000442 0.001222
-0.002707 0.000454 0.001233
-0.002663 0.000472 0.00124
-0.002617 0.00049 0.001246
-0.002571 0.000508 0.001251
-0.00252 0.000529 0.001255
-0.002461 0.000554 0.001255
-0.002391 0.000585 0.001249
-0.002094 0.000695 0.001329
-0.002087 0.000694 0.001352
-0.002084 0.00069 0.001378
-0.002087 0.000682 0.001407
-0.002098 0.000671 0.001439
-0.002131 0.000649 0.001482
-0.002163 0.000628 0.001524
-0.002189 0.000609 0.001563
-0.002211 0.000592 0.0016
-0.002232 0.000576 0.001637
-0.002248 0.000563 0.001672
-0.002265 0.000549 0.001706
-0.002495 0.000673 0.000429
-0.00247 0.000681 0.000444
-0.00245 0.000686 0.000462
-0.002435 0.000689 0.000482
-0.002424 0.000689 0.000504
-0.002796 0.00073 -0.000596
-0.002819 0.000734 0.000356
-0.002859 0.000717 0.000337
-0.00297 0.000616 0.000279
-0.002797 0.000593 0.000999
-0.002771 0.000511 0.000374
-0.002493 0.000733 -0.000183
-0.002673 0.00055 0.000857
-0.002774 0.0007 0.000374
-0.002807 0.000428 0.001009
-0.002819 0.000417 0.001041
-0.002811 0.000416 0.001064
-0.002803 0.000415 0.001087
-0.002793 0.000414 0.00111
-0.002784 0.000414 0.001133
-0.002775 0.000413 0.001156
-0.002766 0.000413 0.001179
-0.002757 0.000412 0.001202
-0.002741 0.000415 0.001222
-0.002707 0.000427 0.001233
-0.002663 0.000444 0.00124
-0.002617 0.000462 0.001246
-0.00257 0.000481 0.001251
-0.002521 0.000501 0.001255
-0.00246 0.000527 0.001255
-0.002093 0.000668 0.001329
-0.002087 0.000666 0.001352
-0.002084 0.000662 0.001378
-0.002087 0.000655 0.001407
-0.002097 0.000644 0.001439
-0.002128 0.000623 0.001481
-0.002162 0.000601 0.001524
-0.002189 0.000582 0.001563
-0.002211 0.000565 0.0016
-0.002231 0.000549 0.001637
-0.002248 0.000536 0.001672
-0.002265 0.000522 0.001706
-0.002496 0.000646 0.000429
-0.00247 0.000654 0.000444
-0.00245 0.000659 0.000462
-0.002435 0.000662 0.000482
-0.002424 0.000662 0.000504
-0.002983 0.000696 0.000206
-0.002937 0.000684 0.000299
-0.002999 0.000638 0.000159
-0.002701 0.000699 0.000884
-0.002775 0.000523 0.000971
-0.0027 0.000563 0.000885
-0.00286 0.000663 0.000337
-0.002808 0.0004 0.00101
-0.002819 0.00039 0.001041
-0.002813 0.000388 0.001065
-0.002804 0.000387 0.001088
-0.002795 0.000386 0.001111
-0.002786 0.000386 0.001134
-0.002777 0.000385 0.001157
-0.002767 0.000385 0.00118
-0.002757 0.000384 0.001202
-0.002742 0.000387 0.001222
-0.002707 0.0004 0.001233
-0.002663 0.000417 0.00124
-0.002617 0.000435 0.001246
-0.00257 0.000454 0.001251
-0.002521 0.000474 0.001256
-0.002093 0.000641 0.001328
-0.002087 0.000639 0.001352
-0.002084 0.000635 0.001378
-0.002086 0.000628 0.001407
-0.002098 0.000617 0.00144
-0.002129 0.000596 0.001481
-0.002162 0.000573 0.001524
-0.002188 0.000555 0.001563
-0.002211 0.000538 0.001601
-0.002232 0.000522 0.001637
-0.002248 0.000508 0.001672
-0.002264 0.000495 0.001706
-0.002496 0.000619 0.000429
-0.00247 0.000627 0.000444
-0.00245 0.000632 0.000462
-0.002435 0.000634 0.000482
-0.002423 0.000635 0.000504
-0.002979 0.000697 0.00023
-0.002966 0.000672 0.000278
-0.002729 0.000738 -0.000538
-0.002672 0.000686 0.000857
-0.002858 0.000473 0.000337
-0.002997 0.000655 9.7e-05
-0.002644 0.000592 0.000828
-0.002718 0.00067 0.00039
-0.002807 0.000373 0.001011
-0.002819 0.000363 0.001041
-0.002813 0.000361 0.001065
-0.002804 0.00036 0.001088
-0.002795 0.000359 0.001111
-0.002786 0.000358 0.001134
-0.002777 0.000358 0.001157
-0.002767 0.000358 0.00118
-0.002757 0.000357 0.001202
-0.002742 0.00036 0.001222
-0.002707 0.000373 0.001233
-0.002663 0.00039 0.00124
-0.002617 0.000408 0.001246
-0.00257 0.000427 0.001251
-0.002522 0.000446 0.001256
-0.002103 0.000614 0.001306
-0.002093 0.000614 0.001328
-0.002087 0.000612 0.001352
-0.002084 0.000608 0.001378
-0.002085 0.000602 0.001406
-0.002098 0.00059 0.001439
-0.00213 0.000568 0.001481
-0.002163 0.000546 0.001524
-0.002189 0.000527 0.001563
-0.002212 0.00051 0.001601
-0.002232 0.000495 0.001637
-0.002249 0.000481 0.001672
-0.002266 0.000468 0.001706
-0.002495 0.000592 0.000429
-0.002469 0.0006 0.000444
-0.00245 0.000605 0.000462
-0.002434 0.000607 0.000482
-0.002423 0.000608 0.000504
-0.002773 0.000747 -7.1e-05
-0.003 0.00061 0.000159
-0.003001 0.000557 0.000134
-0.002699 0.000645 0.000886
-0.002818 0.000491 0.000356
-0.002536 0.000594 0.000737
-0.002993 0.000655 7.3e-05
-0.002673 0.000577 0.000857
-0.00297 0.000534 0.000279
-0.002807 0.000346 0.001011
-0.002819 0.000335 0.001041
-0.002812 0.000334 0.001065
-0.002803 0.000333 0.001088
-0.002794 0.000333 0.001111
-0.002785 0.000332 0.001133
-0.002775 0.000331 0.001156
-0.002766 0.000331 0.001179
-0.002757 0.00033 0.001202
-0.002742 0.000333 0.001222
-0.002707 0.000345 0.001233
-0.002662 0.000363 0.00124
-0.002618 0.000381 0.001246
-0.00257 0.0004 0.001251
-0.002521 0.00042 0.001256
-0.002103 0.000587 0.001306
-0.002093 0.000587 0.001328
-0.002086 0.000585 0.001352
-0.002084 0.000581 0.001378
-0.002086 0.000574 0.001407
-0.002098 0.000563 0.001439
-0.002163 0.000519 0.001524
-0.00219 0.0005 0.001564
-0.002211 0.000483 0.001601
-0.002231 0.000468 0.001637
-0.002247 0.000454 0.001672
-0.002264 0.000441 0.001706
-0.002495 0.000565 0.000429
-0.002469 0.000573 0.000444
-0.002449 0.000578 0.000462
-0.002434 0.000581 0.000482
-0.002423 0.000581 0.000504
-0.002932 0.000714 0.000298
-0.003001 0.000612 0.000134
-0.002997 0.000554 0.000208
-0.002414 0.000686 0.000618
-0.002751 0.000508 0.000943
-0.002726 0.000522 0.000914
-0.002673 0.000605 0.000857
-0.002807 0.000319 0.00101
-0.002819 0.000308 0.001041
-0.002811 0.000307 0.001064
-0.002802 0.000306 0.001087
-0.002793 0.000306 0.00111
-0.002784 0.000305 0.001133
-0.002775 0.000305 0.001156
-0.002765 0.000304 0.001179
-0.002756 0.000304 0.001202
-0.002741 0.000306 0.001222
-0.002706 0.000319 0.001233
-0.002663 0.000335 0.00124
-0.002618 0.000353 0.001246
-0.00257 0.000372 0.001251
-0.002522 0.000392 0.001256
-0.002103 0.00056 0.001306
-0.002093 0.00056 0.001328
-0.002086 0.000558 0.001352
-0.002084 0.000554 0.001378
-0.002086 0.000547 0.001407
-0.002098 0.000535 0.00144
-0.00213 0.000514 0.001482
-0.002164 0.000491 0.001524
-0.00219 0.000473 0.001563
-0.002211 0.000456 0.001601
-0.002231 0.000441 0.001637
-0.002248 0.000427 0.001672
-0.002264 0.000413 0.001706
-0.002494 0.000538 0.000428
-0.002469 0.000546 0.000444
-0.002449 0.000551 0.000462
-0.002433 0.000554 0.000482
-0.002423 0.000553 0.000504
