-0.002408 0.000493 0.000693
-0.002442 0.000475 0.000723
-0.002491 0.000451 0.000755
-0.002536 0.000428 0.000787
-0.002574 0.000408 0.000817
-0.002605 0.000392 0.000847
-0.002635 0.000376 0.000876
-0.002666 0.00036 0.000906
-0.002691 0.000346 0.000935
-0.002715 0.000333 0.000963
-0.002738 0.000321 0.000991
-0.002762 0.000309 0.001019
-0.002456 0.000696 -0.000178
-0.002738 0.000572 -0.000514
-0.002824 0.000619 -3e-06
-0.002911 0.000616 -0.000711
-0.002659 0.000744 -8.1e-05
-0.002598 0.000609 -9.7e-05
-0.002438 0.0007 -0.00025
-0.002437 0.000699 -0.000274
-0.002437 0.000672 -0.000274
-0.002641 0.000597 -0.000925
-0.002908 0.000534 -0.000736
-0.00298 0.000691 0.000124
-0.002997 0.000229 0.000184
-0.002995 0.000229 0.000208
-0.002994 0.000228 0.000233
-0.002992 0.000227 0.000258
-0.002988 0.000227 0.000282
-0.002973 0.000232 0.000305
-0.00294 0.000246 0.000324
-0.002902 0.000262 0.000344
-0.002864 0.000279 0.000363
-0.002822 0.000296 0.000381
-0.002777 0.000316 0.0004
-0.002655 0.00037 0.000431
-0.002583 0.000402 0.000445
-0.002387 0.000485 0.000565
-0.002382 0.000485 0.000589
-0.002381 0.000484 0.000614
-0.002383 0.000481 0.000639
-0.002392 0.000475 0.000665
-0.002408 0.000466 0.000693
-0.002442 0.000448 0.000723
-0.00249 0.000424 0.000755
-0.002536 0.0004 0.000787
-0.002574 0.000381 0.000817
-0.002606 0.000364 0.000847
-0.002636 0.000348 0.000876
-0.002668 0.000331 0.000906
-0.002691 0.000319 0.000935
-0.002716 0.000306 0.000963
-0.002742 0.000292 0.000992
-0.002764 0.000281 0.001017
-0.002447 0.000699 -0.000201
-0.002746 0.00068 -4.3e-05
-0.00291 0.000618 -0.000686
-0.00238 0.000741 -0.001322
-0.002643 0.000729 -0.000451
-0.002657 0.000555 -8e-05
-0.002704 0.000535 -6.2e-05
-0.002489 0.000656 -0.001667
-0.002471 0.000664 -0.000155
-0.002442 0.000533 -0.001736
-0.002902 0.000535 -0.00076
-0.002998 0.000203 0.000159
-0.002997 0.000202 0.000184
-0.002996 0.000201 0.000208
-0.002995 0.0002 0.000233
-0.002992 0.0002 0.000258
-0.002987 0.0002 0.000282
-0.002972 0.000205 0.000305
-0.00294 0.000219 0.000325
-0.002902 0.000235 0.000344
-0.002864 0.000251 0.000363
-0.002821 0.00027 0.000381
-0.002776 0.000289 0.000399
-0.002721 0.000313 0.000416
-0.002654 0.000343 0.000431
-0.002387 0.000458 0.000565
-0.002382 0.000458 0.000589
-0.00238 0.000457 0.000614
-0.002383 0.000454 0.000639
-0.002392 0.000448 0.000665
-0.002407 0.000439 0.000692
-0.002442 0.000421 0.000723
-0.00249 0.000397 0.000755
-0.002537 0.000373 0.000787
-0.002574 0.000354 0.000817
-0.002607 0.000336 0.000847
-0.002636 0.000321 0.000877
-0.002666 0.000305 0.000906
-0.002691 0.000292 0.000935
-0.002716 0.000279 0.000963
-0.002741 0.000266 0.000991
-0.002895 0.000482 -0.000784
-0.002902 0.000562 -0.00076
-0.002682 0.000744 -0.000917
-0.002493 0.000631 -0.001507
-0.002895 0.000564 -0.000784
-0.002915 0.000396 -0.000712
-0.002523 0.000551 -0.001574
-0.00249 0.000547 -0.001667
-0.002841 0.000716 -0.000853
-0.002738 0.000627 -0.000514
-0.002913 0.000588 -0.000712
-0.002998 0.000176 0.000159
-0.002997 0.000175 0.000184
-0.002996 0.000174 0.000208
-0.002994 0.000173 0.000233
-0.002991 0.000173 0.000258
-0.002986 0.000174 0.000282
-0.002971 0.000179 0.000304
-0.00294 0.000192 0.000325
-0.002901 0.000208 0.000344
-0.002864 0.000224 0.000363
-0.002822 0.000242 0.000381
-0.002777 0.000261 0.0004
-0.002721 0.000286 0.000416
-0.002656 0.000315 0.000431
-0.002387 0.00043 0.000565
-0.002382 0.000431 0.000589
-0.00238 0.00043 0.000614
-0.002383 0.000427 0.000639
-0.002391 0.000421 0.000665
-0.002407 0.000412 0.000692
-0.002443 0.000394 0.000723
-0.002491 0.000369 0.000755
-0.002535 0.000347 0.000787
-0.002575 0.000326 0.000817
-0.002607 0.000309 0.000847
-0.002638 0.000293 0.000877
-0.002667 0.000277 0.000906
-0.002693 0.000264 0.000935
-0.002716 0.000252 0.000963
-0.00274 0.000239 0.00099
-0.002764 0.000227 0.001017
-0.002902 0.000481 -0.00076
-0.002843 0.000574 -0.000881
-0.002894 0.000627 -0.000658
-0.002867 0.000641 -0.000631
-0.002912 0.000535 -0.000687
-0.002909 0.000397 -0.000736
-0.002913 0.000426 -0.000687
-0.002521 0.000655 -0.0016
-0.002911 0.00059 -0.000686
-0.002527 0.000543 -0.001603
-0.002997 0.00015 0.000159
-0.002996 0.000148 0.000184
-0.002995 0.000147 0.000208
-0.002993 0.000146 0.000233
-0.002989 0.000147 0.000257
-0.002983 0.000148 0.000281
-0.00297 0.000152 0.000304
-0.002939 0.000165 0.000325
-0.002901 0.000181 0.000344
-0.002864 0.000197 0.000363
-0.002821 0.000215 0.000381
-0.002777 0.000234 0.0004
-0.002721 0.000259 0.000416
-0.002659 0.000287 0.000432
-0.002589 0.000318 0.000446
-0.002387 0.000403 0.000565
-0.002382 0.000404 0.000589
-0.002381 0.000403 0.000614
-0.002383 0.000399 0.000639
-0.002391 0.000394 0.000665
-0.002408 0.000384 0.000693
-0.002443 0.000366 0.000723
-0.002491 0.000342 0.000755
-0.002535 0.000319 0.000787
-0.002573 0.0003 0.000817
-0.002607 0.000282 0.000847
-0.002636 0.000267 0.000877
-0.002666 0.000251 0.000906
-0.002692 0.000237 0.000935
-0.002716 0.000224 0.000963
-0.00274 0.000212 0.00099
-0.002437 0.000646 -0.000249
-0.002893 0.000617 3.7e-05
-0.002839 0.000656 -0.000602
-0.002956 0.000645 7.8e-05
-0.002914 0.000533 -0.000712
-0.002441 0.000701 -0.000225
-0.002472 0.000678 -0.000354
-0.002839 0.000602 -0.000602
-0.002725 0.000727 -0.000909
-0.002993 0.000124 0.000158
-0.002993 0.000123 0.000183
-0.002992 0.000121 0.000208
-0.00299 0.000121 0.000232
-0.002985 0.000121 0.000257
-0.002979 0.000122 0.000281
-0.002968 0.000126 0.000304
-0.002939 0.000138 0.000324
-0.002902 0.000154 0.000344
-0.002863 0.00017 0.000363
-0.002822 0.000188 0.000382
-0.002776 0.000208 0.000399
-0.00272 0.000232 0.000416
-0.002387 0.000376 0.000565
-0.002382 0.000377 0.000589
-0.002381 0.000375 0.000614
-0.002383 0.000372 0.000639
-0.002391 0.000367 0.000665
-0.002407 0.000358 0.000693
-0.002443 0.000339 0.000723
-0.002491 0.000315 0.000755
-0.002535 0.000292 0.000787
-0.002574 0.000272 0.000817
-0.002607 0.000255 0.000847
-0.002636 0.00024 0.000877
-0.002666 0.000224 0.000906
-0.002691 0.00021 0.000935
-0.002715 0.000197 0.000963
-0.002738 0.000185 0.000991
-0.002762 0.000173 0.001018
-0.002523 0.000578 -0.001574
-0.002925 0.000603 5.7e-05
-0.002925 0.000658 5.7e-05
-0.002997 0.000631 0.000147
-0.002654 0.000693 -8e-05
-0.002493 0.000628 -0.000133
-0.002824 0.00051 -3e-06
-0.002437 0.000726 -0.000274
-0.002997 0.000575 0.000122
-0.002908 0.000644 -0.000711
-0.002987 0.0001 0.000158
-0.002987 9.8e-05 0.000182
-0.002986 9.7e-05 0.000207
-0.002983 9.7e-05 0.000232
-0.002979 9.7e-05 0.000256
-0.002973 9.8e-05 0.00028
-0.002963 0.000101 0.000303
-0.002939 0.000111 0.000325
-0.002901 0.000127 0.000344
-0.002864 0.000143 0.000363
-0.002821 0.000161 0.000381
-0.002775 0.000181 0.000399
-0.002722 0.000205 0.000416
-0.002387 0.000349 0.000565
-0.002382 0.000349 0.000589
-0.00238 0.000348 0.000614
-0.002383 0.000345 0.000639
-0.002391 0.00034 0.000665
-0.002407 0.00033 0.000693
-0.002443 0.000312 0.000723
-0.002492 0.000287 0.000755
-0.002535 0.000265 0.000787
-0.002575 0.000245 0.000818
-0.002607 0.000228 0.000847
-0.002636 0.000212 0.000877
-0.002666 0.000196 0.000906
-0.00269 0.000183 0.000935
-0.002716 0.00017 0.000963
-0.002738 0.000158 0.000992
-0.00276 0.000145 0.00102
-0.002471 0.000733 -0.000354
-0.002984 0.000579 9.9e-05
-0.002993 0.00063 0.000123
-0.002377 0.000715 -0.00132
-0.002643 0.000674 -0.000451
-0.002737 0.000491 -0.000514
-0.002859 0.000523 1.7e-05
-0.002885 0.000622 -0.000818
-0.002482 0.000686 -0.001664
-0.002976 8e-05 0.000131
-0.002978 7.7e-05 0.000156
-0.002978 7.5e-05 0.000181
-0.002977 7.4e-05 0.000206
-0.002974 7.4e-05 0.00023
-0.00297 7.4e-05 0.000254
-0.002964 7.5e-05 0.000278
-0.002955 7.8e-05 0.000302
-0.002936 8.5e-05 0.000324
-0.002901 0.0001 0.000344
-0.002864 0.000115 0.000363
-0.00282 0.000134 0.000381
-0.002776 0.000154 0.0004
-0.002719 0.000178 0.000416
-0.002654 0.000207 0.000431
-0.002586 0.000238 0.000446
-0.002387 0.000322 0.000565
-0.002382 0.000322 0.000589
-0.00238 0.000321 0.000614
-0.002383 0.000318 0.000639
-0.002391 0.000312 0.000665
-0.002407 0.000303 0.000693
-0.002442 0.000285 0.000723
-0.002492 0.00026 0.000755
-0.002536 0.000238 0.000787
-0.002574 0.000218 0.000817
-0.002607 0.000201 0.000847
-0.002636 0.000185 0.000877
-0.002666 0.000169 0.000906
-0.002691 0.000156 0.000935
-0.002715 0.000143 0.000963
-0.002737 0.000131 0.000992
-0.00276 0.000118 0.00102
-0.002441 0.000751 -0.000275
-0.002703 0.000698 -6.2e-05
-0.001055 0.000665 -0.00261
-0.002279 0.000745 -0.000953
-0.002984 0.000552 9.9e-05
-0.002903 0.000426 -0.00076
-0.002737 0.000545 -0.000514
-0.002518 0.00069 -0.001571
-0.002983 0.000691 0.000149
-0.002965 5.8e-05 0.000129
-0.002966 5.6e-05 0.000154
-0.002966 5.4e-05 0.000179
-0.002964 5.3e-05 0.000204
-0.002961 5.3e-05 0.000228
-0.002957 5.3e-05 0.000253
-0.002952 5.4e-05 0.000277
-0.002944 5.6e-05 0.0003
-0.00293 6.1e-05 0.000323
-0.0029 7.3e-05 0.000344
-0.002864 8.8e-05 0.000363
-0.00282 0.000107 0.000381
-0.002775 0.000127 0.000399
-0.002718 0.000152 0.000416
-0.002652 0.000181 0.000431
-0.002587 0.00021 0.000446
-0.002387 0.000295 0.000565
-0.002382 0.000295 0.000589
-0.002381 0.000294 0.000614
-0.002383 0.000291 0.000639
-0.002391 0.000285 0.000665
-0.002407 0.000276 0.000693
-0.002444 0.000257 0.000723
-0.002492 0.000233 0.000755
-0.002537 0.00021 0.000787
-0.002573 0.000191 0.000817
-0.002608 0.000173 0.000848
-0.002637 0.000158 0.000877
-0.002666 0.000142 0.000906
-0.00269 0.000129 0.000935
-0.002715 0.000116 0.000963
-0.002737 0.000103 0.000992
-0.00276 9.1e-05 0.00102
-0.002824 0.000592 -4e-06
-0.002956 0.00059 7.8e-05
-0.002867 0.000614 -0.00063
-0.002894 0.0006 -0.000659
-0.002956 0.000563 7.8e-05
-0.002837 0.000493 -0.000602
-0.002893 0.000536 3.7e-05
-0.002925 0.000631 5.7e-05
-0.002811 0.000725 -0.000574
-0.00295 3.8e-05 0.000127
-0.00295 3.6e-05 0.000152
-0.00295 3.4e-05 0.000177
-0.002948 3.3e-05 0.000201
-0.002945 3.3e-05 0.000226
-0.002941 3.3e-05 0.00025
-0.002936 3.4e-05 0.000274
-0.002929 3.6e-05 0.000298
-0.002917 3.9e-05 0.000321
-0.002897 4.7e-05 0.000343
-0.002863 6.2e-05 0.000363
-0.00282 8e-05 0.000381
-0.002777 9.8e-05 0.0004
-0.002653 0.000154 0.000431
-0.002587 0.000183 0.000446
-0.002387 0.000267 0.000565
-0.002382 0.000268 0.000589
-0.00238 0.000267 0.000614
-0.002383 0.000264 0.000639
-0.002391 0.000258 0.000665
-0.002408 0.000249 0.000693
-0.002443 0.00023 0.000723
-0.002492 0.000206 0.000755
-0.002536 0.000183 0.000787
-0.002574 0.000164 0.000818
-0.002607 0.000146 0.000847
-0.002637 0.000131 0.000877
-0.002666 0.000115 0.000906
-0.00269 0.000102 0.000935
-0.002715 8.9e-05 0.000963
-0.002737 7.6e-05 0.000991
-0.002759 6.5e-05 0.001019
-0.002456 0.000669 -0.000177
-0.002787 0.000662 -2.3e-05
-0.002908 0.000588 -0.000736
-0.002902 0.000589 -0.00076
-0.002746 0.000652 -4.3e-05
-0.002747 0.000598 -4.3e-05
-0.002017 -2.6e-05 0.000584
-0.002984 0.000524 9.9e-05
-0.002904 0.000628 -0.000746
-0.002928 2.3e-05 9.9e-05
-0.00293 2e-05 0.000124
-0.00293 1.8e-05 0.000149
-0.002929 1.7e-05 0.000174
-0.002926 1.6e-05 0.000198
-0.002924 1.6e-05 0.000223
-0.00292 1.6e-05 0.000247
-0.002915 1.7e-05 0.000271
-0.002909 1.8e-05 0.000295
-0.002899 2.1e-05 0.000319
-0.002884 2.6e-05 0.000341
-0.002859 3.6e-05 0.000362
-0.00282 5.3e-05 0.000381
-0.002777 7.2e-05 0.0004
-0.002652 0.000127 0.000431
-0.002586 0.000156 0.000446
-0.002387 0.00024 0.000565
-0.002382 0.000241 0.000589
-0.002381 0.00024 0.000614
-0.002383 0.000237 0.000639
-0.002392 0.000231 0.000665
-0.002408 0.000221 0.000693
-0.002443 0.000203 0.000723
-0.002493 0.000178 0.000755
-0.002537 0.000156 0.000787
-0.002574 0.000136 0.000818
-0.002607 0.000119 0.000847
-0.002636 0.000104 0.000877
-0.002665 8.8e-05 0.000906
-0.002689 7.5e-05 0.000935
-0.002715 6.1e-05 0.000963
-0.002736 5e-05 0.000991
-0.002456 0.000615 -0.001716
-0.002859 0.000631 1.7e-05
-0.002859 0.000686 1.7e-05
-0.002893 0.000671 3.7e-05
-0.002597 0.000718 -9.7e-05
-0.002436 0.000729 -0.001401
-0.002022 -2.7e-05 0.00056
-0.002859 0.000577 1.7e-05
-0.002767 0.000711 -0.000901
-0.002898 1.3e-05 7e-05
-0.002901 9e-06 9.5e-05
-0.0029 7e-06 0.000119
-0.002898 6e-06 0.000144
-0.002896 5e-06 0.000169
-0.002892 6e-06 0.000193
-0.002888 6e-06 0.000217
-0.002885 5e-06 0.000242
-0.002882 5e-06 0.000266
-0.002877 6e-06 0.00029
-0.00287 7e-06 0.000314
-0.00286 1e-05 0.000338
-0.002844 1.6e-05 0.00036
-0.002816 2.7e-05 0.000381
-0.002589 0.000128 0.000446
-0.002386 0.000213 0.000565
-0.002382 0.000214 0.000589
-0.00238 0.000213 0.000614
-0.002383 0.000209 0.000639
-0.002392 0.000204 0.000665
-0.002408 0.000194 0.000693
-0.002443 0.000176 0.000723
-0.002536 0.000129 0.000787
-0.002575 0.000108 0.000818
-0.002607 9.2e-05 0.000847
-0.002637 7.6e-05 0.000877
-0.002665 6.1e-05 0.000906
-0.002689 4.8e-05 0.000935
-0.002711 3.6e-05 0.000963
-0.002727 2.7e-05 0.00099
-0.002896 0.000427 -0.000784
-0.002654 0.00072 -8e-05
-0.002823 0.000701 -3e-06
-0.002786 0.000717 -2.3e-05
-0.002584 0.000703 -0.000419
-0.002655 0.000665 -8e-05
-0.002892 0.000563 3.7e-05
-0.002989 0.00066 0.000123
-0.002806 0.000587 -0.000891
-0.002859 3e-06 6.3e-05
-0.002857 2e-06 8.8e-05
-0.002855 1e-06 0.000113
-0.002852 1e-06 0.000137
-0.002849 0.0 0.000162
-0.002845 0.0 0.000186
-0.002841 0.0 0.00021
-0.002838 0.0 0.000235
-0.002836 -0.0 0.000259
-0.002833 -1e-06 0.000284
-0.002827 1e-06 0.000308
-0.002822 1e-06 0.000332
-0.002813 3e-06 0.000355
-0.002797 9e-06 0.000378
-0.002766 2.3e-05 0.000398
-0.002028 -2.7e-05 0.000536
-0.002032 -2.8e-05 0.000512
-0.002386 0.000186 0.000565
-0.002382 0.000186 0.000589
-0.00238 0.000185 0.000614
-0.002383 0.000182 0.000639
-0.002391 0.000176 0.000665
-0.002408 0.000167 0.000693
-0.002443 0.000149 0.000723
-0.002491 0.000124 0.000755
-0.002537 0.000101 0.000787
-0.002574 8.2e-05 0.000818
-0.002607 6.5e-05 0.000847
-0.002637 4.9e-05 0.000877
-0.002664 3.5e-05 0.000905
-0.002684 2.3e-05 0.000933
-0.002699 1.4e-05 0.000961
-0.002956 0.000509 7.7e-05
-0.002601 0.000743 -9.8e-05
-0.00266 0.000747 -0.000454
-0.002691 0.000731 -0.000483
-0.002786 0.000635 -2.3e-05
-0.002775 0.000526 -0.000544
-0.002913 0.00048 -0.000687
-0.002925 0.000522 5.7e-05
-0.002969 0.000725 0.000151
-0.00281 -1e-06 5.6e-05
-0.002807 -2e-06 8e-05
-0.002802 -2e-06 0.000105
-0.002797 -1e-06 0.000129
-0.002795 -2e-06 0.000153
-0.002789 -1e-06 0.000177
-0.002747 0.000543 -4.3e-05
-0.00278 0.0 0.000226
-0.002777 0.0 0.00025
-0.00277 0.0 0.000299
-0.002765 1e-06 0.000323
-0.002764 -0.0 0.000348
-0.002758 1e-06 0.000372
-0.002742 7e-06 0.000395
-0.002714 1.8e-05 0.000415
-0.002386 0.000159 0.000565
-0.002381 0.000159 0.000589
-0.00238 0.000158 0.000614
-0.002382 0.000155 0.000639
-0.002391 0.000149 0.000665
-0.002407 0.00014 0.000693
-0.002444 0.000121 0.000723
-0.002492 9.7e-05 0.000755
-0.002535 7.5e-05 0.000787
-0.002572 5.6e-05 0.000817
-0.002605 3.9e-05 0.000847
-0.002633 2.4e-05 0.000876
-0.002666 2e-06 0.000981
-0.00266 2e-06 0.001005
-0.002766 0.000657 -0.000901
-0.002739 0.000653 -0.000514
-0.002747 0.000733 -4.6e-05
-0.002739 0.000707 -0.000514
-0.002893 0.000545 -0.000659
-0.002704 0.000589 -6.2e-05
-0.002747 0.00057 -4.3e-05
-0.002598 0.000582 -9.7e-05
-0.002534 0.00061 -0.000113
-0.002755 -1e-06 2.3e-05
-0.002747 1e-06 4.6e-05
-0.002744 1e-06 7.1e-05
-0.002738 1e-06 9.5e-05
-0.002735 1e-06 0.00012
-0.002595 0.000724 -0.000932
-0.002712 4e-06 0.000241
-0.002711 3e-06 0.000265
-0.002706 3e-06 0.000289
-0.002702 3e-06 0.000314
-0.002699 3e-06 0.000338
-0.002693 2e-06 0.000387
-0.002683 5e-06 0.000411
-0.002385 0.000132 0.000565
-0.002381 0.000132 0.000589
-0.00238 0.000131 0.000614
-0.002382 0.000128 0.000639
-0.002391 0.000122 0.000665
-0.002407 0.000113 0.000693
-0.002441 9.5e-05 0.000723
-0.002493 6.9e-05 0.000756
-0.002535 4.8e-05 0.000787
-0.002572 2.8e-05 0.000817
-0.002599 1.4e-05 0.000846
-0.002608 3e-06 0.000947
-0.002605 3e-06 0.000972
-0.002602 2e-06 0.000996
-0.002598 0.00069 -9.7e-05
-0.002587 0.000729 -0.000419
-0.002776 0.000688 -0.000544
-0.002809 0.000671 -0.000573
-0.002908 0.000561 -0.000736
-0.002446 0.000645 -0.000201
-0.002685 0.000661 -0.000918
-0.002999 0.000438 0.000122
-0.002694 1e-06 -1.2e-05
-0.002691 2e-06 1.3e-05
-0.002688 1e-06 3.8e-05
-0.002686 1e-06 6.2e-05
-0.002682 1e-06 8.6e-05
-0.002679 0.0 0.000111
-0.003 0.000493 0.000147
-0.002673 -1e-06 0.00016
-0.002671 -1e-06 0.000184
-0.002668 -1e-06 0.000209
-0.002663 -1e-06 0.000233
-0.00266 -1e-06 0.000258
-0.002657 -1e-06 0.000282
-0.002654 -1e-06 0.000306
-0.00265 -1e-06 0.000331
-0.002646 -1e-06 0.000355
-0.002643 -1e-06 0.00038
-0.002641 -2e-06 0.000404
-0.002628 2e-06 0.000427
-0.002385 0.000105 0.000565
-0.002381 0.000105 0.000589
-0.00238 0.000104 0.000614
-0.002383 0.000101 0.000639
-0.002391 9.5e-05 0.000665
-0.002406 8.6e-05 0.000693
-0.002441 6.8e-05 0.000723
-0.002491 4.3e-05 0.000755
-0.002538 1.9e-05 0.000787
-0.002561 7e-06 0.000816
-0.002563 3e-06 0.000841
-0.002552 4e-06 0.000914
-0.002545 5e-06 0.000938
-0.002539 7e-06 0.000962
-0.002535 6e-06 0.000986
-0.00244 0.000646 -0.000225
-0.002838 0.000574 -0.000602
-0.002468 0.000689 -0.001684
-0.002992 0.00066 0.000148
-0.002691 0.000704 -0.000483
-0.002852 0.000715 -0.000831
-0.002656 -4e-06 -6.7e-05
-0.002657 -6e-06 -4.2e-05
-0.002653 -6e-06 -1.7e-05
-0.002441 0.000641 -0.0003
-0.002985 0.00047 9.9e-05
-0.002727 0.000563 -0.00091
-0.002638 -5e-06 8e-05
-0.002634 -5e-06 0.000104
-0.002632 -6e-06 0.000129
-0.002627 -5e-06 0.000153
-0.002623 -5e-06 0.000177
-0.002619 -5e-06 0.000202
-0.002615 -5e-06 0.000226
-0.002612 -5e-06 0.00025
-0.002607 -5e-06 0.000275
-0.002605 -6e-06 0.000299
-0.002602 -6e-06 0.000324
-0.002597 -5e-06 0.000348
-0.002595 -6e-06 0.000372
-0.00259 -5e-06 0.000397
-0.002584 -4e-06 0.00042
-0.00257 1e-06 0.000443
-0.002385 7.8e-05 0.000565
-0.002381 7.8e-05 0.000589
-0.00238 7.7e-05 0.000614
-0.002382 7.4e-05 0.000639
-0.002391 6.8e-05 0.000665
-0.002406 5.9e-05 0.000693
-0.002438 4.3e-05 0.000722
-0.002521 -0.0 0.000785
-0.002525 -4e-06 0.00081
-0.002521 -3e-06 0.000835
-0.00251 -2e-06 0.000883
-0.002505 -1e-06 0.000907
-0.0025 -0.0 0.000931
-0.002495 0.0 0.000955
-0.002893 0.00041 -0.000659
-0.002824 0.000646 -4e-06
-0.002518 0.000516 -0.001626
-0.002839 0.000683 -0.000602
-0.002806 0.000669 -0.000891
-0.002806 0.000614 -0.000891
-0.002597 -2e-06 -0.000101
-0.0026 -4e-06 -7.5e-05
-0.002597 -5e-06 -5.1e-05
-0.00259 -3e-06 -2.7e-05
-0.002543 0.000663 -0.000936
-0.002913 0.000453 -0.000687
-0.002575 -3e-06 7e-05
-0.002572 -3e-06 9.5e-05
-0.002568 -3e-06 0.000119
-0.002565 -3e-06 0.000144
-0.00256 -3e-06 0.000168
-0.002555 -3e-06 0.000192
-0.002964 0.000726 0.000127
-0.002552 -4e-06 0.000241
-0.002544 -2e-06 0.000265
-0.002541 -2e-06 0.000289
-0.002538 -3e-06 0.000314
-0.002535 -3e-06 0.000338
-0.00253 -3e-06 0.000363
-0.002525 -2e-06 0.000387
-0.002524 -3e-06 0.000411
-0.002518 -2e-06 0.000436
-0.00238 5e-05 0.000614
-0.002382 4.7e-05 0.000639
-0.002391 4.1e-05 0.000665
-0.002405 3.3e-05 0.000692
-0.002036 -2.8e-05 0.000487
-0.00247 -3e-06 0.000777
-0.002468 -4e-06 0.000802
-0.002461 -3e-06 0.000826
-0.002459 -3e-06 0.00085
-0.002908 0.000479 -0.000736
-0.002642 0.000702 -0.000451
-0.002868 0.000668 -0.000631
-0.002839 0.00071 -0.000602
-0.002446 4.7e-05 -0.000197
-0.002494 0.000736 -0.000133
-0.00249 2.2e-05 -0.000139
-0.002547 -5e-06 -0.000108
-0.002542 -4e-06 -8.4e-05
-0.002529 -0.0 -6.1e-05
-0.00252 1e-06 -1.3e-05
-0.002504 0.000545 -0.001647
-0.002448 0.000753 -0.000201
-0.002737 0.000736 -0.000514
-0.002506 1e-06 8.5e-05
-0.0025 2e-06 0.000109
-0.002496 2e-06 0.000133
-0.002492 2e-06 0.000158
-0.002488 2e-06 0.000182
-0.002914 0.000505 -0.000712
-0.002477 2e-06 0.000255
-0.002474 2e-06 0.000279
-0.00247 2e-06 0.000304
-0.002452 2e-06 0.000426
-0.00245 1e-06 0.00045
-0.002381 2e-05 0.000639
-0.002389 1.5e-05 0.000665
-0.002402 7e-06 0.000692
-0.002391 1e-06 0.00084
-0.002389 1e-06 0.000865
-0.002385 -1e-06 0.000914
-0.002382 -1e-06 0.000938
-0.002377 -1e-06 0.000962
-0.002893 0.000437 -0.000659
-0.002738 0.000681 -0.000514
-0.002435 2.9e-05 -0.00025
-0.002439 2.5e-05 -0.000224
-0.002447 2e-05 -0.000198
-0.002459 1.3e-05 -0.00017
-0.00248 1e-06 -0.000143
-0.002472 -0.0 -7e-05
-0.002468 -0.0 -4.5e-05
-0.002467 -2e-06 -2.1e-05
-0.002465 -2e-06 4e-06
-0.002841 0.000656 -0.00088
-0.002861 0.000651 -0.000862
-0.002902 0.000674 -0.00071
-0.002453 -3e-06 0.000102
-0.002449 -3e-06 0.000126
-0.002446 -3e-06 0.000151
-0.002443 -4e-06 0.000175
-0.002859 0.00055 1.7e-05
-0.002437 -4e-06 0.000224
-0.002434 -5e-06 0.000248
-0.002431 -5e-06 0.000273
-0.002428 -5e-06 0.000297
-0.002424 -5e-06 0.000322
-0.002421 -5e-06 0.000346
-0.002417 -5e-06 0.00037
-0.002413 -6e-06 0.000395
-0.00241 -5e-06 0.000419
-0.002405 -5e-06 0.000443
-0.002369 -3e-06 0.000637
-0.002365 -1e-06 0.000662
-0.002362 -2e-06 0.000686
-0.002355 -0.0 0.00071
-0.002352 -0.0 0.000734
-0.002347 -0.0 0.000759
-0.002343 0.0 0.000783
-0.002337 2e-06 0.000807
-0.002332 2e-06 0.000831
-0.002328 3e-06 0.000855
-0.00232 3e-06 0.000904
-0.002313 4e-06 0.000928
-0.00231 4e-06 0.000952
-0.002307 4e-06 0.000977
-0.002452 0.000716 -0.000326
-0.00249 0.000519 -0.001667
-0.002435 2e-06 -0.00025
-0.002437 -1e-06 -0.000225
-0.00244 -4e-06 -0.000199
-0.002441 -6e-06 -0.000174
-0.002439 -7e-06 -0.000149
-0.00247 0.000706 -0.000353
-0.002585 0.000648 -0.000419
-0.002925 0.000549 5.7e-05
-0.00243 -9e-06 -5.1e-05
-0.002428 -1e-05 -2.6e-05
-0.002426 -1.1e-05 -2e-06
-0.002423 -1.1e-05 2.3e-05
-0.002495 0.000685 -0.001643
-0.002493 0.000655 -0.000133
-0.002452 0.000662 -0.000326
-0.002494 0.000682 -0.000133
-0.002405 -1.1e-05 0.000144
-0.002401 -1.1e-05 0.000169
-0.002397 -1.1e-05 0.000193
-0.002392 -1e-05 0.000217
-0.002388 -1e-05 0.000241
-0.002386 -1.1e-05 0.000266
-0.002382 -1.1e-05 0.00029
-0.002378 -1.1e-05 0.000315
-0.002369 -1e-05 0.000363
-0.002366 -1e-05 0.000388
-0.002362 -1e-05 0.000412
-0.002357 -1e-05 0.000436
-0.002327 -1.1e-05 0.000656
-0.002323 -1e-05 0.00068
-0.00232 -1e-05 0.000705
-0.002314 -1e-05 0.000729
-0.002309 -9e-06 0.000753
-0.002304 -8e-06 0.000777
-0.002299 -8e-06 0.000801
-0.002294 -7e-06 0.000825
-0.002288 -6e-06 0.000849
-0.002277 -4e-06 0.000897
-0.002272 -3e-06 0.000922
-0.002265 -2e-06 0.000945
-0.00226 -1e-06 0.00097
-0.002435 0.000594 -0.0014
-0.002894 0.000654 -0.000658
-0.002406 -1.1e-05 -0.000254
-0.002404 -1.3e-05 -0.000229
-0.002402 -1.3e-05 -0.000205
-0.002397 -1.3e-05 -0.000181
-0.002392 -1.2e-05 -0.000156
-0.002956 0.000427 7.8e-05
-0.00264 0.000621 -0.000451
-0.002806 0.000642 -0.000891
-0.002262 0.000735 -0.001188
-0.002437 0.000673 -0.00025
-0.002824 0.000565 -3e-06
-0.002362 -1e-05 1.3e-05
-0.002358 -9e-06 3.8e-05
-0.002355 -1e-05 6.2e-05
-0.002655 0.000611 -8e-05
-0.002531 0.000666 -0.000113
-0.002787 0.000499 -2.3e-05
-0.002837 0.000439 -0.000602
-0.002329 -8e-06 0.000208
-0.002324 -7e-06 0.000232
-0.002767 0.000602 -0.000901
-0.002311 -6e-06 0.000305
-0.002277 -9e-06 0.000574
-0.002273 -9e-06 0.000598
-0.002265 -8e-06 0.000647
-0.002262 -9e-06 0.000671
-0.00226 -9e-06 0.000696
-0.002254 -9e-06 0.00072
-0.002248 -9e-06 0.000769
-0.002245 -9e-06 0.000793
-0.002228 -9e-06 0.000915
-0.002223 -8e-06 0.000939
-0.002386 0.000755 -0.000947
-0.002349 -1e-05 -0.000288
-0.002345 -1e-05 -0.000263
-0.002861 0.000725 -0.00063
-0.002041 -2.9e-05 0.000463
-0.002705 0.000562 -6.2e-05
-0.002441 0.000673 -0.000225
-0.002447 0.000672 -0.000201
-0.002292 -6e-06 2.8e-05
-0.002288 -6e-06 5.2e-05
-0.00228 -3e-06 7.6e-05
-0.002915 0.000423 -0.000712
-0.002045 -2.9e-05 0.000439
-0.002262 -4e-06 0.000198
-0.002259 -4e-06 0.000222
-0.002685 0.000688 -0.000918
-0.002925 0.00044 5.8e-05
-0.002238 -2e-06 0.000343
-0.002235 -3e-06 0.000368
-0.00205 -3e-05 0.000415
-0.002208 -4e-06 0.000563
-0.002204 -4e-06 0.000588
-0.002054 -3e-05 0.00039
-0.002177 -4e-06 0.000783
-0.002172 -4e-06 0.000807
-0.002283 -6e-06 -0.000298
-0.002278 -6e-06 -0.000273
-0.002471 0.000636 -0.000155
-0.002058 -3e-05 0.000366
-0.002061 -3e-05 0.000342
-0.002253 -3e-06 -0.000152
-0.00225 -3e-06 -0.000128
-0.002657 0.000582 -8e-05
-0.002902 0.000399 -0.00076
-0.00187 0.00069 -0.002251
-0.003 0.00052 0.000147
-0.002836 0.000739 -0.000602
-0.00222 -3e-06 6.7e-05
-0.002909 0.000425 -0.000736
-0.002838 0.000466 -0.000602
-0.002787 0.000526 -2.3e-05
-0.002838 0.000547 -0.000602
-0.002867 0.000532 -0.000631
-0.002933 0.000737 8.1e-05
-0.002907 0.000748 6e-05
-0.002436 0.000675 -0.001401
-0.002985 0.000415 9.9e-05
-0.002182 -3e-06 0.000335
-0.002179 -3e-06 0.000359
-0.002152 -3e-06 0.00053
-0.002146 -2e-06 0.000554
-0.002141 -2e-06 0.000578
-0.00212 -1e-06 0.000724
-0.002115 -2e-06 0.000748
-0.002112 -2e-06 0.000773
-0.002108 -1e-06 0.000797
-0.002108 -3e-06 0.000822
-0.002105 -3e-06 0.000847
-0.0021 -2e-06 0.000871
-0.002775 0.000553 -0.000544
-0.002808 0.000536 -0.000573
-0.002216 -4e-06 -0.000283
-0.002211 -3e-06 -0.000258
-0.002206 -3e-06 -0.000234
-0.002518 0.000543 -0.001626
-0.002889 0.000709 -0.000684
-0.002194 -5e-06 -0.000136
-0.002823 0.000728 -3e-06
-0.002691 0.000541 -0.000483
-0.002824 0.000538 -3e-06
-0.002655 0.000638 -8e-05
-0.002998 0.00052 0.000122
-0.002914 0.000478 -0.000712
-0.002823 0.000483 -3e-06
-0.002979 0.000663 0.0001
-0.002169 -8e-06 8.4e-05
-0.002641 0.000733 -0.000926
-0.002522 0.00066 -0.001573
-0.002509 0.000672 -0.001541
-0.002894 0.000518 -0.000659
-0.002893 0.000464 -0.000659
-0.00215 -9e-06 0.000231
-0.002146 -9e-06 0.000255
-0.002143 -9e-06 0.000279
-0.00214 -9e-06 0.000304
-0.002136 -9e-06 0.000328
-0.002132 -9e-06 0.000352
-0.002128 -9e-06 0.000377
-0.002124 -9e-06 0.000401
-0.002104 -8e-06 0.000523
-0.002099 -7e-06 0.000547
-0.002094 -7e-06 0.000571
-0.002089 -6e-06 0.000595
-0.002068 -4e-06 0.000716
-0.002063 -4e-06 0.000741
-0.002059 -3e-06 0.000765
-0.002055 -3e-06 0.000789
-0.002048 -2e-06 0.000813
-0.002043 -1e-06 0.000837
-0.002037 0.0 0.000861
-0.002035 -0.0 0.000886
-0.002066 -3e-05 0.000318
-0.002471 0.000745 -0.000155
-0.002777 0.000715 -0.000544
-0.002897 0.000653 -0.00077
-0.00216 -6e-06 -0.000266
-0.002161 -8e-06 -0.000241
-0.002156 -8e-06 -0.000217
-0.002456 0.000642 -0.000177
-0.00286 0.000468 1.7e-05
-0.00278 0.000747 -2.2e-05
-0.002859 0.000713 1.7e-05
-0.002642 0.000566 -0.000451
-0.002894 0.000687 -0.000742
-0.002409 0.000694 -0.001362
-0.002867 0.000695 -0.000631
-0.002901 0.000676 -0.000685
-0.002136 -1.5e-05 2.9e-05
-0.002133 -1.6e-05 5.4e-05
-0.00213 -1.6e-05 7.8e-05
-0.002128 -1.7e-05 0.000103
-0.002124 -1.7e-05 0.000127
-0.002121 -1.7e-05 0.000151
-0.002119 -1.8e-05 0.000176
-0.002115 -1.8e-05 0.0002
-0.002113 -1.8e-05 0.000225
-0.002109 -1.8e-05 0.000249
-0.002106 -1.8e-05 0.000274
-0.002102 -1.8e-05 0.000298
-0.002099 -1.8e-05 0.000322
-0.002095 -1.8e-05 0.000347
-0.002091 -1.8e-05 0.000371
-0.002086 -1.8e-05 0.000395
-0.002082 -1.8e-05 0.00042
-0.002078 -1.7e-05 0.000444
-0.002075 -1.7e-05 0.000468
-0.002069 -1.7e-05 0.000492
-0.002065 -1.6e-05 0.000517
-0.00206 -1.6e-05 0.000541
-0.002055 -1.5e-05 0.000565
-0.00205 -1.5e-05 0.000589
-0.002015 -1e-05 0.000758
-0.002009 -9e-06 0.000782
-0.002004 -8e-06 0.000807
-0.001999 -7e-06 0.000831
-0.001994 -7e-06 0.000855
-0.002956 0.000536 7.8e-05
-0.002457 0.00075 -0.000178
-0.002703 0.000644 -6.2e-05
-0.002587 0.000675 -0.000419
-0.002881 0.000715 -0.000658
-0.002747 0.000625 -4.3e-05
-0.002896 0.0004 -0.000784
-0.002893 0.000454 3.7e-05
-0.00269 0.000569 -0.000483
-0.002441 0.000722 -0.0003
-0.002441 0.000668 -0.0003
-0.002747 0.000516 -4.3e-05
-0.00264 0.000706 -0.000925
-0.002808 0.000509 -0.000573
-0.002891 0.000683 -0.000658
-0.002101 -2.6e-05 2.4e-05
-0.002099 -2.7e-05 4.8e-05
-0.002097 -2.8e-05 7.3e-05
-0.002095 -2.8e-05 9.8e-05
-0.002092 -2.9e-05 0.000122
-0.002089 -2.9e-05 0.000147
-0.002086 -2.9e-05 0.000171
-0.002083 -3e-05 0.000196
-0.00208 -3e-05 0.00022
-0.002076 -3e-05 0.000244
-0.002073 -3e-05 0.000269
-0.00207 -3e-05 0.000293
-0.002909 0.00037 -0.000736
-0.002915 0.000369 -0.000712
-0.002913 0.000372 -0.000686
-0.002892 0.000383 -0.000659
-0.002866 0.000397 -0.000631
-0.002837 0.000412 -0.000602
-0.002808 0.000427 -0.000573
-0.002775 0.000444 -0.000544
-0.002736 0.000464 -0.000513
-0.002693 0.000486 -0.000483
-0.00264 0.000512 -0.000451
-0.00252 0.000572 -0.000385
-0.002473 0.000596 -0.000354
-0.002452 0.000607 -0.000326
-0.002441 0.000614 -0.0003
-0.002437 0.000618 -0.000274
-0.002437 0.000619 -0.000249
-0.00244 0.000619 -0.000225
-0.002446 0.000618 -0.000201
-0.002456 0.000615 -0.000177
-0.002471 0.000609 -0.000155
-0.002493 0.0006 -0.000133
-0.002536 0.000582 -0.000114
-0.002598 0.000554 -9.7e-05
-0.002657 0.000528 -8e-05
-0.002704 0.000508 -6.2e-05
-0.002748 0.000488 -4.3e-05
-0.002787 0.000472 -2.3e-05
-0.002823 0.000456 -3e-06
-0.002858 0.000441 1.7e-05
-0.002893 0.000427 3.7e-05
-0.002925 0.000413 5.8e-05
-0.002956 0.0004 7.8e-05
-0.002985 0.000388 9.9e-05
-0.002999 0.000383 0.000122
-0.003 0.000384 0.000147
-0.002595 0.000642 -0.000932
-0.00291 0.000602 -0.000722
-0.002509 0.000617 -0.001541
-0.002516 0.000626 -0.001625
-0.002867 0.000681 -0.000837
-0.00289 0.000347 -0.000808
-0.002896 0.000346 -0.000784
-0.002903 0.000344 -0.00076
-0.002909 0.000343 -0.000736
-0.002915 0.000342 -0.000712
-0.002913 0.000345 -0.000686
-0.002892 0.000356 -0.000659
-0.002866 0.00037 -0.00063
-0.002837 0.000385 -0.000602
-0.002808 0.0004 -0.000573
-0.002775 0.000417 -0.000544
-0.002739 0.000436 -0.000514
-0.002693 0.000459 -0.000483
-0.00264 0.000485 -0.000451
-0.002522 0.000544 -0.000385
-0.002473 0.000569 -0.000354
-0.002452 0.00058 -0.000326
-0.002441 0.000587 -0.0003
-0.002437 0.00059 -0.000274
-0.002437 0.000592 -0.000249
-0.00244 0.000592 -0.000225
-0.002446 0.000591 -0.000201
-0.002456 0.000588 -0.000177
-0.002471 0.000582 -0.000155
-0.002494 0.000573 -0.000133
-0.002536 0.000555 -0.000114
-0.002598 0.000527 -9.7e-05
-0.002656 0.000501 -8e-05
-0.002705 0.00048 -6.2e-05
-0.002749 0.000461 -4.3e-05
-0.002787 0.000445 -2.3e-05
-0.002823 0.000429 -3e-06
-0.002858 0.000414 1.7e-05
-0.002893 0.0004 3.7e-05
-0.002926 0.000386 5.8e-05
-0.002956 0.000373 7.8e-05
-0.002985 0.000361 9.9e-05
-0.002998 0.000356 0.000122
-0.003 0.000357 0.000147
-0.002641 0.000624 -0.000925
-0.002899 0.000598 -0.000771
-0.002491 0.000601 -0.001668
-0.002905 0.000659 -0.00072
-0.002515 0.000685 -0.001598
-0.00289 0.00032 -0.000808
-0.002896 0.000319 -0.000784
-0.002903 0.000317 -0.00076
-0.002909 0.000316 -0.000736
-0.002915 0.000315 -0.000712
-0.002913 0.000317 -0.000686
-0.002892 0.000329 -0.000659
-0.002866 0.000342 -0.00063
-0.002838 0.000357 -0.000602
-0.002809 0.000373 -0.000573
-0.002775 0.00039 -0.000544
-0.002738 0.000409 -0.000514
-0.002693 0.000431 -0.000483
-0.002471 0.000542 -0.000353
-0.002452 0.000553 -0.000326
-0.002441 0.00056 -0.0003
-0.002437 0.000563 -0.000274
-0.002437 0.000565 -0.000249
-0.00244 0.000565 -0.000225
-0.002446 0.000564 -0.000201
-0.002456 0.000561 -0.000177
-0.002471 0.000555 -0.000155
-0.002494 0.000546 -0.000133
-0.002535 0.000528 -0.000113
-0.002599 0.000499 -9.7e-05
-0.002654 0.000475 -8e-05
-0.002704 0.000453 -6.2e-05
-0.002748 0.000434 -4.3e-05
-0.002787 0.000417 -2.3e-05
-0.002824 0.000402 -3e-06
-0.002859 0.000387 1.7e-05
-0.002893 0.000372 3.7e-05
-0.002925 0.000359 5.8e-05
-0.002956 0.000346 7.8e-05
-0.002985 0.000334 9.9e-05
-0.002998 0.000329 0.000122
-0.002999 0.00033 0.000147
-0.002542 0.000637 -0.000936
-0.002866 0.000594 -0.000864
-0.002876 0.000622 -0.000842
-0.002513 0.000654 -0.001624
-0.002863 0.000715 -0.000809
-0.002896 0.000292 -0.000784
-0.002903 0.00029 -0.00076
-0.002909 0.000289 -0.000736
-0.002914 0.000288 -0.000712
-0.002913 0.00029 -0.000686
-0.002892 0.000302 -0.000659
-0.002866 0.000315 -0.00063
-0.002837 0.000331 -0.000602
-0.002808 0.000346 -0.000573
-0.002775 0.000363 -0.000544
-0.002738 0.000382 -0.000514
-0.00269 0.000406 -0.000482
-0.002101 -2.6e-05 -5e-06
-0.0021 -2.7e-05 -2.9e-05
-0.002471 0.000515 -0.000353
-0.002451 0.000526 -0.000326
-0.002441 0.000532 -0.0003
-0.002437 0.000536 -0.000274
-0.002437 0.000538 -0.000249
-0.00244 0.000538 -0.000225
-0.002446 0.000537 -0.000201
-0.002456 0.000534 -0.000177
-0.002471 0.000528 -0.000154
-0.002494 0.000519 -0.000133
-0.002535 0.000501 -0.000113
-0.002598 0.000473 -9.7e-05
-0.002655 0.000448 -8e-05
-0.002705 0.000426 -6.2e-05
-0.002748 0.000407 -4.3e-05
-0.002788 0.00039 -2.3e-05
-0.002824 0.000375 -3e-06
-0.002859 0.000359 1.7e-05
-0.002894 0.000345 3.7e-05
-0.002925 0.000332 5.8e-05
-0.002956 0.000319 7.8e-05
-0.002985 0.000307 9.9e-05
-0.002998 0.000302 0.000122
-0.002999 0.000303 0.000147
-0.002098 -2.7e-05 -5.4e-05
-0.002456 0.000605 -0.001436
-0.002489 0.000713 -0.000939
-0.002641 0.000678 -0.000925
-0.002842 0.000628 -0.00088
-0.002457 0.000713 -0.001437
-0.002112 0.000629 -0.001715
-0.002896 0.000264 -0.000784
-0.002903 0.000263 -0.00076
-0.002909 0.000262 -0.000736
-0.002914 0.000261 -0.000711
-0.002912 0.000263 -0.000686
-0.002892 0.000274 -0.000659
-0.002866 0.000288 -0.00063
-0.002838 0.000303 -0.000602
-0.002808 0.000319 -0.000573
-0.002776 0.000335 -0.000544
-0.002737 0.000355 -0.000513
-0.002692 0.000378 -0.000483
-0.002095 -2.8e-05 -7.8e-05
-0.002472 0.000488 -0.000353
-0.002452 0.000499 -0.000326
-0.002441 0.000505 -0.0003
-0.002436 0.000509 -0.000274
-0.002437 0.00051 -0.000249
-0.002441 0.00051 -0.000225
-0.002446 0.000509 -0.000201
-0.002456 0.000506 -0.000177
-0.002471 0.000501 -0.000154
-0.002494 0.000492 -0.000133
-0.002599 0.000445 -9.7e-05
-0.002655 0.00042 -8e-05
-0.002705 0.000398 -6.2e-05
-0.002748 0.00038 -4.3e-05
-0.002788 0.000363 -2.3e-05
-0.002824 0.000347 -3e-06
-0.002859 0.000332 1.7e-05
-0.002893 0.000318 3.7e-05
-0.002925 0.000304 5.8e-05
-0.002956 0.000292 7.8e-05
-0.002986 0.000279 9.9e-05
-0.002998 0.000275 0.000122
-0.002999 0.000276 0.000147
-0.002093 -2.8e-05 -0.000103
-0.002474 0.000591 -0.001472
-0.002544 0.000717 -0.000936
-0.001779 0.00053 -0.00241
-0.002441 0.000588 -0.001736
-0.002855 0.000682 -0.000859
-0.002896 0.000237 -0.000783
-0.002902 0.000236 -0.00076
-0.002909 0.000235 -0.000736
-0.002914 0.000234 -0.000711
-0.002911 0.000236 -0.000686
-0.002892 0.000247 -0.000658
-0.002866 0.000261 -0.00063
-0.002838 0.000276 -0.000602
-0.002808 0.000291 -0.000573
-0.002776 0.000308 -0.000544
-0.002735 0.000329 -0.000513
-0.002692 0.000351 -0.000483
-0.002638 0.000377 -0.00045
-0.002583 0.000405 -0.000418
-0.00247 0.000461 -0.000353
-0.002451 0.000472 -0.000326
-0.002441 0.000478 -0.000299
-0.002436 0.000482 -0.000274
-0.002437 0.000483 -0.000249
-0.002441 0.000483 -0.000225
-0.002447 0.000482 -0.000201
-0.002456 0.000479 -0.000177
-0.002471 0.000473 -0.000154
-0.002493 0.000464 -0.000133
-0.002537 0.000446 -0.000114
-0.002598 0.000419 -9.7e-05
-0.002657 0.000392 -8e-05
-0.002705 0.000371 -6.2e-05
-0.002748 0.000352 -4.3e-05
-0.002788 0.000335 -2.3e-05
-0.002824 0.00032 -3e-06
-0.002859 0.000305 1.7e-05
-0.002894 0.000291 3.7e-05
-0.002926 0.000277 5.8e-05
-0.002956 0.000264 7.8e-05
-0.002985 0.000252 9.9e-05
-0.002998 0.000248 0.000122
-0.002999 0.000249 0.000147
-0.00209 -2.9e-05 -0.000127
-0.002306 0.000735 -0.001235
-0.002886 0.000595 -0.000819
-0.001854 0.000745 -0.002175
-0.002476 0.00063 -0.001688
-0.002835 0.000686 -0.000877
-0.002823 0.00072 -0.000872
-0.002902 0.000209 -0.000759
-0.002909 0.000207 -0.000735
-0.002913 0.000207 -0.000711
-0.002911 0.00021 -0.000686
-0.002892 0.00022 -0.000658
-0.002865 0.000234 -0.00063
-0.002837 0.000249 -0.000602
-0.002808 0.000264 -0.000573
-0.002776 0.000281 -0.000544
-0.002737 0.000301 -0.000513
-0.002691 0.000324 -0.000482
-0.00264 0.000349 -0.000451
-0.002583 0.000378 -0.000418
-0.002471 0.000434 -0.000353
-0.002451 0.000445 -0.000326
-0.00244 0.000451 -0.000299
-0.002436 0.000455 -0.000274
-0.002437 0.000456 -0.000249
-0.00244 0.000456 -0.000225
-0.002447 0.000455 -0.000201
-0.002456 0.000452 -0.000177
-0.00247 0.000447 -0.000154
-0.002493 0.000437 -0.000133
-0.002538 0.000418 -0.000114
-0.002657 0.000365 -8e-05
-0.002706 0.000344 -6.2e-05
-0.002748 0.000325 -4.3e-05
-0.002788 0.000308 -2.3e-05
-0.002824 0.000293 -3e-06
-0.00286 0.000278 1.7e-05
-0.002894 0.000263 3.7e-05
-0.002926 0.00025 5.8e-05
-0.002956 0.000237 7.8e-05
-0.002985 0.000225 9.9e-05
-0.002997 0.000221 0.000123
-0.002998 0.000222 0.000147
-0.002998 0.000224 0.000172
-0.002088 -2.9e-05 -0.000152
-0.002435 0.000648 -0.0014
-0.002843 0.000601 -0.000881
-0.002505 0.000599 -0.001647
-0.002409 0.000721 -0.001362
-0.002164 0.000715 -0.001727
-0.002876 0.000719 -0.00076
-0.002902 0.000181 -0.000759
-0.002908 0.00018 -0.000735
-0.002912 0.00018 -0.000711
-0.00291 0.000183 -0.000686
-0.002892 0.000193 -0.000658
-0.002865 0.000207 -0.00063
-0.002837 0.000222 -0.000602
-0.002808 0.000237 -0.000573
-0.002775 0.000254 -0.000543
-0.002738 0.000273 -0.000514
-0.002692 0.000296 -0.000482
-0.00264 0.000322 -0.000451
-0.002582 0.000351 -0.000418
-0.002472 0.000406 -0.000353
-0.002451 0.000418 -0.000326
-0.00244 0.000424 -0.000299
-0.002436 0.000428 -0.000274
-0.002437 0.000429 -0.000249
-0.00244 0.000429 -0.000225
-0.002446 0.000428 -0.000201
-0.002456 0.000425 -0.000177
-0.00247 0.000419 -0.000154
-0.002493 0.00041 -0.000133
-0.002534 0.000393 -0.000113
-0.002657 0.000338 -8e-05
-0.002706 0.000317 -6.2e-05
-0.002748 0.000298 -4.3e-05
-0.002788 0.000281 -2.3e-05
-0.002824 0.000266 -3e-06
-0.00286 0.000251 1.7e-05
-0.002894 0.000236 3.7e-05
-0.002926 0.000223 5.8e-05
-0.002957 0.00021 7.8e-05
-0.002985 0.000198 9.9e-05
-0.002996 0.000194 0.000123
-0.002998 0.000195 0.000147
-0.002085 -2.9e-05 -0.000176
-0.002522 0.000524 -0.001574
-0.002878 0.000594 -0.000842
-0.002523 0.000605 -0.001574
-0.002504 0.000626 -0.001646
-0.002897 0.000691 -0.000716
-0.002871 0.000716 -0.000786
-0.002901 0.000155 -0.000759
-0.002907 0.000154 -0.000735
-0.00291 0.000154 -0.000711
-0.002908 0.000157 -0.000686
-0.002892 0.000166 -0.000658
-0.002865 0.00018 -0.00063
-0.002837 0.000195 -0.000602
-0.002808 0.00021 -0.000573
-0.002775 0.000227 -0.000543
-0.002737 0.000247 -0.000513
-0.002692 0.000269 -0.000483
-0.00264 0.000295 -0.000451
-0.002585 0.000323 -0.000418
-0.002471 0.000379 -0.000353
-0.002451 0.00039 -0.000326
-0.00244 0.000397 -0.000299
-0.002436 0.000401 -0.000274
-0.002437 0.000402 -0.000249
-0.00244 0.000402 -0.000225
-0.002446 0.000401 -0.000201
-0.002456 0.000397 -0.000177
-0.00247 0.000392 -0.000154
-0.002493 0.000383 -0.000133
-0.002536 0.000365 -0.000113
-0.002657 0.000311 -8e-05
-0.002704 0.00029 -6.2e-05
-0.002748 0.000271 -4.3e-05
-0.002788 0.000254 -2.3e-05
-0.002825 0.000238 -3e-06
-0.00286 0.000223 1.7e-05
-0.002894 0.000209 3.7e-05
-0.002926 0.000195 5.8e-05
-0.002958 0.000182 7.8e-05
-0.002984 0.000171 9.9e-05
-0.002995 0.000168 0.000123
-0.002997 0.000168 0.000147
-0.002081 -2.9e-05 -0.000201
-0.002528 0.000516 -0.001603
-0.002596 0.000696 -0.000932
-0.002909 0.00063 -0.000721
-0.002766 0.000684 -0.0009
-0.002457 0.000741 -0.001437
-0.002758 0.000743 -0.000897
-0.002899 0.000129 -0.000759
-0.002904 0.000128 -0.000735
-0.002906 0.000129 -0.00071
-0.002905 0.000131 -0.000685
-0.002891 0.000139 -0.000658
-0.002865 0.000153 -0.00063
-0.002836 0.000168 -0.000601
-0.002808 0.000183 -0.000573
-0.002774 0.0002 -0.000543
-0.002738 0.000219 -0.000514
-0.00269 0.000243 -0.000482
-0.002638 0.000269 -0.00045
-0.002586 0.000295 -0.000419
-0.002472 0.000352 -0.000353
-0.00245 0.000363 -0.000326
-0.00244 0.00037 -0.000299
-0.002436 0.000373 -0.000274
-0.002437 0.000375 -0.000249
-0.00244 0.000375 -0.000225
-0.002446 0.000374 -0.000201
-0.002455 0.00037 -0.000177
-0.00247 0.000365 -0.000154
-0.002494 0.000356 -0.000133
-0.002536 0.000337 -0.000113
-0.002596 0.00031 -9.7e-05
-0.002657 0.000284 -8e-05
-0.002704 0.000263 -6.1e-05
-0.002748 0.000244 -4.3e-05
-0.002787 0.000227 -2.3e-05
-0.002825 0.000211 -3e-06
-0.00286 0.000196 1.7e-05
-0.002897 0.00018 3.7e-05
-0.00293 0.000167 5.7e-05
-0.002959 0.000154 7.8e-05
-0.002983 0.000145 0.0001
-0.002992 0.000142 0.000123
-0.002995 0.000142 0.000148
-0.002079 -3e-05 -0.000225
-0.002259 0.00075 -0.000971
-0.002727 0.000645 -0.00091
-0.002892 0.000624 -0.000795
-0.002214 0.000695 -0.001737
-0.002507 0.000684 -0.001621
-0.002888 0.000105 -0.000782
-0.002894 0.000104 -0.000758
-0.002898 0.000104 -0.000734
-0.002901 0.000104 -0.000709
-0.0029 0.000106 -0.000685
-0.00289 0.000113 -0.000658
-0.002865 0.000126 -0.00063
-0.002836 0.000141 -0.000601
-0.002807 0.000156 -0.000573
-0.002774 0.000173 -0.000543
-0.002738 0.000191 -0.000514
-0.002691 0.000215 -0.000482
-0.002639 0.000241 -0.00045
-0.002584 0.000269 -0.000418
-0.002075 -2.9e-05 -0.00025
-0.002472 0.000324 -0.000353
-0.00245 0.000336 -0.000326
-0.00244 0.000343 -0.000299
-0.002436 0.000346 -0.000274
-0.002436 0.000348 -0.000249
-0.00244 0.000348 -0.000225
-0.002446 0.000346 -0.000201
-0.002455 0.000343 -0.000177
-0.00247 0.000338 -0.000154
-0.002494 0.000328 -0.000133
-0.002537 0.00031 -0.000114
-0.002598 0.000283 -9.7e-05
-0.002657 0.000256 -8e-05
-0.002704 0.000236 -6.1e-05
-0.002748 0.000217 -4.3e-05
-0.002787 0.0002 -2.3e-05
-0.002824 0.000184 -3e-06
-0.00286 0.000169 1.7e-05
-0.002896 0.000154 3.7e-05
-0.002927 0.00014 5.8e-05
-0.002957 0.000128 7.8e-05
-0.002979 0.000119 0.0001
-0.002988 0.000117 0.000124
-0.002991 0.000117 0.000148
-0.002072 -2.9e-05 -0.000274
-0.002348 0.000748 -0.00093
-0.002905 0.0006 -0.000747
-0.001858 0.000715 -0.002178
-0.002476 0.000699 -0.001472
-0.002508 0.000699 -0.001541
-0.002874 8.3e-05 -0.000805
-0.00288 8.2e-05 -0.000781
-0.002886 8.1e-05 -0.000757
-0.00289 8e-05 -0.000733
-0.002893 8.1e-05 -0.000708
-0.002893 8.2e-05 -0.000683
-0.002886 8.7e-05 -0.000658
-0.002864 9.9e-05 -0.00063
-0.002835 0.000114 -0.000601
-0.002807 0.000129 -0.000572
-0.002775 0.000146 -0.000543
-0.002736 0.000165 -0.000513
-0.002691 0.000188 -0.000482
-0.002638 0.000215 -0.00045
-0.002587 0.00024 -0.000418
-0.002471 0.000298 -0.000353
-0.00245 0.000309 -0.000326
-0.00244 0.000316 -0.000299
-0.002436 0.000319 -0.000274
-0.002436 0.00032 -0.000249
-0.00244 0.00032 -0.000225
-0.002446 0.000319 -0.000201
-0.002455 0.000316 -0.000177
-0.002471 0.000311 -0.000154
-0.002493 0.000301 -0.000132
-0.002537 0.000282 -0.000114
-0.002599 0.000255 -9.7e-05
-0.002656 0.00023 -8e-05
-0.002703 0.000209 -6.1e-05
-0.002748 0.00019 -4.3e-05
-0.002787 0.000173 -2.3e-05
-0.002824 0.000157 -3e-06
-0.002859 0.000142 1.7e-05
-0.002893 0.000128 3.7e-05
-0.002926 0.000114 5.8e-05
-0.002956 0.000101 7.8e-05
-0.002974 9.4e-05 0.000101
-0.002981 9.3e-05 0.000125
-0.002068 -2.9e-05 -0.000298
-0.002308 0.000763 -0.000939
-0.002476 0.000645 -0.001472
-0.002883 0.000651 -0.000817
-0.002882 0.000726 -0.000709
-0.002855 6.3e-05 -0.000827
-0.002863 6.1e-05 -0.000804
-0.002869 6e-05 -0.00078
-0.002875 5.9e-05 -0.000756
-0.002879 5.8e-05 -0.000731
-0.002882 5.9e-05 -0.000707
-0.002882 6e-05 -0.000682
-0.002879 6.3e-05 -0.000657
-0.002863 7.2e-05 -0.00063
-0.002835 8.7e-05 -0.000601
-0.002807 0.000102 -0.000572
-0.002774 0.000119 -0.000543
-0.002735 0.000139 -0.000513
-0.00269 0.000161 -0.000482
-0.002637 0.000188 -0.00045
-0.002472 0.00027 -0.000353
-0.002451 0.000282 -0.000326
-0.00244 0.000288 -0.000299
-0.002436 0.000292 -0.000274
-0.002437 0.000293 -0.000249
-0.00244 0.000293 -0.000225
-0.002445 0.000292 -0.000201
-0.002455 0.000289 -0.000177
-0.002471 0.000283 -0.000154
-0.002494 0.000274 -0.000132
-0.002536 0.000256 -0.000113
-0.002599 0.000228 -9.7e-05
-0.002657 0.000202 -8e-05
-0.002705 0.000181 -6.2e-05
-0.002747 0.000163 -4.2e-05
-0.002788 0.000145 -2.3e-05
-0.002824 0.00013 -3e-06
-0.00286 0.000115 1.7e-05
-0.002894 0.0001 3.7e-05
-0.002926 8.7e-05 5.8e-05
-0.002953 7.6e-05 7.9e-05
-0.002966 7.1e-05 0.000102
-0.002971 7e-05 0.000126
-0.002066 -3e-05 -0.000323
-0.002307 0.000736 -0.000939
-0.002899 0.000625 -0.000771
-0.00289 0.000684 -0.000767
-0.002832 4.6e-05 -0.000849
-0.002841 4.3e-05 -0.000825
-0.002848 4.1e-05 -0.000802
-0.002855 4e-05 -0.000778
-0.00286 3.9e-05 -0.000754
-0.002864 3.8e-05 -0.000729
-0.002867 3.8e-05 -0.000705
-0.002869 3.9e-05 -0.00068
-0.002867 4.2e-05 -0.000655
-0.002857 4.8e-05 -0.000629
-0.002835 6e-05 -0.000601
-0.002806 7.5e-05 -0.000572
-0.002773 9.2e-05 -0.000543
-0.002734 0.000112 -0.000513
-0.002689 0.000134 -0.000482
-0.002637 0.000161 -0.00045
-0.002061 -2.9e-05 -0.000347
-0.002471 0.000243 -0.000353
-0.00245 0.000255 -0.000325
-0.00244 0.000261 -0.000299
-0.002436 0.000265 -0.000274
-0.002436 0.000266 -0.000249
-0.00244 0.000266 -0.000225
-0.002445 0.000265 -0.000201
-0.002455 0.000262 -0.000177
-0.002471 0.000256 -0.000154
-0.002493 0.000247 -0.000132
-0.002537 0.000228 -0.000114
-0.002597 0.000202 -9.7e-05
-0.002657 0.000175 -8e-05
-0.002705 0.000154 -6.2e-05
-0.002748 0.000135 -4.3e-05
-0.002787 0.000118 -2.3e-05
-0.002824 0.000103 -3e-06
-0.00286 8.7e-05 1.7e-05
-0.002893 7.3e-05 3.7e-05
-0.002923 6.1e-05 5.8e-05
-0.002945 5.2e-05 8e-05
-0.002954 4.9e-05 0.000104
-0.002959 4.9e-05 0.000128
-0.002058 -2.9e-05 -0.000372
-0.002892 0.00057 -0.000794
-0.001856 0.00058 -0.002177
-0.002877 0.000681 -0.000815
-0.002814 2.7e-05 -0.000847
-0.002822 2.4e-05 -0.000823
-0.00283 2.3e-05 -0.000799
-0.002836 2.2e-05 -0.000775
-0.002841 2.1e-05 -0.000751
-0.002845 2e-05 -0.000727
-0.002848 2e-05 -0.000702
-0.00285 2.1e-05 -0.000678
-0.002849 2.3e-05 -0.000653
-0.002844 2.7e-05 -0.000627
-0.00283 3.5e-05 -0.0006
-0.002805 4.8e-05 -0.000572
-0.002775 6.4e-05 -0.000543
-0.002688 0.000108 -0.000482
-0.002637 0.000133 -0.00045
-0.002471 0.000216 -0.000353
-0.00245 0.000228 -0.000325
-0.00244 0.000234 -0.000299
-0.002436 0.000238 -0.000274
-0.002436 0.000239 -0.000249
-0.00244 0.000239 -0.000225
-0.002446 0.000238 -0.000201
-0.002455 0.000235 -0.000177
-0.00247 0.000229 -0.000154
-0.002494 0.00022 -0.000132
-0.002535 0.000202 -0.000113
-0.002657 0.000148 -8e-05
-0.002706 0.000126 -6.2e-05
-0.002747 0.000108 -4.2e-05
-0.002788 9.1e-05 -2.3e-05
-0.002825 7.5e-05 -3e-06
-0.00286 6e-05 1.7e-05
-0.002892 4.7e-05 3.8e-05
-0.002916 3.7e-05 5.9e-05
-0.00293 3.2e-05 8.2e-05
-0.002937 3e-05 0.000106
-0.002054 -2.9e-05 -0.000396
-0.002899 0.000571 -0.000771
-0.002457 0.000659 -0.001437
-0.002501 0.000655 -0.001645
-0.002503 0.000729 -0.001539
-0.002789 1.2e-05 -0.000843
-0.002797 9e-06 -0.00082
-0.002803 8e-06 -0.000796
-0.002808 7e-06 -0.000771
-0.002812 7e-06 -0.000747
-0.002816 7e-06 -0.000723
-0.002819 7e-06 -0.000698
-0.002822 7e-06 -0.000674
-0.002823 8e-06 -0.000649
-0.002822 1e-05 -0.000624
-0.002815 1.5e-05 -0.000598
-0.002799 2.4e-05 -0.000571
-0.002774 3.7e-05 -0.000543
-0.002735 5.7e-05 -0.000513
-0.002689 8e-05 -0.000482
-0.002638 0.000106 -0.00045
-0.00247 0.000189 -0.000353
-0.00245 0.0002 -0.000325
-0.002439 0.000207 -0.000299
-0.002435 0.00021 -0.000274
-0.002436 0.000212 -0.000249
-0.00244 0.000212 -0.000225
-0.002445 0.000211 -0.000201
-0.002455 0.000208 -0.000177
-0.00247 0.000202 -0.000154
-0.002494 0.000193 -0.000132
-0.002535 0.000174 -0.000113
-0.002706 9.9e-05 -6.2e-05
-0.002748 8.1e-05 -4.2e-05
-0.002787 6.4e-05 -2.3e-05
-0.002825 4.8e-05 -3e-06
-0.002858 3.4e-05 1.7e-05
-0.002884 2.3e-05 3.8e-05
-0.0029 1.7e-05 6.1e-05
-0.00205 -2.9e-05 -0.00042
-0.002509 0.000536 -0.001541
-0.002457 0.000686 -0.001437
-0.002261 0.000703 -0.001744
-0.002902 0.000656 -0.000745
-0.002749 3e-06 -0.000838
-0.002753 2e-06 -0.000814
-0.002757 2e-06 -0.000789
-0.002762 2e-06 -0.000765
-0.002766 1e-06 -0.000741
-0.00277 1e-06 -0.000717
-0.002774 0.0 -0.000692
-0.002779 -0.0 -0.000668
-0.002782 -0.0 -0.000644
-0.002786 -0.0 -0.000619
-0.002786 1e-06 -0.000594
-0.002778 6e-06 -0.000568
-0.002763 1.5e-05 -0.000542
-0.002732 3.1e-05 -0.000513
-0.002688 5.4e-05 -0.000482
-0.002636 8e-05 -0.00045
-0.00247 0.000162 -0.000353
-0.00245 0.000173 -0.000325
-0.002439 0.00018 -0.000299
-0.002435 0.000183 -0.000274
-0.002436 0.000185 -0.000249
-0.00244 0.000185 -0.000225
-0.002445 0.000184 -0.0002
-0.002455 0.00018 -0.000177
-0.00247 0.000175 -0.000154
-0.002494 0.000165 -0.000132
-0.002534 0.000148 -0.000113
-0.002657 9.3e-05 -8e-05
-0.002706 7.2e-05 -6.2e-05
-0.002748 5.4e-05 -4.2e-05
-0.002785 3.8e-05 -2.3e-05
-0.002821 2.3e-05 -3e-06
-0.002845 1.2e-05 1.9e-05
-0.002861 6e-06 4.2e-05
-0.002046 -2.8e-05 -0.000444
-0.002885 0.000568 -0.000818
-0.002376 0.000689 -0.00132
-0.002493 0.000603 -0.001507
-0.002508 0.00059 -0.001541
-0.002527 0.000571 -0.001603
-0.002469 0.000721 -0.001658
