0.000172 4e-06 -0.002488
0.000148 4e-06 -0.002488
0.000123 4e-06 -0.002489
9.8e-05 4e-06 -0.002487
7.4e-05 3e-06 -0.002488
4.9e-05 3e-06 -0.002488
2.4e-05 4e-06 -0.002487
-2.5e-05 4e-06 -0.002487
-4.9e-05 4e-06 -0.002486
-7.4e-05 4e-06 -0.002485
-0.000123 4e-06 -0.002485
-0.000319 3.2e-05 -0.002421
-0.000344 3.7e-05 -0.002411
-0.000369 3.9e-05 -0.002406
-0.000393 4e-05 -0.002404
-0.000418 4e-05 -0.002404
-0.000442 3.8e-05 -0.002409
-0.000466 3.4e-05 -0.002419
-0.000492 2.6e-05 -0.002433
-0.000517 1.1e-05 -0.002464
-0.000542 1e-06 -0.002486
-0.000616 2e-06 -0.002482
-0.000641 3e-06 -0.00248
0.000862 0.000504 -0.002801
0.000592 2e-06 -0.002442
0.000567 7e-06 -0.002429
0.000543 1.5e-05 -0.002412
0.000518 2e-05 -0.002399
0.000494 2.3e-05 -0.002394
0.000469 2.4e-05 -0.002392
0.000225 0.000717 -0.002806
0.001848 0.000589 -0.002359
0.00148 0.000593 -0.002233
0.00076 0.00064 -0.002708
0.00024 0.000622 -0.00277
0.000991 0.000703 -0.002805
0.000296 -2e-06 -0.002446
0.000271 -2e-06 -0.002445
0.000247 -3e-06 -0.002446
0.000222 -3e-06 -0.002446
0.000198 -3e-06 -0.002447
0.000173 -4e-06 -0.002447
0.000148 -5e-06 -0.002448
0.000124 -5e-06 -0.002448
9.9e-05 -5e-06 -0.002449
7.4e-05 -5e-06 -0.002448
5e-05 -4e-06 -0.002448
0.001703 0.000543 -0.00236
0.0 -5e-06 -0.002448
-2.4e-05 -5e-06 -0.002448
-4.9e-05 -6e-06 -0.002449
-0.000123 -6e-06 -0.002447
-0.000147 -5e-06 -0.002446
8e-05 -2.5e-05 -0.002083
-0.000318 9e-06 -0.002417
-0.000344 1e-05 -0.002412
-0.000369 1.2e-05 -0.002406
-0.000517 -1e-06 -0.002432
-0.000541 2e-06 -0.002426
0.000894 0.000489 -0.002825
0.000471 0.000758 -0.002402
0.000984 0.000743 -0.002778
0.001081 0.000712 -0.00276
0.001113 0.000677 -0.002249
0.000494 -3e-06 -0.00239
0.000469 -2e-06 -0.002389
0.002532 0.000653 -0.001602
0.000316 0.000684 -0.00249
0.001956 0.00067 -0.001581
0.000178 0.000568 -0.00291
0.000255 0.000638 -0.002732
0.000321 -6e-06 -0.002396
0.000297 -7e-06 -0.002397
0.000272 -7e-06 -0.002397
0.000248 -6e-06 -0.002395
0.000223 -6e-06 -0.002395
0.000198 -6e-06 -0.002393
0.000174 -6e-06 -0.002394
0.000149 -6e-06 -0.002392
0.000124 -6e-06 -0.002393
0.0001 -6e-06 -0.002392
0.000971 0.00067 -0.002824
0.000797 0.000671 -0.002748
0.001043 0.000505 -0.002808
1e-06 -5e-06 -0.002389
-2.3e-05 -5e-06 -0.00239
0.000104 -2.5e-05 -0.002083
0.000129 -2.4e-05 -0.002082
-0.000368 -6e-06 -0.002387
-0.000393 -5e-06 -0.002385
-0.000417 -6e-06 -0.002386
-0.000442 -6e-06 -0.002387
-0.000541 -7e-06 -0.002386
-0.000565 -6e-06 -0.002383
-0.00059 -5e-06 -0.00238
-0.000614 -3e-06 -0.002377
-0.000639 -3e-06 -0.002375
0.000154 -2.4e-05 -0.002081
0.000569 -6e-06 -0.002341
0.001131 0.000752 -0.002184
0.000421 -5e-06 -0.002336
0.000396 -4e-06 -0.002333
0.000973 0.000449 -0.002832
0.000322 -4e-06 -0.002333
0.000298 -3e-06 -0.00233
0.000273 -3e-06 -0.002329
0.000249 -3e-06 -0.002329
0.000224 -2e-06 -0.002326
0.000199 -1e-06 -0.002325
0.000175 -0.0 -0.002322
0.00015 -2e-06 -0.002325
0.000125 -2e-06 -0.002327
0.000101 -1e-06 -0.002324
0.000946 0.000671 -0.002828
0.00076 0.000693 -0.00271
0.00102 0.000504 -0.002816
0.000178 -2.4e-05 -0.002081
0.000203 -2.3e-05 -0.00208
0.000228 -2.3e-05 -0.00208
0.000252 -2.2e-05 -0.002078
0.001066 0.000534 -0.002798
-0.000367 -3e-06 -0.002322
-0.000392 -4e-06 -0.002323
-0.000417 -4e-06 -0.002323
-0.000441 -4e-06 -0.002323
-0.000466 -4e-06 -0.002323
-0.000564 -6e-06 -0.002325
-0.000589 -5e-06 -0.002323
-0.000614 -6e-06 -0.002326
-0.000638 -6e-06 -0.002325
-0.000663 -7e-06 -0.002326
0.00083 0.000492 -0.002776
0.00057 -3e-06 -0.002275
0.000545 -1e-06 -0.002272
0.000447 1e-06 -0.002265
0.000422 1e-06 -0.002266
0.000397 -0.0 -0.002267
0.000373 1e-06 -0.002264
0.000348 1e-06 -0.002265
0.000323 1e-06 -0.002263
0.000299 1e-06 -0.002263
0.000274 1e-06 -0.002261
0.00025 2e-06 -0.002259
0.000225 2e-06 -0.002259
0.000297 0.000689 -0.002606
0.000176 4e-06 -0.002256
0.000151 3e-06 -0.002257
0.000284 0.000643 -0.002651
0.000681 0.000613 -0.002608
0.00083 0.000519 -0.002776
0.000924 0.000478 -0.002841
0.00102 0.000477 -0.002816
0.000996 0.000476 -0.002824
0.000284 0.00067 -0.002651
-0.000169 2e-06 -0.002255
-0.000194 2e-06 -0.002255
-0.000218 2e-06 -0.002254
-0.000243 2e-06 -0.002255
-0.000268 1e-06 -0.002256
-0.000292 1e-06 -0.002255
-0.000366 -0.0 -0.002257
-0.000391 1e-06 -0.002255
-0.000416 1e-06 -0.002254
-0.00044 -0.0 -0.002256
-0.000465 -0.0 -0.002256
-0.00049 -1e-06 -0.002257
-0.000563 -1e-06 -0.002257
-0.000588 -2e-06 -0.002258
-0.000613 -3e-06 -0.00226
-0.000637 -4e-06 -0.002262
-0.000662 -4e-06 -0.002262
0.00062 0.0 -0.002211
0.000595 1e-06 -0.002208
0.000571 2e-06 -0.002207
0.000546 2e-06 -0.002207
0.000521 2e-06 -0.002205
0.000497 3e-06 -0.002203
0.000472 2e-06 -0.002203
0.000447 2e-06 -0.002204
0.000423 3e-06 -0.002202
0.00106 0.000708 -0.002776
0.000349 4e-06 -0.0022
0.000324 3e-06 -0.002201
0.0003 3e-06 -0.0022
0.000275 3e-06 -0.0022
0.00025 3e-06 -0.002199
0.000973 0.000612 -0.002831
0.000176 0.000596 -0.002908
0.000894 0.000543 -0.002825
0.000924 0.000532 -0.00284
0.000949 0.00053 -0.002839
0.000973 0.00053 -0.002832
-0.000168 2e-06 -0.002197
-0.000193 2e-06 -0.002196
-0.000218 2e-06 -0.002196
-0.000242 2e-06 -0.002195
-0.000267 3e-06 -0.002194
-0.000291 3e-06 -0.002194
-0.000365 3e-06 -0.002193
-0.00039 3e-06 -0.002192
-0.000562 2e-06 -0.002192
-0.000587 2e-06 -0.002192
-0.000612 2e-06 -0.00219
-0.000636 1e-06 -0.002193
0.00096 0.000744 -0.002784
0.000596 3e-06 -0.002144
0.000572 3e-06 -0.002145
0.000547 3e-06 -0.002146
0.000522 2e-06 -0.002146
0.000498 2e-06 -0.002146
0.000473 2e-06 -0.002147
0.000448 1e-06 -0.002148
0.000424 1e-06 -0.002148
0.000255 0.00061 -0.002732
0.000374 -0.0 -0.00215
0.00035 -0.0 -0.00215
0.000325 -1e-06 -0.002151
0.0003 -1e-06 -0.002152
0.000276 -2e-06 -0.002153
0.000251 -3e-06 -0.002154
0.00083 0.000655 -0.002776
0.000193 0.000608 -0.002875
0.000308 0.00074 -0.002551
0.00076 0.000612 -0.002708
0.000193 0.000636 -0.002875
0.000176 0.000623 -0.002907
0.000797 0.000508 -0.002749
0.001015 0.000703 -0.002799
0.000333 0.000724 -0.002457
0.001912 0.000687 -0.001574
-2e-05 -5e-06 -0.002155
-4.5e-05 -5e-06 -0.002155
-6.9e-05 -5e-06 -0.002154
-9.4e-05 -5e-06 -0.002153
-0.000118 -5e-06 -0.002153
-0.000143 -5e-06 -0.002152
-0.000168 -4e-06 -0.002151
-0.000192 -4e-06 -0.002151
-0.000217 -4e-06 -0.002151
-0.000242 -4e-06 -0.002149
-0.000266 -3e-06 -0.002148
-0.000291 -3e-06 -0.002147
-0.000315 -2e-06 -0.002144
-0.00034 -1e-06 -0.002143
-0.000365 -1e-06 -0.002142
-0.000389 -1e-06 -0.002142
-0.000438 1e-06 -0.002138
-0.000463 0.0 -0.002138
-0.000488 1e-06 -0.002136
-0.000586 2e-06 -0.002134
-0.000611 2e-06 -0.002132
0.000639 0.000672 -0.002549
0.000164 0.000638 -0.002943
0.000948 0.000641 -0.002834
0.000176 0.000705 -0.002907
0.000996 0.000612 -0.002824
0.000972 0.00064 -0.002829
0.000474 -5e-06 -0.002104
0.000449 -6e-06 -0.002104
0.000424 -6e-06 -0.002105
0.0004 -7e-06 -0.002107
0.000375 -8e-06 -0.002107
0.00035 -8e-06 -0.002109
0.000326 -9e-06 -0.002111
0.000301 -1e-05 -0.002112
0.000276 -1e-05 -0.002112
0.000252 -1.1e-05 -0.002113
0.000227 -1.1e-05 -0.002114
0.000202 -1.2e-05 -0.002114
0.000178 -1.2e-05 -0.002115
0.000153 -1.3e-05 -0.002116
0.000128 -1.3e-05 -0.002116
0.000104 -1.3e-05 -0.002117
7.9e-05 -1.4e-05 -0.002117
5.5e-05 -1.4e-05 -0.002117
3e-05 -1.4e-05 -0.002117
5e-06 -1.4e-05 -0.002116
-1.9e-05 -1.4e-05 -0.002116
-4.4e-05 -1.4e-05 -0.002116
-6.9e-05 -1.4e-05 -0.002116
-9.3e-05 -1.4e-05 -0.002115
-0.000118 -1.4e-05 -0.002114
-0.000142 -1.3e-05 -0.002113
-0.000167 -1.3e-05 -0.002112
-0.000192 -1.3e-05 -0.002111
-0.000216 -1.2e-05 -0.00211
-0.000241 -1.2e-05 -0.002109
-0.000266 -1.2e-05 -0.002107
-0.00029 -1.1e-05 -0.002106
-0.000315 -1e-05 -0.002104
-0.000364 -9e-06 -0.002102
-0.000389 -9e-06 -0.0021
-0.000438 -8e-06 -0.002098
-0.000462 -7e-06 -0.002095
-0.000487 -6e-06 -0.002093
0.000499 0.000751 -0.002411
0.000225 0.000635 -0.002806
0.00024 0.00065 -0.00277
0.000324 0.000753 -0.002517
0.000681 0.000667 -0.002608
0.001043 0.000532 -0.002808
0.00102 0.000531 -0.002816
0.001186 0.000733 -0.002131
0.000209 0.000649 -0.002841
0.000797 0.000535 -0.002749
0.000284 0.000724 -0.002651
0.00027 0.000708 -0.002692
0.00027 0.000599 -0.002693
0.000255 0.000583 -0.002732
0.00024 0.000568 -0.00277
0.000225 0.000553 -0.002807
0.000209 0.00054 -0.002841
0.000194 0.000527 -0.002876
0.001481 0.000566 -0.002234
0.001847 0.000562 -0.002359
0.001127 0.000699 -0.002598
0.001704 0.000651 -0.002361
0.001167 0.000705 -0.002146
0.001146 0.000699 -0.002165
0.001775 0.000488 -0.002383
0.00123 0.000703 -0.00211
0.001287 0.00069 -0.002108
0.001123 0.000575 -0.002639
0.001703 0.00057 -0.00236
0.001066 0.000425 -0.002798
0.001043 0.000424 -0.002807
0.001019 0.000423 -0.002816
0.000996 0.000422 -0.002824
0.000973 0.000422 -0.002832
0.000949 0.000421 -0.002839
0.000924 0.000424 -0.00284
0.000894 0.000434 -0.002825
0.000862 0.000449 -0.002801
0.00083 0.000464 -0.002776
0.000796 0.000481 -0.002748
0.00076 0.000504 -0.002708
0.000721 0.00053 -0.00266
0.00064 0.000589 -0.002551
0.000396 0.000684 -0.00241
0.000374 0.000682 -0.00242
0.000353 0.000677 -0.002435
0.000333 0.00067 -0.002457
0.000316 0.000657 -0.00249
0.000297 0.000607 -0.002606
0.000284 0.000588 -0.002652
0.00027 0.000572 -0.002693
0.000255 0.000556 -0.002732
0.000241 0.00054 -0.002771
0.000225 0.000526 -0.002808
0.00021 0.000513 -0.002842
0.000195 0.000499 -0.002877
0.001579 0.000515 -0.002299
0.001867 0.000563 -0.002343
0.001886 0.000646 -0.002327
0.001667 0.000719 -0.002347
0.001773 0.000681 -0.002379
0.001133 0.000703 -0.002514
0.001806 0.000426 -0.002385
0.001094 0.000499 -0.00278
0.001106 0.000507 -0.002752
0.00153 0.000594 -0.002268
0.001626 0.000601 -0.002329
0.001065 0.000398 -0.002797
0.001042 0.000397 -0.002806
0.001019 0.000396 -0.002815
0.000996 0.000395 -0.002823
0.000973 0.000395 -0.002831
0.000949 0.000394 -0.002838
0.000924 0.000397 -0.00284
0.000894 0.000407 -0.002825
0.000862 0.000422 -0.002802
0.00083 0.000437 -0.002777
0.000797 0.000454 -0.002749
0.00076 0.000476 -0.002709
0.000722 0.000502 -0.002663
0.00042 0.000657 -0.002402
0.000396 0.000656 -0.002409
0.000374 0.000654 -0.00242
0.000352 0.00065 -0.002435
0.000332 0.000643 -0.002456
0.000317 0.000629 -0.002491
0.000297 0.00058 -0.002607
0.000284 0.000561 -0.002652
0.00027 0.000544 -0.002693
0.000255 0.000529 -0.002732
0.000241 0.000513 -0.002771
0.000225 0.000499 -0.002807
0.00021 0.000486 -0.002841
0.000196 0.000472 -0.002878
0.001532 0.000539 -0.00227
0.001909 0.000562 -0.002069
0.001866 0.000645 -0.002342
0.001116 0.000725 -0.002675
0.001825 0.000644 -0.00237
0.00113 0.000687 -0.002557
0.002121 0.000679 -0.001629
0.001135 0.000584 -0.002471
0.001136 0.000602 -0.002425
0.001258 0.000751 -0.002109
0.001896 0.000689 -0.002024
0.001089 0.000666 -0.002772
0.001065 0.000371 -0.002798
0.001042 0.00037 -0.002806
0.001019 0.000369 -0.002815
0.000996 0.000368 -0.002823
0.000973 0.000367 -0.002831
0.000949 0.000367 -0.002838
0.000924 0.000369 -0.00284
0.000894 0.000381 -0.002824
0.000862 0.000395 -0.002802
0.00083 0.00041 -0.002776
0.000797 0.000426 -0.002749
0.00076 0.000449 -0.002709
0.000721 0.000476 -0.00266
0.000682 0.000503 -0.00261
0.00042 0.00063 -0.002401
0.000396 0.000629 -0.002409
0.000374 0.000627 -0.00242
0.000352 0.000623 -0.002435
0.000333 0.000616 -0.002456
0.000317 0.000602 -0.002492
0.000307 0.000578 -0.002548
0.000297 0.000553 -0.002605
0.000284 0.000534 -0.002651
0.00027 0.000517 -0.002693
0.000256 0.000501 -0.002734
0.000241 0.000486 -0.002772
0.000225 0.000471 -0.002808
0.00021 0.000459 -0.002842
0.000196 0.000445 -0.002878
0.001147 0.000676 -0.002163
0.001828 0.000561 -0.002373
0.001118 0.000697 -0.002677
0.001846 0.000644 -0.002357
0.001803 0.000646 -0.00238
0.001775 0.000652 -0.002383
0.001884 0.000625 -0.00198
0.001848 0.000453 -0.002359
0.001113 0.000574 -0.002715
0.001112 0.000629 -0.002715
0.001087 0.000345 -0.002786
0.001065 0.000344 -0.002798
0.001042 0.000343 -0.002806
0.001019 0.000342 -0.002814
0.000996 0.000341 -0.002823
0.000972 0.000341 -0.002831
0.000949 0.00034 -0.002838
0.000924 0.000342 -0.002841
0.000894 0.000353 -0.002824
0.000862 0.000368 -0.002801
0.00083 0.000383 -0.002776
0.000796 0.000399 -0.002749
0.00076 0.000422 -0.002709
0.000681 0.000477 -0.002608
0.00064 0.000507 -0.002553
0.00042 0.000603 -0.002402
0.000396 0.000602 -0.002409
0.000374 0.0006 -0.00242
0.000352 0.000596 -0.002435
0.000333 0.000588 -0.002457
0.000317 0.000574 -0.002492
0.000307 0.000551 -0.002548
0.000297 0.000526 -0.002606
0.000284 0.000508 -0.00265
0.00027 0.00049 -0.002693
0.000256 0.000474 -0.002733
0.000241 0.000459 -0.002772
0.000225 0.000444 -0.002808
0.00021 0.000431 -0.002842
0.000196 0.000417 -0.002878
0.001828 0.000425 -0.002374
0.001805 0.000562 -0.002385
0.001112 0.000683 -0.002715
0.001126 0.000726 -0.002597
0.00113 0.000742 -0.002556
0.00174 0.000664 -0.002372
0.001867 0.000454 -0.002344
0.001531 0.000567 -0.002269
0.001847 0.000724 -0.00188
0.001787 0.000754 -0.00176
0.001087 0.000318 -0.002786
0.001065 0.000317 -0.002798
0.001042 0.000316 -0.002806
0.001019 0.000315 -0.002814
0.000996 0.000314 -0.002823
0.000973 0.000313 -0.002831
0.000949 0.000313 -0.002838
0.000924 0.000315 -0.00284
0.000894 0.000326 -0.002825
0.000862 0.000341 -0.002801
0.00083 0.000356 -0.002776
0.000796 0.000372 -0.002748
0.00076 0.000394 -0.00271
0.000681 0.00045 -0.002608
0.00064 0.00048 -0.002553
0.000444 0.000575 -0.002397
0.00042 0.000575 -0.002402
0.000396 0.000575 -0.002409
0.000374 0.000573 -0.00242
0.000352 0.000569 -0.002435
0.000333 0.000561 -0.002457
0.000317 0.000547 -0.002492
0.000297 0.000498 -0.002606
0.000284 0.000479 -0.002653
0.00027 0.000463 -0.002693
0.000255 0.000447 -0.002732
0.00024 0.000432 -0.002771
0.000225 0.000417 -0.002808
0.000209 0.000404 -0.002842
0.000195 0.00039 -0.002878
0.001848 0.000425 -0.00236
0.00174 0.000583 -0.002372
0.001069 0.000666 -0.002786
0.001626 0.00071 -0.002329
0.001667 0.000692 -0.002348
0.00174 0.000637 -0.002372
0.001127 0.000589 -0.002599
0.001287 0.000663 -0.002108
0.001231 0.000757 -0.002111
0.00158 0.000651 -0.0023
0.001863 0.000675 -0.002338
0.001088 0.000291 -0.002786
0.001065 0.000289 -0.002798
0.001042 0.000288 -0.002807
0.001019 0.000287 -0.002815
0.000996 0.000286 -0.002824
0.000973 0.000286 -0.002832
0.000949 0.000286 -0.002839
0.000924 0.000288 -0.00284
0.000894 0.000299 -0.002824
0.000862 0.000313 -0.002801
0.000829 0.000329 -0.002775
0.000796 0.000345 -0.002748
0.00076 0.000367 -0.00271
0.000721 0.000394 -0.00266
0.000681 0.000422 -0.002609
0.00064 0.000453 -0.002552
0.000444 0.000547 -0.002397
0.00042 0.000548 -0.002401
0.000396 0.000548 -0.002409
0.000374 0.000546 -0.00242
0.000352 0.000541 -0.002435
0.000333 0.000534 -0.002457
0.000317 0.00052 -0.002493
0.000307 0.000496 -0.002548
0.000297 0.000471 -0.002607
0.000284 0.000452 -0.002652
0.00027 0.000435 -0.002694
0.000256 0.000419 -0.002734
0.000241 0.000404 -0.002771
0.000225 0.00039 -0.002808
0.000209 0.000377 -0.002842
0.000195 0.000363 -0.002877
0.001187 0.000759 -0.002134
0.001132 0.000732 -0.002373
0.001867 0.000617 -0.002344
0.001704 0.000678 -0.002361
0.002577 0.000476 -0.00153
0.00113 0.000753 -0.002322
0.001257 0.000726 -0.002106
0.001257 0.000671 -0.002106
0.001579 0.00057 -0.002299
0.001579 0.000597 -0.002299
0.001667 0.000638 -0.002347
0.001104 0.000272 -0.002763
0.001088 0.000264 -0.002787
0.001066 0.000262 -0.002798
0.001042 0.000261 -0.002807
0.001019 0.00026 -0.002816
0.000996 0.000259 -0.002824
0.000973 0.000258 -0.002832
0.000949 0.000258 -0.002839
0.000924 0.000261 -0.00284
0.000894 0.000272 -0.002824
0.000862 0.000286 -0.002801
0.000829 0.000302 -0.002775
0.000796 0.000318 -0.002748
0.00076 0.00034 -0.002709
0.000721 0.000367 -0.00266
0.000681 0.000395 -0.002609
0.00042 0.000521 -0.002402
0.000396 0.000521 -0.002409
0.000374 0.000519 -0.00242
0.000352 0.000514 -0.002435
0.000333 0.000507 -0.002457
0.000317 0.000493 -0.002492
0.000306 0.000469 -0.002547
0.000297 0.000444 -0.002607
0.000284 0.000425 -0.002653
0.00027 0.000408 -0.002694
0.000256 0.000392 -0.002734
0.00024 0.000377 -0.002771
0.000225 0.000363 -0.002808
0.000209 0.00035 -0.002842
0.000194 0.000336 -0.002877
0.001908 0.000535 -0.002068
0.001848 0.000641 -0.001882
0.001133 0.000748 -0.002468
0.001931 0.000595 -0.002287
0.001887 0.000618 -0.002329
0.001074 0.00058 -0.002794
0.001133 0.000594 -0.002516
0.001626 0.000547 -0.002329
0.001666 0.000584 -0.002347
0.001104 0.000244 -0.002764
0.001087 0.000237 -0.002786
0.001065 0.000235 -0.002798
0.001042 0.000234 -0.002807
0.001019 0.000233 -0.002816
0.000996 0.000232 -0.002824
0.000973 0.000231 -0.002832
0.000949 0.000231 -0.002839
0.000924 0.000234 -0.00284
0.000894 0.000245 -0.002824
0.000862 0.000259 -0.0028
0.000829 0.000275 -0.002775
0.00076 0.000313 -0.002709
0.000721 0.00034 -0.002659
0.000681 0.000368 -0.002609
0.00042 0.000494 -0.002402
0.000396 0.000494 -0.002409
0.000374 0.000492 -0.00242
0.000352 0.000487 -0.002435
0.000333 0.00048 -0.002457
0.000316 0.000467 -0.00249
0.000297 0.000417 -0.002607
0.000284 0.000398 -0.002653
0.00027 0.000381 -0.002694
0.000256 0.000365 -0.002734
0.00024 0.00035 -0.002772
0.000225 0.000336 -0.002808
0.000209 0.000322 -0.002842
0.000195 0.000308 -0.002878
0.001127 0.000508 -0.002599
0.001094 0.000553 -0.00278
0.001867 0.00059 -0.002344
0.001132 0.000731 -0.002514
0.001793 0.000727 -0.001666
0.001133 0.000676 -0.002515
0.001627 0.000519 -0.00233
0.001133 0.000567 -0.002515
0.00153 0.000649 -0.002267
0.001104 0.000218 -0.002763
0.001087 0.00021 -0.002786
0.001065 0.000208 -0.002798
0.001042 0.000206 -0.002807
0.001019 0.000206 -0.002816
0.000996 0.000205 -0.002824
0.000973 0.000204 -0.002832
0.000949 0.000204 -0.002838
0.000924 0.000207 -0.002839
0.000894 0.000217 -0.002825
0.000862 0.000232 -0.002801
0.000829 0.000248 -0.002775
0.000796 0.000264 -0.002748
0.00076 0.000286 -0.002709
0.000721 0.000313 -0.00266
0.000681 0.000341 -0.002607
0.00064 0.000371 -0.002552
0.00042 0.000467 -0.002401
0.000396 0.000466 -0.002409
0.000374 0.000464 -0.00242
0.000352 0.00046 -0.002435
0.000333 0.000452 -0.002457
0.000316 0.00044 -0.00249
0.000298 0.000389 -0.002608
0.000284 0.000371 -0.002652
0.00027 0.000354 -0.002694
0.000256 0.000337 -0.002734
0.00024 0.000323 -0.002772
0.000225 0.000309 -0.002807
0.000209 0.000295 -0.002842
0.000195 0.000281 -0.002878
0.001827 0.000398 -0.002373
0.001896 0.000607 -0.002024
0.001531 0.000676 -0.002268
0.001532 0.000702 -0.00227
0.001626 0.000655 -0.002329
0.001123 0.000629 -0.002639
0.00174 0.00042 -0.002372
0.001666 0.000448 -0.002346
0.00113 0.000632 -0.002557
0.001104 0.000191 -0.002762
0.001087 0.000184 -0.002784
0.001065 0.000181 -0.002797
0.001042 0.00018 -0.002806
0.001019 0.000179 -0.002815
0.000996 0.000178 -0.002823
0.000972 0.000177 -0.002831
0.000948 0.000178 -0.002837
0.000923 0.00018 -0.002838
0.000894 0.000191 -0.002824
0.000862 0.000205 -0.002801
0.000829 0.000221 -0.002773
0.000796 0.000237 -0.002748
0.00076 0.000258 -0.00271
0.000681 0.000314 -0.002609
0.00064 0.000344 -0.002553
0.000444 0.000439 -0.002396
0.00042 0.00044 -0.002401
0.000396 0.000439 -0.002409
0.000374 0.000437 -0.00242
0.000352 0.000433 -0.002435
0.000333 0.000425 -0.002457
0.000317 0.000411 -0.002492
0.000307 0.000386 -0.002551
0.000297 0.000362 -0.002607
0.000284 0.000343 -0.002653
0.00027 0.000326 -0.002695
0.000256 0.00031 -0.002735
0.00024 0.000296 -0.002771
0.000225 0.000281 -0.002808
0.000209 0.000268 -0.002842
0.000195 0.000254 -0.002878
0.001886 0.000428 -0.002328
0.001828 0.000506 -0.002374
0.001775 0.000543 -0.002382
0.00158 0.000678 -0.002301
0.001942 0.000598 -0.002264
0.002359 0.000554 -0.001678
0.001127 0.000562 -0.002599
0.001828 0.000452 -0.002374
0.001118 0.000533 -0.002678
0.001134 0.000612 -0.00247
0.00138 0.000727 -0.002164
0.001104 0.000164 -0.002762
0.001086 0.000157 -0.002782
0.001065 0.000155 -0.002795
0.001042 0.000153 -0.002805
0.001019 0.000152 -0.002814
0.000996 0.000151 -0.002822
0.000972 0.000151 -0.002829
0.000948 0.000152 -0.002834
0.000923 0.000154 -0.002836
0.000893 0.000164 -0.002823
0.000862 0.000178 -0.0028
0.000829 0.000194 -0.002773
0.000796 0.000209 -0.002748
0.00076 0.000232 -0.002709
0.000721 0.000258 -0.00266
0.000681 0.000287 -0.002607
0.00064 0.000317 -0.002552
0.000444 0.000412 -0.002396
0.000419 0.000412 -0.002401
0.000396 0.000412 -0.002409
0.000374 0.00041 -0.00242
0.000352 0.000406 -0.002435
0.000333 0.000398 -0.002457
0.000317 0.000384 -0.002492
0.000307 0.00036 -0.002549
0.000297 0.000336 -0.002606
0.000284 0.000316 -0.002652
0.00027 0.000299 -0.002694
0.000256 0.000283 -0.002735
0.00024 0.000268 -0.002771
0.000225 0.000254 -0.002808
0.000209 0.000241 -0.002842
0.000194 0.000227 -0.002878
0.001135 0.000575 -0.002425
0.001806 0.000507 -0.002385
0.001739 0.000556 -0.002372
0.002172 0.000685 -0.001642
0.00193 0.000623 -0.002286
0.001126 0.000644 -0.002598
0.001231 0.00073 -0.00211
0.001112 0.00052 -0.002715
0.001325 0.000729 -0.002123
0.001935 0.000515 -0.002191
0.001103 0.000138 -0.002759
0.001085 0.000132 -0.002779
0.001064 0.000129 -0.002792
0.001041 0.000127 -0.002802
0.001018 0.000126 -0.002812
0.000995 0.000126 -0.002819
0.000971 0.000126 -0.002826
0.000947 0.000126 -0.002831
0.000922 0.000129 -0.002833
0.000893 0.000137 -0.002823
0.000862 0.000151 -0.0028
0.000829 0.000167 -0.002774
0.000759 0.000205 -0.002707
0.000721 0.000231 -0.00266
0.000681 0.00026 -0.002608
0.00064 0.00029 -0.002552
0.000444 0.000384 -0.002396
0.000419 0.000385 -0.002401
0.000396 0.000385 -0.002409
0.000374 0.000383 -0.00242
0.000352 0.000378 -0.002435
0.000333 0.00037 -0.002458
0.000317 0.000357 -0.002493
0.000297 0.000308 -0.002606
0.000284 0.000289 -0.002652
0.00027 0.000273 -0.002693
0.000256 0.000256 -0.002735
0.00024 0.000241 -0.002772
0.000225 0.000226 -0.002809
0.000209 0.000213 -0.002843
0.000194 0.0002 -0.002878
0.002853 0.000652 -0.000512
0.001666 0.000557 -0.002346
0.001133 0.000704 -0.002374
0.001431 0.000727 -0.0022
0.001481 0.000701 -0.002235
0.001847 0.000535 -0.002359
0.001133 0.000539 -0.002516
0.001135 0.000557 -0.002471
0.001386 0.000749 -0.002174
0.001103 0.000113 -0.002755
0.001084 0.000108 -0.002773
0.001062 0.000105 -0.002786
0.001039 0.000103 -0.002797
0.001016 0.000102 -0.002806
0.000993 0.000101 -0.002814
0.000969 0.000101 -0.00282
0.000945 0.000102 -0.002825
0.00092 0.000104 -0.002827
0.000893 0.00011 -0.002821
0.000861 0.000124 -0.002799
0.000829 0.000139 -0.002774
0.00076 0.000177 -0.002709
0.000721 0.000203 -0.002662
0.00064 0.000262 -0.002553
0.000443 0.000357 -0.002396
0.000419 0.000358 -0.002401
0.000396 0.000357 -0.002409
0.000374 0.000356 -0.00242
0.000352 0.000351 -0.002435
0.000333 0.000343 -0.002458
0.000317 0.00033 -0.002492
0.000307 0.000305 -0.00255
0.000297 0.000281 -0.002606
0.000284 0.000262 -0.002652
0.00027 0.000245 -0.002694
0.000256 0.000229 -0.002734
0.00024 0.000214 -0.002771
0.000225 0.000199 -0.002809
0.000209 0.000186 -0.002843
0.000194 0.000173 -0.002878
0.001118 0.000692 -0.002209
0.001288 0.000744 -0.002109
0.001123 0.000602 -0.002639
0.001627 0.000628 -0.002329
0.001666 0.000611 -0.002346
0.001828 0.000534 -0.002374
0.00174 0.000474 -0.002372
0.001074 0.000498 -0.002794
0.002359 0.000717 -0.001678
0.001101 9e-05 -0.002748
0.001082 8.4e-05 -0.002765
0.00106 8.2e-05 -0.002778
0.001037 8e-05 -0.002788
0.001014 7.9e-05 -0.002797
0.000991 7.8e-05 -0.002805
0.000967 7.8e-05 -0.002811
0.000943 7.9e-05 -0.002816
0.000918 8.1e-05 -0.002819
0.000892 8.5e-05 -0.002816
0.000861 9.7e-05 -0.002798
0.000829 0.000112 -0.002775
0.00076 0.00015 -0.002708
0.000721 0.000176 -0.002661
0.000278 -2.2e-05 -0.002075
0.000443 0.00033 -0.002396
0.000419 0.000331 -0.002401
0.000396 0.00033 -0.002409
0.000373 0.000328 -0.00242
0.000352 0.000324 -0.002435
0.000333 0.000316 -0.002458
0.000317 0.000303 -0.002492
0.000307 0.000278 -0.00255
0.000297 0.000253 -0.002607
0.000284 0.000235 -0.002653
0.00027 0.000218 -0.002694
0.000256 0.000201 -0.002735
0.00024 0.000187 -0.002771
0.000225 0.000172 -0.002809
0.000209 0.000159 -0.002842
0.000193 0.000145 -0.002878
0.001106 0.00048 -0.002752
0.00153 0.000621 -0.002268
0.001282 0.000776 -0.002099
0.001135 0.00072 -0.002471
0.001135 0.000738 -0.002424
0.001806 0.000535 -0.002385
0.00174 0.000501 -0.002372
0.001122 0.000493 -0.002638
0.001784 0.000723 -0.001691
0.001099 6.7e-05 -0.002739
0.001078 6.3e-05 -0.002754
0.001056 6e-05 -0.002766
0.001034 5.9e-05 -0.002776
0.001011 5.7e-05 -0.002785
0.000987 5.7e-05 -0.002793
0.000964 5.7e-05 -0.0028
0.000939 5.7e-05 -0.002805
0.000915 5.9e-05 -0.002808
0.000889 6.2e-05 -0.002808
0.00086 7.1e-05 -0.002796
0.000829 8.5e-05 -0.002774
0.000721 0.000149 -0.002661
0.000302 -2.2e-05 -0.002069
0.000443 0.000303 -0.002396
0.000419 0.000304 -0.002401
0.000396 0.000303 -0.002409
0.000373 0.000301 -0.00242
0.000352 0.000297 -0.002435
0.000332 0.000289 -0.002457
0.000317 0.000275 -0.002493
0.000307 0.000251 -0.00255
0.000297 0.000226 -0.002607
0.000284 0.000208 -0.002653
0.00027 0.00019 -0.002695
0.000256 0.000174 -0.002734
0.000241 0.000159 -0.002772
0.000225 0.000145 -0.002809
0.000209 0.000131 -0.002844
0.000193 0.000118 -0.002877
0.000177 0.000106 -0.00291
0.001186 0.000706 -0.002132
0.00174 0.000528 -0.002372
0.00133 0.000752 -0.00213
0.001442 0.000745 -0.002218
0.001135 0.000692 -0.002471
0.001127 0.000617 -0.002598
0.001118 0.000479 -0.002678
0.001867 0.000701 -0.001931
0.0011 0.000703 -0.002742
0.001095 4.7e-05 -0.002725
0.001075 4.3e-05 -0.00274
0.001052 4e-05 -0.002751
0.001029 3.9e-05 -0.002761
0.001006 3.8e-05 -0.00277
0.000983 3.7e-05 -0.002777
0.000959 3.7e-05 -0.002784
0.000935 3.8e-05 -0.00279
0.000911 3.9e-05 -0.002794
0.000886 4.1e-05 -0.002795
0.000859 4.7e-05 -0.00279
0.000828 5.9e-05 -0.002772
0.000796 7.4e-05 -0.002746
0.000326 -2.3e-05 -0.002064
0.00064 0.000181 -0.002552
0.00035 -2.3e-05 -0.002059
0.000443 0.000276 -0.002396
0.000419 0.000277 -0.002401
0.000396 0.000276 -0.002408
0.000373 0.000274 -0.002419
0.000352 0.00027 -0.002435
0.000332 0.000262 -0.002457
0.000317 0.000248 -0.002492
0.000307 0.000223 -0.002551
0.000297 0.0002 -0.002605
0.000284 0.00018 -0.002652
0.00027 0.000163 -0.002694
0.000256 0.000147 -0.002734
0.000241 0.000132 -0.002773
0.000225 0.000118 -0.002808
0.000209 0.000104 -0.002844
0.000193 9.1e-05 -0.002877
0.000177 7.9e-05 -0.002909
0.001186 0.000679 -0.002132
0.001626 0.000574 -0.002329
0.001121 0.000733 -0.002308
0.002507 0.000567 -0.001645
0.001848 0.000507 -0.002359
0.001131 0.000699 -0.002183
0.001112 0.000493 -0.002715
0.00174 0.000691 -0.002373
0.001091 2.8e-05 -0.002707
0.001069 2.5e-05 -0.002721
0.001047 2.3e-05 -0.002731
0.001024 2.1e-05 -0.002741
0.001001 2e-05 -0.002749
0.000977 2e-05 -0.002757
0.000954 2e-05 -0.002763
0.00093 2e-05 -0.002769
0.000905 2.1e-05 -0.002774
0.00088 2.3e-05 -0.002777
0.000854 2.7e-05 -0.002774
0.000826 3.6e-05 -0.002764
0.000795 4.8e-05 -0.002744
0.000759 6.9e-05 -0.002708
0.00068 0.000124 -0.002607
0.00064 0.000153 -0.002554
0.000443 0.000249 -0.002396
0.000419 0.00025 -0.002401
0.000396 0.000249 -0.002408
0.000373 0.000247 -0.002419
0.000352 0.000243 -0.002435
0.000332 0.000235 -0.002457
0.000317 0.000221 -0.002493
0.000307 0.000196 -0.00255
0.000297 0.000172 -0.002606
0.000284 0.000153 -0.002654
0.00027 0.000136 -0.002695
0.000255 0.00012 -0.002734
0.000241 0.000105 -0.002773
0.000225 9.1e-05 -0.002808
0.000209 7.7e-05 -0.002843
0.000192 6.4e-05 -0.002876
0.000176 5.4e-05 -0.002906
0.00113 0.000605 -0.002557
0.001775 0.000516 -0.002383
0.00143 0.0007 -0.002199
0.001113 0.000601 -0.002716
0.002545 0.000655 -0.001581
0.001118 0.000664 -0.002209
0.002815 0.000726 -0.000481
0.001105 1.9e-05 -0.002666
0.001084 1.3e-05 -0.002683
0.001062 1e-05 -0.002694
0.001039 9e-06 -0.002703
0.001016 8e-06 -0.002712
0.000993 7e-06 -0.00272
0.000969 7e-06 -0.002727
0.000945 7e-06 -0.002734
0.000921 7e-06 -0.00274
0.000898 7e-06 -0.002746
0.000873 9e-06 -0.00275
0.000848 1.1e-05 -0.002751
0.000821 1.7e-05 -0.002747
0.000792 2.6e-05 -0.002734
0.000759 4.3e-05 -0.002707
0.00068 9.8e-05 -0.002606
0.000639 0.000128 -0.00255
0.000443 0.000222 -0.002395
0.000419 0.000223 -0.002401
0.000395 0.000222 -0.002408
0.000373 0.00022 -0.002419
0.000352 0.000215 -0.002435
0.000332 0.000208 -0.002457
0.000317 0.000194 -0.002493
0.000307 0.000169 -0.00255
0.000297 0.000145 -0.002606
0.000285 0.000125 -0.002655
0.00027 0.000109 -0.002694
0.000255 9.3e-05 -0.002734
0.000241 7.7e-05 -0.002773
0.000225 6.4e-05 -0.002808
0.000209 5.1e-05 -0.002842
0.000192 3.9e-05 -0.002872
0.000173 3e-05 -0.002896
0.001135 0.000638 -0.002471
0.002319 0.000596 -0.001676
0.001106 0.000589 -0.002752
0.001118 0.000615 -0.002677
0.002319 0.000569 -0.001676
0.001131 0.000726 -0.002183
0.001105 0.000453 -0.002752
0.001117 1.1e-05 -0.002616
0.001097 5e-06 -0.002635
0.001074 3e-06 -0.002646
0.00105 4e-06 -0.002652
0.001027 3e-06 -0.002659
0.001003 3e-06 -0.002666
0.000979 4e-06 -0.002671
0.000956 3e-06 -0.00268
0.000932 2e-06 -0.002687
0.000909 2e-06 -0.002694
0.000837 4e-06 -0.00271
0.000812 6e-06 -0.002714
0.000786 1e-05 -0.00271
0.000755 2.1e-05 -0.002694
0.00068 7.1e-05 -0.002605
0.000639 0.000101 -0.002549
0.000443 0.000195 -0.002395
0.000419 0.000196 -0.0024
0.000395 0.000195 -0.002408
0.000373 0.000193 -0.002419
0.000352 0.000188 -0.002435
0.000332 0.000181 -0.002457
0.000317 0.000166 -0.002493
0.000307 0.000142 -0.00255
0.000297 0.000119 -0.002605
0.000285 9.8e-05 -0.002655
0.00027 8.2e-05 -0.002695
0.000255 6.6e-05 -0.002734
0.00024 5.1e-05 -0.002772
0.000224 3.7e-05 -0.002807
0.000208 2.6e-05 -0.002837
0.000188 1.7e-05 -0.00286
0.000167 1.2e-05 -0.002876
0.001094 0.000472 -0.00278
0.001107 0.000561 -0.002752
0.001703 0.000624 -0.00236
0.00174 0.00061 -0.002372
0.001776 0.000597 -0.002384
0.001135 0.000684 -0.002424
0.001867 0.000427 -0.002344
0.001666 0.000502 -0.002347
0.001105 5e-06 -0.002572
0.001082 5e-06 -0.002579
0.001034 5e-06 -0.002592
0.00101 6e-06 -0.002597
0.000986 6e-06 -0.002604
0.000962 6e-06 -0.002611
0.000939 6e-06 -0.002618
0.000374 -2.4e-05 -0.002053
0.000398 -2.4e-05 -0.002047
0.000747 9e-06 -0.002663
0.000717 2e-05 -0.002648
0.00068 4.4e-05 -0.002605
0.000443 0.000167 -0.002395
0.000419 0.000168 -0.0024
0.000395 0.000168 -0.002408
0.000373 0.000166 -0.002419
0.000352 0.000161 -0.002435
0.000332 0.000154 -0.002457
0.000316 0.00014 -0.002492
0.000306 0.000116 -0.002548
0.000297 9e-05 -0.002607
0.000284 7.1e-05 -0.002653
0.00027 5.5e-05 -0.002694
0.000255 3.9e-05 -0.002733
0.000239 2.5e-05 -0.002768
0.000223 1.2e-05 -0.002797
0.000202 7e-06 -0.002817
0.00018 5e-06 -0.00283
0.000156 5e-06 -0.002838
0.001848 0.00048 -0.00236
0.001779 0.000688 -0.00172
0.00113 0.000714 -0.002557
0.001626 0.000682 -0.002329
0.001666 0.000665 -0.002347
0.001094 0.000581 -0.002779
0.002535 0.000598 -0.001604
0.001941 0.000609 -0.00223
0.001114 5e-06 -0.002511
0.001089 6e-06 -0.002515
0.001065 6e-06 -0.00252
0.001927 0.000693 -0.002151
0.000994 6e-06 -0.002541
0.000971 6e-06 -0.002548
0.000947 6e-06 -0.002555
0.000923 6e-06 -0.002562
0.0009 5e-06 -0.002569
0.001112 0.000466 -0.002715
0.000853 5e-06 -0.002583
0.000829 5e-06 -0.002589
0.000805 5e-06 -0.002595
0.000781 5e-06 -0.002601
0.000757 5e-06 -0.002608
0.000734 5e-06 -0.002616
0.000709 6e-06 -0.00262
0.000443 0.00014 -0.002395
0.000419 0.000141 -0.0024
0.000395 0.000141 -0.002408
0.000373 0.000139 -0.002419
0.000352 0.000134 -0.002435
0.000332 0.000126 -0.002457
0.000316 0.000112 -0.002492
0.000307 8.8e-05 -0.00255
0.000298 6.2e-05 -0.002609
0.000284 4.4e-05 -0.002654
0.000269 2.8e-05 -0.002693
0.000253 1.6e-05 -0.002726
0.000234 8e-06 -0.002748
0.000163 7e-06 -0.00277
0.000141 5e-06 -0.002781
0.000116 6e-06 -0.002786
0.001828 0.000479 -0.002374
0.002318 0.000733 -0.001674
0.001804 0.000617 -0.002383
0.001827 0.000616 -0.002372
0.001805 0.000589 -0.002384
0.001134 0.000666 -0.00247
0.001094 0.000526 -0.00278
0.00114 1.5e-05 -0.002421
0.001123 2e-06 -0.002456
0.001101 -1e-06 -0.002465
0.001077 -1e-06 -0.002472
0.001054 -1e-06 -0.00248
0.001031 -2e-06 -0.002487
0.000422 -2.5e-05 -0.002042
0.001895 0.000597 -0.002322
0.00113 0.000524 -0.002558
0.000936 -1e-06 -0.002514
0.000912 -2e-06 -0.002522
0.000888 -2e-06 -0.002528
0.000865 -3e-06 -0.002535
0.000841 -2e-06 -0.002542
0.000817 -2e-06 -0.002548
0.000793 -1e-06 -0.002551
0.00077 -2e-06 -0.002561
0.000746 -2e-06 -0.002568
0.000723 -3e-06 -0.002577
0.000698 -1e-06 -0.002578
0.000446 -2.5e-05 -0.002036
0.000443 0.000113 -0.002395
0.000419 0.000114 -0.0024
0.000395 0.000114 -0.002408
0.000373 0.000111 -0.002419
0.000352 0.000107 -0.002435
0.000332 9.9e-05 -0.002456
0.000316 8.6e-05 -0.002492
0.000307 6.1e-05 -0.002549
0.000298 3.5e-05 -0.002609
0.000284 1.7e-05 -0.002653
0.000266 7e-06 -0.002681
0.000245 2e-06 -0.002697
0.000221 3e-06 -0.002703
0.000148 5e-06 -0.002717
0.000124 6e-06 -0.002722
0.0001 6e-06 -0.002728
0.001895 0.000488 -0.002322
0.001106 0.000616 -0.002752
0.001776 0.000624 -0.002384
0.001847 0.000616 -0.002359
0.001133 0.000648 -0.002515
0.001106 0.000534 -0.002752
0.001131 3e-06 -0.002389
0.00111 -1e-06 -0.002403
0.001085 -0.0 -0.002408
0.001062 -1e-06 -0.002416
0.001038 -1e-06 -0.002422
0.001014 -0.0 -0.002428
0.00047 -2.5e-05 -0.00203
0.000895 1e-06 -0.00246
0.000871 1e-06 -0.002466
0.000847 1e-06 -0.002472
0.000823 1e-06 -0.002477
0.0008 1e-06 -0.002485
0.000753 1e-06 -0.002499
0.000728 2e-06 -0.002503
0.000494 -2.6e-05 -0.002024
0.000517 -2.6e-05 -0.002017
0.000443 8.6e-05 -0.002395
0.000419 8.7e-05 -0.0024
0.000395 8.7e-05 -0.002407
0.000373 8.4e-05 -0.002418
0.000351 8e-05 -0.002434
0.000332 7.2e-05 -0.002456
0.000316 5.9e-05 -0.00249
0.000306 3.4e-05 -0.002549
0.000296 1.1e-05 -0.002603
0.000277 2e-06 -0.002629
0.000256 -1e-06 -0.002642
0.000233 -3e-06 -0.002652
0.000208 -2e-06 -0.002657
0.001919 0.000627 -0.002111
0.001073 0.000608 -0.002793
0.001122 0.000711 -0.002638
0.001914 0.000595 -0.002305
0.00113 0.00066 -0.002557
0.001074 0.000525 -0.002794
0.001092 2e-06 -0.002341
0.001068 3e-06 -0.002346
0.001045 2e-06 -0.002354
0.001021 3e-06 -0.002358
0.000997 3e-06 -0.002365
0.000973 3e-06 -0.002371
0.000949 3e-06 -0.002378
0.000926 3e-06 -0.002385
0.000902 3e-06 -0.002391
0.000878 4e-06 -0.002396
0.000854 4e-06 -0.002403
0.002268 0.00075 -0.00108
0.001943 0.000543 -0.002265
0.000712 4e-06 -0.002443
0.000688 4e-06 -0.00245
0.000664 4e-06 -0.002454
0.00064 4e-06 -0.002462
0.000617 3e-06 -0.002471
0.000443 5.9e-05 -0.002395
0.000419 6e-05 -0.0024
0.000395 6e-05 -0.002407
0.000372 5.8e-05 -0.002417
0.000351 5.3e-05 -0.002434
0.000332 4.5e-05 -0.002456
0.000316 3.1e-05 -0.002492
0.000263 0.0 -0.002576
0.000238 1e-06 -0.00258
0.000541 -2.6e-05 -0.002011
0.001886 0.000402 -0.002327
0.002275 0.000586 -0.001669
0.001918 0.000709 -0.00211
0.001187 5.8e-05 -0.002129
0.001165 5.3e-05 -0.002144
0.001144 4.7e-05 -0.002164
0.00143 0.000592 -0.002199
0.002521 0.000541 -0.001625
0.001075 5e-06 -0.002278
0.001052 5e-06 -0.002286
0.001027 6e-06 -0.00229
0.000956 5e-06 -0.002312
0.000933 4e-06 -0.002321
0.00091 3e-06 -0.002327
0.000886 4e-06 -0.002333
0.000862 3e-06 -0.002341
0.000839 3e-06 -0.002348
0.000815 3e-06 -0.002354
0.001122 0.000548 -0.002638
0.001135 0.000629 -0.002425
0.000744 3e-06 -0.002375
0.00072 4e-06 -0.00238
0.000696 3e-06 -0.002387
0.000673 3e-06 -0.002394
0.000649 3e-06 -0.0024
0.000625 4e-06 -0.002405
0.000601 3e-06 -0.002414
0.000467 3e-05 -0.002392
0.000443 3.2e-05 -0.002394
0.000419 3.3e-05 -0.002399
0.000395 3.3e-05 -0.002407
0.000372 3e-05 -0.002417
0.000351 2.6e-05 -0.002433
0.000332 1.8e-05 -0.002455
0.000565 -2.6e-05 -0.002004
0.000589 -2.6e-05 -0.001998
0.001326 0.000647 -0.002124
0.001093 0.000608 -0.002778
0.001209 3.4e-05 -0.002116
0.001187 3.1e-05 -0.002129
0.001166 2.6e-05 -0.002144
0.001145 2e-05 -0.002164
0.001125 1e-05 -0.002192
0.001806 0.000453 -0.002385
0.001074 0.000471 -0.002794
0.002224 0.000662 -0.001656
0.002575 0.000613 -0.001528
0.001326 0.000701 -0.002124
0.001919 0.000518 -0.002111
0.001806 0.00048 -0.002385
0.001912 0.000715 -0.001574
0.000922 -3e-06 -0.002279
0.001256 0.000699 -0.002105
0.001113 0.000705 -0.002248
0.001867 0.000481 -0.002344
0.001794 0.000708 -0.002366
0.000804 -5e-06 -0.002316
0.001133 0.000621 -0.002515
0.00174 0.000447 -0.002373
0.001166 0.000678 -0.002146
0.00071 -6e-06 -0.002344
0.000686 -6e-06 -0.002351
0.000663 -6e-06 -0.002358
0.000638 -6e-06 -0.002363
0.000615 -6e-06 -0.002369
0.000591 -5e-06 -0.002376
0.000567 -5e-06 -0.002381
0.000543 -6e-06 -0.002389
0.000519 -4e-06 -0.002393
0.000443 5e-06 -0.002394
0.000418 6e-06 -0.002399
0.000395 6e-06 -0.002406
0.000372 4e-06 -0.002416
0.00035 1e-06 -0.002429
0.000328 -2e-06 -0.002441
0.001379 0.000619 -0.002162
0.001232 8e-06 -0.002106
0.001209 6e-06 -0.002117
0.001187 3e-06 -0.00213
0.001166 -0.0 -0.002143
0.001144 -4e-06 -0.002157
0.001122 -6e-06 -0.002169
0.001098 -6e-06 -0.002178
0.001122 0.000521 -0.002638
0.001703 0.000488 -0.00236
0.001027 -5e-06 -0.002197
0.001003 -6e-06 -0.002202
0.000979 -7e-06 -0.00221
0.000955 -6e-06 -0.002214
0.00113 0.000551 -0.002558
0.002829 0.000667 -0.000806
0.001908 0.000671 -0.002068
0.001666 0.00053 -0.002346
0.001816 0.000707 -0.002355
0.001837 0.000707 -0.002341
0.001767 0.000713 -0.002369
0.000669 -3e-06 -0.002289
0.000646 -5e-06 -0.002298
0.000622 -5e-06 -0.002304
0.000599 -5e-06 -0.002312
0.000551 -4e-06 -0.002324
0.000528 -5e-06 -0.002332
0.000504 -5e-06 -0.002338
0.000433 -6e-06 -0.00236
0.000409 -5e-06 -0.002366
0.000385 -5e-06 -0.002371
0.000362 -6e-06 -0.002381
0.000338 -6e-06 -0.002386
0.001248 -5e-06 -0.002072
0.001224 -5e-06 -0.002078
0.001201 -6e-06 -0.002086
0.001177 -7e-06 -0.002094
0.001154 -7e-06 -0.002101
0.001129 -5e-06 -0.002104
0.001106 -6e-06 -0.002112
0.001082 -5e-06 -0.002117
0.001057 -4e-06 -0.002122
0.001009 -3e-06 -0.002132
0.000986 -3e-06 -0.00214
0.000962 -3e-06 -0.002146
0.000938 -4e-06 -0.002154
0.001131 0.000672 -0.002183
0.001666 0.000476 -0.002346
0.001703 0.000461 -0.00236
0.001132 0.000623 -0.002373
0.001326 0.000674 -0.002124
0.001072 0.000636 -0.002791
0.001856 0.000709 -0.002325
0.000612 -2.6e-05 -0.001991
0.000636 -2.6e-05 -0.001984
0.00066 -2.5e-05 -0.001977
8.6e-05 -6e-06 -0.002397
6.1e-05 -6e-06 -0.002402
3.8e-05 -6e-06 -0.00241
1.4e-05 -5e-06 -0.002416
0.001231 -3e-06 -0.00201
0.001207 -3e-06 -0.002017
0.001183 -2e-06 -0.002022
0.001159 -1e-06 -0.002027
0.001135 -1e-06 -0.002033
0.001111 -1e-06 -0.00204
0.001087 0.0 -0.002043
0.001063 -0.0 -0.002051
0.001039 0.0 -0.002057
0.001015 1e-06 -0.002062
0.000992 1e-06 -0.002068
0.000968 1e-06 -0.002075
0.000944 1e-06 -0.002081
0.00092 1e-06 -0.002088
0.001626 0.000492 -0.002328
0.001867 0.000509 -0.002344
0.001118 0.000642 -0.002677
0.001126 0.000672 -0.002598
0.002257 0.000729 -0.000938
0.001806 0.000399 -0.002385
0.001847 0.000399 -0.002359
0.001867 0.0004 -0.002343
0.001094 0.000444 -0.00278
0.001941 0.000473 -0.00223
0.000421 2e-06 -0.002225
0.000397 3e-06 -0.00223
0.000374 2e-06 -0.002237
0.000683 -2.5e-05 -0.00197
0.000115 -2e-06 -0.002319
9.1e-05 -1e-06 -0.002324
6.8e-05 -2e-06 -0.002332
4.4e-05 -2e-06 -0.002339
2.1e-05 -4e-06 -0.002349
-2e-06 -4e-06 -0.002356
0.001736 0.000722 -0.002366
0.001189 1e-06 -0.001952
0.001165 2e-06 -0.001958
0.001142 1e-06 -0.001965
0.001118 2e-06 -0.001971
0.001094 2e-06 -0.001976
0.00107 3e-06 -0.001981
0.001046 3e-06 -0.001988
0.001022 3e-06 -0.001994
0.000998 3e-06 -0.002001
0.000975 2e-06 -0.002009
0.000951 3e-06 -0.002014
0.000927 3e-06 -0.00202
0.002466 0.000464 -0.001675
0.002359 0.000663 -0.001678
0.001775 0.000434 -0.002383
0.001074 0.000444 -0.002794
0.001118 0.000588 -0.002678
0.001123 0.000656 -0.002638
0.001843 0.000674 -0.002352
0.001882 0.000676 -0.002321
0.00111 0.000712 -0.002712
0.001704 0.000705 -0.002361
0.000667 2e-06 -0.002095
0.000643 2e-06 -0.002103
0.00062 2e-06 -0.00211
0.000596 2e-06 -0.002115
0.000572 2e-06 -0.002121
0.000548 1e-06 -0.002129
0.000525 1e-06 -0.002136
0.000501 2e-06 -0.002142
0.000405 3e-06 -0.002167
0.000382 3e-06 -0.002174
0.000239 3e-06 -0.002213
0.000215 3e-06 -0.002219
0.000191 4e-06 -0.002223
0.000144 3e-06 -0.002239
0.000121 2e-06 -0.002247
9.6e-05 4e-06 -0.002251
7.3e-05 3e-06 -0.002259
4.9e-05 3e-06 -0.002265
2.6e-05 2e-06 -0.002274
3e-06 1e-06 -0.002283
0.001135 0.000656 -0.002425
0.001173 3e-06 -0.001892
0.001149 3e-06 -0.001899
0.001126 3e-06 -0.001906
0.001102 2e-06 -0.001913
0.001079 1e-06 -0.001922
0.001055 1e-06 -0.001929
0.001032 1e-06 -0.001936
0.001008 0.0 -0.001944
0.000985 -0.0 -0.001951
0.000961 -1e-06 -0.001959
0.000938 -1e-06 -0.001967
0.0018 0.000676 -0.002375
0.001105 0.000643 -0.002751
0.001112 0.000656 -0.002715
0.001104 0.000672 -0.002748
0.002012 0.000645 -0.001598
0.000797 -3e-06 -0.002011
0.000773 -4e-06 -0.002017
0.00075 -4e-06 -0.002025
0.000726 -4e-06 -0.002032
0.000702 -4e-06 -0.00204
0.000679 -4e-06 -0.002046
0.000655 -5e-06 -0.002054
0.000632 -5e-06 -0.002061
0.000608 -5e-06 -0.002067
0.000584 -5e-06 -0.002073
0.00056 -5e-06 -0.00208
0.000537 -5e-06 -0.002087
0.000513 -5e-06 -0.002093
0.000489 -5e-06 -0.0021
0.00025 -2e-06 -0.002159
0.000226 -1e-06 -0.002164
0.000202 -0.0 -0.00217
0.000178 -0.0 -0.002176
0.000154 0.0 -0.002182
0.00013 1e-06 -0.002187
0.000106 2e-06 -0.002192
8.2e-05 2e-06 -0.002198
5.7e-05 3e-06 -0.002203
3.4e-05 3e-06 -0.002209
1e-05 3e-06 -0.002216
-1.4e-05 3e-06 -0.002223
0.001703 0.000515 -0.00236
0.001867 0.000536 -0.002343
0.001136 -2e-06 -0.001853
0.001113 -3e-06 -0.001861
0.00109 -3e-06 -0.001868
0.001067 -4e-06 -0.001878
0.001043 -5e-06 -0.001885
0.00102 -6e-06 -0.001893
0.000996 -6e-06 -0.001901
0.00158 0.000705 -0.002301
0.001122 0.000684 -0.002638
0.001919 0.000545 -0.002111
0.001927 0.00053 -0.002151
0.001118 0.00067 -0.002677
0.001092 0.000637 -0.002776
0.000833 -1.1e-05 -0.001958
0.00081 -1.2e-05 -0.001965
0.000786 -1.2e-05 -0.001973
0.000763 -1.3e-05 -0.00198
0.000739 -1.3e-05 -0.001988
0.000716 -1.3e-05 -0.001995
0.000692 -1.4e-05 -0.002002
0.000669 -1.4e-05 -0.00201
0.000645 -1.4e-05 -0.002017
0.000621 -1.4e-05 -0.002024
0.000598 -1.4e-05 -0.00203
0.000574 -1.5e-05 -0.002037
0.00055 -1.5e-05 -0.002044
0.000526 -1.4e-05 -0.00205
0.000502 -1.4e-05 -0.002056
0.000478 -1.4e-05 -0.002062
0.000455 -1.4e-05 -0.002069
0.000431 -1.4e-05 -0.002075
0.000407 -1.3e-05 -0.002081
0.000383 -1.3e-05 -0.002086
0.000359 -1.2e-05 -0.002092
0.000335 -1.2e-05 -0.002098
0.000311 -1.2e-05 -0.002103
0.000287 -1.1e-05 -0.002109
0.000239 -1e-05 -0.002119
0.000215 -9e-06 -0.002125
0.000191 -8e-06 -0.00213
0.000167 -8e-06 -0.002136
0.000143 -7e-06 -0.002141
0.000118 -6e-06 -0.002146
9.4e-05 -5e-06 -0.00215
7e-05 -4e-06 -0.002155
4.6e-05 -4e-06 -0.002161
2.1e-05 -3e-06 -0.002165
-3e-06 -2e-06 -0.002169
0.001131 0.000597 -0.002371
0.001112 0.000651 -0.002247
0.001379 0.000646 -0.002162
0.001118 0.000506 -0.002678
0.001118 0.000719 -0.00221
0.002369 0.000688 -0.001183
0.00113 0.000578 -0.002557
0.001207 0.000678 -0.002119
0.002534 0.000571 -0.001604
0.001207 0.000706 -0.002119
0.001703 0.000434 -0.00236
0.001775 0.000407 -0.002383
0.001118 0.000745 -0.00221
0.001775 0.000461 -0.002383
0.00123 0.000676 -0.00211
0.000824 -2.2e-05 -0.001924
0.0008 -2.3e-05 -0.001932
0.000777 -2.4e-05 -0.00194
0.000754 -2.4e-05 -0.001947
0.00073 -2.4e-05 -0.001955
0.000707 -2.5e-05 -0.001963
0.001531 0.000512 -0.002269
0.00143 0.000564 -0.0022
0.001379 0.000591 -0.002163
0.001287 0.000636 -0.002108
0.001256 0.000644 -0.002105
0.00123 0.000649 -0.00211
0.001207 0.000651 -0.002119
0.001186 0.000652 -0.002131
0.001166 0.000651 -0.002145
0.001147 0.000649 -0.002162
0.001131 0.000645 -0.002183
0.001118 0.000637 -0.002209
0.001113 0.000623 -0.002248
0.001122 0.000596 -0.00231
0.001132 0.000569 -0.002372
0.001135 0.000548 -0.002424
0.001135 0.000529 -0.002471
0.001133 0.000512 -0.002515
0.00113 0.000496 -0.002557
0.001127 0.000481 -0.002599
0.001123 0.000466 -0.002639
0.001118 0.000452 -0.002678
0.001112 0.000439 -0.002715
0.001105 0.000426 -0.002752
0.001094 0.000417 -0.00278
0.001074 0.000417 -0.002794
0.002433 0.000474 -0.001679
0.002491 0.000458 -0.001665
0.001866 0.000674 -0.00193
0.001876 0.000598 -0.002337
0.002505 0.000676 -0.001632
0.002516 0.000665 -0.001391
0.001886 0.000374 -0.002328
0.001867 0.000373 -0.002344
0.001848 0.000371 -0.002359
0.001828 0.00037 -0.002374
0.001806 0.000371 -0.002385
0.001775 0.00038 -0.002383
0.00174 0.000393 -0.002372
0.001703 0.000407 -0.00236
0.001666 0.000421 -0.002346
0.001625 0.000439 -0.002327
0.001579 0.000461 -0.0023
0.001532 0.000484 -0.00227
0.001287 0.000609 -0.002107
0.001256 0.000617 -0.002105
0.00123 0.000622 -0.00211
0.001207 0.000624 -0.002119
0.001185 0.000625 -0.002131
0.001165 0.000624 -0.002145
0.001147 0.000622 -0.002162
0.001131 0.000618 -0.002183
0.001118 0.00061 -0.002209
0.001113 0.000596 -0.002248
0.001121 0.00057 -0.002308
0.001131 0.000542 -0.002372
0.001135 0.000521 -0.002424
0.001135 0.000502 -0.002471
0.001133 0.000485 -0.002516
0.00113 0.000469 -0.002557
0.001127 0.000453 -0.002599
0.001123 0.000439 -0.002639
0.001118 0.000425 -0.002678
0.001112 0.000411 -0.002715
0.001106 0.000398 -0.002752
0.001094 0.00039 -0.00278
0.001074 0.00039 -0.002794
0.001954 0.000726 -0.001579
0.002491 0.000567 -0.001664
0.002507 0.000595 -0.001646
0.002795 0.000501 -0.000815
0.001886 0.000347 -0.002328
0.001867 0.000346 -0.002344
0.001847 0.000344 -0.002359
0.001828 0.000343 -0.002374
0.001806 0.000344 -0.002385
0.001776 0.000352 -0.002383
0.00174 0.000366 -0.002372
0.001703 0.00038 -0.002359
0.001666 0.000394 -0.002347
0.001625 0.000412 -0.002327
0.00158 0.000433 -0.002301
0.001532 0.000457 -0.00227
0.001287 0.000582 -0.002108
0.001256 0.00059 -0.002105
0.00123 0.000595 -0.00211
0.001207 0.000597 -0.002119
0.001185 0.000598 -0.002131
0.001165 0.000597 -0.002145
0.001147 0.000595 -0.002162
0.001131 0.00059 -0.002183
0.001118 0.000583 -0.002209
0.001132 0.000515 -0.002373
0.001135 0.000494 -0.002424
0.001135 0.000475 -0.002471
0.001133 0.000458 -0.002515
0.00113 0.000442 -0.002557
0.001128 0.000426 -0.0026
0.001123 0.000412 -0.002639
0.001118 0.000397 -0.002678
0.001112 0.000384 -0.002715
0.001107 0.000371 -0.002753
0.001094 0.000363 -0.00278
0.001074 0.000362 -0.002794
0.001932 0.000485 -0.002289
0.001944 0.000488 -0.002266
0.002395 0.000514 -0.001678
0.001882 0.000681 -0.001978
0.001919 0.000654 -0.00211
0.002432 0.000638 -0.001678
0.002259 0.000674 -0.001076
0.001886 0.00032 -0.002328
0.001867 0.000318 -0.002344
0.001847 0.000317 -0.002359
0.001828 0.000316 -0.002374
0.001805 0.000317 -0.002385
0.001775 0.000325 -0.002383
0.00174 0.000338 -0.002372
0.001702 0.000353 -0.002358
0.001665 0.000367 -0.002346
0.001625 0.000384 -0.002327
0.001579 0.000406 -0.0023
0.001481 0.000456 -0.002236
0.001324 0.00054 -0.002121
0.001286 0.000555 -0.002107
0.001256 0.000563 -0.002104
0.00123 0.000568 -0.00211
0.001207 0.00057 -0.002119
0.001185 0.00057 -0.002131
0.001165 0.00057 -0.002145
0.001147 0.000568 -0.002162
0.001131 0.000563 -0.002183
0.001118 0.000556 -0.002209
0.001135 0.000467 -0.002424
0.001134 0.000449 -0.00247
0.001132 0.000431 -0.002514
0.00113 0.000415 -0.002557
0.001127 0.000399 -0.0026
0.001123 0.000384 -0.002639
0.001118 0.00037 -0.002678
0.001113 0.000357 -0.002716
0.001107 0.000344 -0.002752
0.001094 0.000336 -0.00278
0.001914 0.000514 -0.002305
0.001941 0.000501 -0.00223
0.001824 0.000755 -0.001628
0.001927 0.000611 -0.002151
0.001927 0.000638 -0.002152
0.001928 0.000665 -0.002152
0.002481 0.000682 -0.001655
0.001886 0.000293 -0.002328
0.001867 0.000291 -0.002344
0.001847 0.00029 -0.002359
0.001827 0.000289 -0.002374
0.001805 0.00029 -0.002385
0.001775 0.000298 -0.002383
0.00174 0.000311 -0.002372
0.001702 0.000326 -0.002359
0.001665 0.00034 -0.002346
0.001625 0.000357 -0.002327
0.001579 0.000379 -0.0023
0.001531 0.000404 -0.002268
0.001482 0.000429 -0.002236
0.001432 0.000454 -0.002202
0.001326 0.000511 -0.002124
0.001286 0.000527 -0.002107
0.001255 0.000536 -0.002104
0.00123 0.000541 -0.002109
0.001207 0.000543 -0.002119
0.001185 0.000543 -0.002131
0.001165 0.000543 -0.002145
0.001147 0.00054 -0.002162
0.001131 0.000536 -0.002183
0.001118 0.000529 -0.002209
0.001113 0.000514 -0.002249
0.001134 0.00044 -0.002423
0.001134 0.000421 -0.00247
0.001133 0.000404 -0.002515
0.00113 0.000388 -0.002557
0.001127 0.000372 -0.002599
0.001123 0.000357 -0.002639
0.001118 0.000343 -0.002678
0.001113 0.00033 -0.002715
