0.002059 0.000623 0.002175
0.001433 0.000707 0.002524
0.001306 0.000335 0.002722
0.002059 1.5e-05 0.002094
0.002076 1.4e-05 0.002076
0.002093 1.3e-05 0.002058
0.002109 1.3e-05 0.002039
0.002124 1.3e-05 0.00202
0.002138 1.4e-05 0.001999
0.00215 1.6e-05 0.001978
0.002159 2e-05 0.001953
0.002163 2.7e-05 0.001924
0.002157 4e-05 0.001888
0.002142 5.9e-05 0.001844
0.002121 8.1e-05 0.001794
0.001698 -3.2e-05 0.001222
0.001998 0.000241 0.001406
0.002014 0.000241 0.001387
0.002033 0.000239 0.001371
0.002055 0.000235 0.001358
0.002083 0.000227 0.001348
0.002118 0.000215 0.001345
0.002176 0.00019 0.001361
0.00223 0.000167 0.001373
0.002284 0.000144 0.001386
0.002332 0.000125 0.001393
0.002375 0.000108 0.001397
0.002416 9.2e-05 0.001399
0.002456 7.8e-05 0.0014
0.002495 6.4e-05 0.0014
0.002532 5.1e-05 0.001398
0.002565 4.1e-05 0.001394
0.002591 3.4e-05 0.001383
0.001425 0.000726 0.001988
0.001367 0.000551 0.00269
0.001412 0.000649 0.002652
0.001427 0.000661 0.002621
0.00141 0.000468 0.002665
0.001397 0.000648 0.002209
0.001701 0.000686 0.002042
0.000611 0.000644 0.002494
0.002105 0.000647 0.002154
0.001978 9e-06 0.002122
0.001365 0.000661 0.002687
0.001876 0.000718 0.002124
0.000481 0.000397 0.002971
0.002044 6e-06 0.00205
0.002061 5e-06 0.002032
0.002076 5e-06 0.002012
0.002091 6e-06 0.001993
0.002107 6e-06 0.001974
0.002122 6e-06 0.001954
0.002136 7e-06 0.001934
0.002145 1.1e-05 0.00191
0.002148 1.9e-05 0.00188
0.002139 3.4e-05 0.001841
0.001683 -3.2e-05 0.001242
0.001668 -3.3e-05 0.001262
0.001998 0.000214 0.001406
0.002014 0.000214 0.001387
0.002033 0.000212 0.001371
0.002055 0.000207 0.001358
0.002083 0.0002 0.001348
0.002118 0.000188 0.001345
0.00223 0.00014 0.001374
0.002284 0.000117 0.001386
0.002331 9.8e-05 0.001393
0.002375 8.1e-05 0.001397
0.002416 6.6e-05 0.001399
0.002456 5.1e-05 0.0014
0.002493 3.8e-05 0.001399
0.002526 2.7e-05 0.001394
0.002553 2.1e-05 0.001384
0.002575 1.7e-05 0.00137
0.001306 0.000608 0.002721
0.001607 0.000758 0.001991
0.001389 0.00055 0.002679
0.002087 0.000563 0.002172
0.001649 0.000685 0.00201
0.001875 0.000583 0.002123
0.0019 9e-06 0.002123
0.001924 4e-06 0.00211
0.001941 3e-06 0.002092
0.001252 0.000742 0.002695
0.001407 0.000751 0.002004
0.00139 0.000495 0.002679
0.001227 0.000294 0.002716
0.002022 1e-06 0.002
0.002039 0.0 0.001982
0.002056 -0.0 0.001964
0.002071 -0.0 0.001945
0.002086 1e-06 0.001924
0.002101 1e-06 0.001906
0.002116 1e-06 0.001886
0.002125 5e-06 0.001861
0.002128 1.3e-05 0.001831
0.002118 2.9e-05 0.001791
0.001653 -3.3e-05 0.001281
0.001998 0.000187 0.001406
0.002014 0.000186 0.001387
0.002033 0.000184 0.001371
0.002055 0.00018 0.001357
0.002082 0.000173 0.001348
0.002119 0.00016 0.001346
0.002174 0.000137 0.001359
0.00223 0.000113 0.001373
0.002284 9e-05 0.001386
0.00233 7.1e-05 0.001392
0.002374 5.4e-05 0.001396
0.002415 3.9e-05 0.001399
0.002454 2.5e-05 0.001398
0.002485 1.5e-05 0.001392
0.00251 1e-05 0.001381
0.00253 7e-06 0.001365
0.000716 0.000698 0.002339
0.001835 0.000654 0.002108
0.001651 0.000739 0.002012
0.002059 0.000569 0.002175
0.001426 0.000516 0.002601
0.001419 0.000514 0.002328
0.001429 0.000489 0.002386
0.001867 1e-06 0.002096
0.001884 1e-06 0.002077
0.001897 3e-06 0.002056
0.001702 0.000577 0.002043
0.000589 0.000543 0.002667
0.001407 0.000634 0.002661
0.001975 3e-06 0.001961
0.001991 2e-06 0.001943
0.002007 2e-06 0.001924
0.002038 2e-06 0.001885
0.002053 3e-06 0.001866
0.002083 4e-06 0.001827
0.002099 4e-06 0.001808
0.002104 1e-05 0.00178
0.001637 -3.3e-05 0.0013
0.001998 0.000159 0.001406
0.002014 0.000159 0.001387
0.002033 0.000157 0.001371
0.002055 0.000153 0.001357
0.002083 0.000146 0.001348
0.002119 0.000134 0.001346
0.002172 0.000111 0.001358
0.00223 8.5e-05 0.001374
0.002283 6.3e-05 0.001385
0.002331 4.4e-05 0.001392
0.002373 2.8e-05 0.001395
0.001432 0.000517 0.002523
0.002024 0.000581 0.002168
0.001835 0.00068 0.002108
0.001914 0.000622 0.002136
0.001429 0.000476 0.002562
0.002089 0.000426 0.002173
0.00135 0.000728 0.002666
0.001821 2e-06 0.002057
0.001836 3e-06 0.002038
0.001851 3e-06 0.002019
0.001866 2e-06 0.001999
0.000498 0.000461 0.002944
0.002088 0.000454 0.002173
0.000513 0.000581 0.002912
0.001227 0.000322 0.002716
0.001946 2e-06 0.001905
0.001962 2e-06 0.001887
0.001979 2e-06 0.001868
0.001995 1e-06 0.00185
0.00201 1e-06 0.001831
0.002027 1e-06 0.001812
0.002043 1e-06 0.001793
0.002058 1e-06 0.001774
0.002074 1e-06 0.001755
0.002079 7e-06 0.001728
0.001621 -3.3e-05 0.001319
0.001998 0.000132 0.001405
0.002014 0.000132 0.001387
0.002033 0.00013 0.001371
0.002055 0.000126 0.001357
0.002083 0.000119 0.001348
0.002118 0.000107 0.001345
0.002173 8.3e-05 0.001358
0.002233 5.7e-05 0.001375
0.002284 3.5e-05 0.001386
0.002328 1.8e-05 0.00139
0.002362 7e-06 0.001386
0.001606 -3.3e-05 0.001338
0.001551 0.000733 0.001953
0.001092 0.000411 0.00262
0.001793 0.000698 0.00209
0.001749 0.000718 0.002069
0.001368 0.000496 0.002691
0.000481 0.000478 0.002972
0.000792 0.00069 0.002333
0.002024 0.000554 0.002167
0.001799 -3e-06 0.002007
0.001815 -3e-06 0.001989
0.001832 -3e-06 0.001971
0.001849 -4e-06 0.001953
0.000692 0.00059 0.002346
0.001793 0.000644 0.00209
0.001649 0.000712 0.00201
0.001428 0.000624 0.002602
0.001296 0.000667 0.002717
0.001946 -6e-06 0.001842
0.001962 -6e-06 0.001823
0.001977 -6e-06 0.001803
0.001993 -6e-06 0.001784
0.002009 -6e-06 0.001765
0.002024 -5e-06 0.001746
0.002039 -5e-06 0.001726
0.002051 -3e-06 0.001704
0.001997 0.000106 0.001405
0.002014 0.000105 0.001387
0.002033 0.000103 0.001371
0.002055 9.9e-05 0.001357
0.002082 9.2e-05 0.001348
0.002118 8e-05 0.001345
0.002172 5.6e-05 0.001358
0.002234 2.9e-05 0.001377
0.002282 9e-06 0.001384
0.002313 -0.0 0.001378
0.002331 -2e-06 0.001361
0.002346 -2e-06 0.001341
0.002418 2e-06 0.001241
0.002435 2e-06 0.001223
0.002448 3e-06 0.001202
0.00139 0.000386 0.00268
0.001226 0.000485 0.002715
0.001226 0.000648 0.002716
0.001092 0.000655 0.00262
0.00206 0.000433 0.002176
0.000533 -1e-05 0.002094
0.00051 -1e-05 0.002101
0.001952 0.000471 0.002148
0.001915 0.000486 0.002137
0.001432 0.000496 0.002436
0.001789 -5e-06 0.001935
0.001804 -4e-06 0.001916
0.00206 0.00046 0.002177
0.001368 0.000414 0.002691
0.001425 0.000699 0.001987
0.001911 -2e-06 0.001781
0.001928 -3e-06 0.001762
0.001942 -3e-06 0.001743
0.001959 -3e-06 0.001725
0.001975 -3e-06 0.001705
0.001991 -3e-06 0.001687
0.002007 -4e-06 0.001668
0.00202 -2e-06 0.001647
0.001971 7.5e-05 0.001447
0.001997 7.9e-05 0.001405
0.002014 7.8e-05 0.001387
0.002032 7.6e-05 0.001371
0.002054 7.2e-05 0.001357
0.002082 6.5e-05 0.001347
0.002118 5.3e-05 0.001345
0.002172 2.9e-05 0.001358
0.002228 5e-06 0.001372
0.002256 -2e-06 0.001363
0.002274 -3e-06 0.001345
0.00229 -4e-06 0.001327
0.002306 -4e-06 0.001308
0.002322 -4e-06 0.001289
0.002399 -3e-06 0.001193
0.001551 0.000706 0.001953
0.001952 0.000607 0.002149
0.002024 0.000635 0.002169
0.001323 0.000581 0.002713
0.001433 0.000551 0.002436
0.000486 -9e-06 0.002107
0.00159 -3.3e-05 0.001357
0.001722 -1e-06 0.001913
0.001738 -1e-06 0.001894
0.001753 -1e-06 0.001874
0.001519 0.000715 0.00195
0.001574 -3.3e-05 0.001376
0.001863 -1e-06 0.001741
0.001879 -1e-06 0.001722
0.001894 -1e-06 0.001703
0.00191 -1e-06 0.001684
0.00194 0.0 0.001645
0.001958 -1e-06 0.001628
0.001972 -0.0 0.001607
0.001985 1e-06 0.001587
0.001962 4.3e-05 0.001472
0.001971 4.8e-05 0.001447
0.001982 5.1e-05 0.001425
0.002013 5.1e-05 0.001387
0.002032 4.9e-05 0.001371
0.002054 4.5e-05 0.001356
0.002081 3.8e-05 0.001346
0.002117 2.6e-05 0.001344
0.00217 3e-06 0.001356
0.002196 -3e-06 0.001345
0.002225 -1e-06 0.001305
0.00224 -1e-06 0.001286
0.002257 -1e-06 0.001267
0.001558 -3.3e-05 0.001394
0.001421 0.000503 0.002638
0.000608 0.000748 0.002567
0.001989 0.000648 0.002159
0.001952 0.000662 0.002148
0.00175 0.000554 0.002071
0.001542 -3.2e-05 0.001413
0.001627 1e-06 0.00193
0.001643 0.0 0.001911
0.001658 0.0 0.001891
0.001674 1e-06 0.001873
0.001689 1e-06 0.001853
0.001705 1e-06 0.001835
0.001723 -0.0 0.001817
0.001446 0.000726 0.001974
0.001492 0.000721 0.001954
0.001429 0.000449 0.002562
0.001551 0.000678 0.001953
0.001519 0.000688 0.00195
0.001833 -1e-06 0.001685
0.00185 -1e-06 0.001666
0.001866 -1e-06 0.001648
0.001881 -1e-06 0.001629
0.001898 -1e-06 0.00161
0.001913 -1e-06 0.001591
0.001929 -2e-06 0.001572
0.001946 -2e-06 0.001554
0.001962 1.6e-05 0.001472
0.001971 2.1e-05 0.001447
0.001982 2.3e-05 0.001425
0.002033 2.2e-05 0.001371
0.002054 1.8e-05 0.001356
0.00208 1.2e-05 0.001345
0.002111 2e-06 0.001339
0.001525 -3.2e-05 0.001431
0.001509 -3.2e-05 0.00145
0.002301 2e-06 0.001112
0.002319 -0.0 0.001096
0.00116 0.000541 0.002671
0.002059 0.000596 0.002175
0.001702 0.00074 0.002044
0.001914 0.000676 0.002136
0.00206 0.000487 0.002176
0.001559 -3e-06 0.001937
0.001573 -3e-06 0.001917
0.001589 -3e-06 0.001899
0.001607 -5e-06 0.001881
0.001622 -5e-06 0.001862
0.001639 -5e-06 0.001844
0.001655 -6e-06 0.001826
0.001672 -6e-06 0.001807
0.001688 -6e-06 0.001789
0.001914 0.000594 0.002137
0.001875 0.00061 0.002123
0.001426 0.000434 0.002601
0.00175 0.000582 0.00207
0.001492 0.000694 0.001954
0.001702 0.000604 0.002043
0.00206 0.000542 0.002176
0.000716 0.000535 0.002338
0.001833 -9e-06 0.001621
0.001849 -9e-06 0.001602
0.001865 -9e-06 0.001583
0.001881 -9e-06 0.001565
0.001896 -8e-06 0.001545
0.001912 -9e-06 0.001526
0.001928 -9e-06 0.001508
0.001942 -8e-06 0.001487
0.001955 -7e-06 0.001466
0.001968 -5e-06 0.001445
0.001981 -3e-06 0.001424
0.001493 -3.1e-05 0.001468
0.00211 -5e-06 0.001274
0.002123 -4e-06 0.001254
0.002138 -3e-06 0.001234
0.002152 -2e-06 0.001214
0.002166 -1e-06 0.001193
0.002182 -2e-06 0.001174
0.002226 1e-06 0.001115
0.00224 1e-06 0.001095
0.002256 2e-06 0.001075
0.001413 0.00062 0.002656
0.002088 0.000508 0.002173
0.000597 0.000432 0.00261
0.001283 0.000498 0.002731
0.001914 0.000567 0.002136
0.001507 -9e-06 0.001926
0.001521 -9e-06 0.001907
0.001537 -8e-06 0.001887
0.001554 -9e-06 0.00187
0.001569 -9e-06 0.00185
0.001585 -8e-06 0.001831
0.001377 0.000741 0.002049
0.001618 -9e-06 0.001795
0.00163 -8e-06 0.001773
0.000792 0.000554 0.002333
0.001346 0.000498 0.002702
0.001835 0.000626 0.002108
0.001989 0.000485 0.002159
0.001476 -3.1e-05 0.001487
0.001749 0.000663 0.00207
0.001388 0.000632 0.002677
0.001801 -7e-06 0.001563
0.001815 -6e-06 0.001542
0.001832 -7e-06 0.001524
0.001849 -7e-06 0.001506
0.001864 -7e-06 0.001487
0.00188 -7e-06 0.001468
0.001895 -7e-06 0.001448
0.001911 -7e-06 0.00143
0.001928 -8e-06 0.001412
0.001944 -8e-06 0.001393
0.002023 -8e-06 0.001299
0.00204 -9e-06 0.001281
0.002086 -8e-06 0.001223
0.002103 -9e-06 0.001205
0.002117 -8e-06 0.001184
0.002133 -8e-06 0.001166
0.002194 -8e-06 0.001089
0.002208 -6e-06 0.001068
0.002222 -5e-06 0.001048
0.002236 -4e-06 0.001027
0.00116 0.000569 0.002671
0.000542 0.0005 0.002841
0.001467 0.00067 0.001962
0.001419 0.000542 0.002328
0.001457 -6e-06 0.001886
0.001473 -7e-06 0.001867
0.001487 -6e-06 0.001846
0.001502 -5e-06 0.001827
0.001518 -6e-06 0.001809
0.001533 -5e-06 0.001789
0.001577 -3e-06 0.001729
0.00139 0.000413 0.00268
0.002024 0.000472 0.002168
0.001952 0.000498 0.002148
0.001793 0.000562 0.00209
0.001396 0.000621 0.002208
0.001459 -3e-05 0.001505
0.001433 0.000523 0.002436
0.001432 0.00049 0.002522
0.00139 0.000441 0.002679
0.002088 0.000481 0.002173
0.001764 -2e-06 0.0015
0.00178 -3e-06 0.001482
0.001796 -3e-06 0.001463
0.001811 -2e-06 0.001443
0.001828 -3e-06 0.001425
0.001843 -3e-06 0.001406
0.001858 -2e-06 0.001386
0.001874 -2e-06 0.001367
0.00189 -3e-06 0.001349
0.001954 -3e-06 0.001274
0.00197 -3e-06 0.001255
0.001986 -4e-06 0.001236
0.002003 -4e-06 0.001218
0.002037 -6e-06 0.001182
0.002051 -5e-06 0.001162
0.002068 -6e-06 0.001144
0.002085 -7e-06 0.001126
0.002101 -7e-06 0.001108
0.002117 -7e-06 0.001089
0.002165 -8e-06 0.001032
0.002181 -8e-06 0.001014
0.002197 -8e-06 0.000995
0.001368 0.000387 0.002691
0.001127 0.000665 0.002649
0.001373 -2e-06 0.00188
0.001389 -2e-06 0.001861
0.001443 -3e-05 0.001523
0.001328 0.00073 0.002676
0.001466 -1e-06 0.001765
0.001481 -1e-06 0.001746
0.001835 0.000599 0.002108
0.001519 0.000743 0.00195
0.001492 0.000748 0.001954
0.001283 0.000525 0.002731
0.001575 -0.0 0.001631
0.001589 0.0 0.001612
0.001604 1e-06 0.001591
0.001554 0.000758 0.001958
0.001433 0.000506 0.00248
0.001794 0.000535 0.002091
0.001429 0.000421 0.002562
0.001299 0.000638 0.002721
0.001729 1e-06 0.001439
0.001747 -0.0 0.001422
0.001777 1e-06 0.001383
0.001792 1e-06 0.001364
0.001807 1e-06 0.001344
0.001824 0.0 0.001326
0.001841 0.0 0.001308
0.001873 -1e-06 0.001271
0.001889 -1e-06 0.001252
0.001904 -0.0 0.001233
0.00192 -1e-06 0.001214
0.001935 0.0 0.001194
0.001951 -0.0 0.001176
0.001985 -2e-06 0.00114
0.002 -1e-06 0.00112
0.002018 -2e-06 0.001103
0.002033 -2e-06 0.001083
0.002049 -3e-06 0.001065
0.002066 -3e-06 0.001047
0.002097 -3e-06 0.001008
0.002112 -3e-06 0.000989
0.001426 -2.9e-05 0.001541
0.001308 0.0 0.001859
0.001324 0.0 0.00184
0.00134 0.0 0.001821
0.001355 1e-06 0.001802
0.00137 1e-06 0.001782
0.000821 0.000681 0.002343
0.001915 0.000513 0.002137
0.00116 0.000487 0.002671
0.001323 0.000636 0.002712
0.001989 0.000621 0.002159
0.001914 0.00054 0.002136
0.001377 0.000715 0.002048
0.002124 0.000648 0.002138
0.001514 -1e-06 0.001614
0.00153 -1e-06 0.001595
0.001545 -0.0 0.001575
0.001561 -1e-06 0.001557
0.001278 0.000737 0.002691
0.00143 0.000529 0.002563
0.001428 0.000626 0.002385
0.001411 0.000386 0.002666
0.00139 0.000667 0.002023
0.001377 0.000661 0.002047
0.001675 -3e-06 0.001427
0.00169 -3e-06 0.001407
0.001752 -2e-06 0.001331
0.001767 -2e-06 0.001311
0.001783 -2e-06 0.001292
0.001798 -2e-06 0.001273
0.001813 -2e-06 0.001254
0.001828 -1e-06 0.001234
0.001844 -1e-06 0.001215
0.00186 -1e-06 0.001196
0.001875 -1e-06 0.001177
0.001983 0.0 0.001043
0.002 0.0 0.001024
0.002048 -1e-06 0.000968
0.002064 -1e-06 0.00095
0.002079 -1e-06 0.00093
0.002097 -2e-06 0.000913
0.001248 -1e-06 0.001841
0.001265 -0.0 0.001823
0.001281 -1e-06 0.001804
0.001298 -1e-06 0.001787
0.001315 -2e-06 0.001769
0.001332 -3e-06 0.001751
0.001348 -3e-06 0.001732
0.001429 0.00072 0.002563
0.001432 0.000752 0.002479
0.00212 0.000678 0.002133
0.001367 0.000633 0.00269
0.001432 0.00068 0.002523
0.001433 0.000713 0.002437
0.001464 -7e-06 0.001604
0.00148 -7e-06 0.001586
0.001497 -8e-06 0.001568
0.001514 -8e-06 0.001549
0.001529 -9e-06 0.00153
0.001546 -9e-06 0.001512
0.001562 -9e-06 0.001493
0.001578 -9e-06 0.001474
0.001594 -9e-06 0.001456
0.00161 -1e-05 0.001437
0.001626 -1e-05 0.001418
0.001641 -1e-05 0.001399
0.001657 -1e-05 0.00138
0.001673 -1e-05 0.001362
0.001689 -1e-05 0.001342
0.001704 -1e-05 0.001323
0.00172 -1e-05 0.001304
0.001735 -1e-05 0.001285
0.00175 -9e-06 0.001265
0.001765 -9e-06 0.001246
0.001781 -9e-06 0.001227
0.001797 -9e-06 0.001208
0.001812 -9e-06 0.001188
0.001826 -8e-06 0.001169
0.001842 -8e-06 0.001149
0.002019 -1e-06 0.000912
0.002034 -1e-06 0.000892
0.002049 -0.0 0.000873
0.001989 0.000512 0.002159
0.001421 0.000475 0.002638
0.001988 0.000702 0.002161
0.001247 -8e-06 0.001777
0.001265 -9e-06 0.001759
0.001282 -9e-06 0.001742
0.001391 0.000729 0.002637
0.001258 0.00031 0.002732
0.001433 0.000734 0.002524
0.002101 0.000677 0.002148
0.001345 0.000634 0.002701
0.001431 0.000665 0.002564
0.001428 0.000734 0.002386
0.001434 0.000696 0.002482
0.001795 0.000751 0.002092
0.001452 -1.7e-05 0.001562
0.001468 -1.8e-05 0.001544
0.001485 -1.8e-05 0.001526
0.001501 -1.9e-05 0.001507
0.001518 -1.9e-05 0.001489
0.001534 -2e-05 0.00147
0.00155 -2e-05 0.001452
0.001567 -2e-05 0.001434
0.001583 -2e-05 0.001415
0.001599 -2.1e-05 0.001396
0.001615 -2.1e-05 0.001377
0.00163 -2.1e-05 0.001358
0.001646 -2.1e-05 0.001339
0.001662 -2.1e-05 0.00132
0.001677 -2.1e-05 0.001301
0.001692 -2e-05 0.001282
0.001708 -2e-05 0.001262
0.001723 -2e-05 0.001243
0.001738 -2e-05 0.001224
0.001753 -1.9e-05 0.001204
0.001767 -1.9e-05 0.001184
0.001783 -1.8e-05 0.001164
0.001797 -1.8e-05 0.001144
0.001812 -1.7e-05 0.001125
0.001952 0.000526 0.002148
0.001429 0.000571 0.002386
0.001426 0.000488 0.002601
0.001835 0.000518 0.002108
0.002088 0.000535 0.002173
0.001422 0.000421 0.002638
0.00143 0.000503 0.002563
0.002024 0.000527 0.002167
0.000716 0.000671 0.002339
0.00206 0.000514 0.002176
0.00141 0.000414 0.002665
0.001377 0.000634 0.002047
0.001397 0.000566 0.002208
0.001952 0.000553 0.002148
0.001989 0.000539 0.002159
0.00139 0.00064 0.002023
0.001406 0.000643 0.002003
0.001425 0.000644 0.001987
0.001445 0.000644 0.001973
0.001467 0.000643 0.001962
0.001491 0.00064 0.001953
0.001519 0.000634 0.00195
0.001551 0.000624 0.001954
0.001593 0.000607 0.00197
0.00165 0.000576 0.002011
0.001702 0.00055 0.002044
0.00175 0.000527 0.002071
0.001793 0.000508 0.00209
0.001835 0.00049 0.002108
0.001875 0.000474 0.002123
0.001915 0.000458 0.002137
0.001952 0.000444 0.002148
0.00199 0.00043 0.00216
0.002025 0.000418 0.002168
0.00206 0.000405 0.002177
0.002089 0.000399 0.002173
0.00067 0.000479 0.002356
0.000631 0.000468 0.002395
0.001021 0.000366 0.002561
0.000605 0.00059 0.002557
0.001329 0.000473 0.002711
0.000542 0.000581 0.002841
0.001346 0.000362 0.002702
0.001368 0.00036 0.002691
0.00139 0.000359 0.002679
0.00141 0.000359 0.002665
0.001422 0.000366 0.002639
0.001426 0.00038 0.002601
0.00143 0.000394 0.002563
0.001432 0.000409 0.002522
0.001433 0.000425 0.00248
0.001433 0.000442 0.002436
0.001428 0.000463 0.002384
0.001408 0.000513 0.002269
0.001396 0.00054 0.002207
0.001369 0.000595 0.00208
0.001377 0.000606 0.002047
0.001389 0.000613 0.002022
0.001406 0.000616 0.002002
0.001425 0.000617 0.001986
0.001445 0.000617 0.001973
0.001467 0.000616 0.001962
0.001492 0.000612 0.001954
0.001519 0.000607 0.00195
0.001551 0.000597 0.001953
0.001651 0.000548 0.002012
0.001702 0.000523 0.002043
0.001751 0.000499 0.002071
0.001794 0.000481 0.00209
0.001836 0.000463 0.002108
0.001875 0.000447 0.002123
0.001914 0.000431 0.002136
0.001952 0.000417 0.002148
0.00199 0.000403 0.00216
0.002025 0.000391 0.002168
0.00206 0.000378 0.002176
0.002089 0.000372 0.002173
0.000459 0.000286 0.002983
0.00061 0.000618 0.002492
0.001283 0.00047 0.002731
0.000569 0.000638 0.002765
0.001346 0.000334 0.002702
0.001368 0.000333 0.002691
0.00139 0.000332 0.00268
0.00141 0.000332 0.002665
0.001421 0.00034 0.002638
0.001426 0.000353 0.002601
0.00143 0.000367 0.002562
0.001432 0.000381 0.002522
0.001433 0.000398 0.00248
0.001433 0.000415 0.002436
0.001427 0.000436 0.002384
0.001419 0.00046 0.002328
0.001377 0.000545 0.002135
0.001369 0.000568 0.00208
0.001377 0.000579 0.002047
0.001389 0.000586 0.002022
0.001406 0.000589 0.002002
0.001425 0.00059 0.001987
0.001445 0.00059 0.001973
0.001467 0.000589 0.001962
0.001492 0.000585 0.001954
0.001519 0.000579 0.00195
0.001551 0.000569 0.001954
0.00165 0.000521 0.002011
0.001702 0.000496 0.002043
0.00175 0.000473 0.00207
0.001793 0.000454 0.00209
0.001836 0.000436 0.002108
0.001875 0.00042 0.002123
0.001914 0.000404 0.002136
0.001952 0.00039 0.002148
0.00199 0.000375 0.00216
0.002025 0.000363 0.002169
0.00206 0.000351 0.002176
0.002089 0.000345 0.002173
0.001021 0.000474 0.002561
0.000942 0.000522 0.002479
0.000579 0.000468 0.002717
0.000556 0.000487 0.002804
0.000942 0.000631 0.002478
0.001283 0.00058 0.00273
0.001346 0.000307 0.002702
0.001368 0.000306 0.002691
0.00139 0.000305 0.002679
0.00141 0.000305 0.002665
0.001421 0.000313 0.002638
0.001426 0.000326 0.002601
0.00143 0.000339 0.002563
0.001432 0.000355 0.002522
0.001433 0.00037 0.002481
0.001433 0.000388 0.002436
0.001427 0.000409 0.002384
0.001419 0.000433 0.002328
0.001408 0.000458 0.002269
0.001378 0.000518 0.002136
0.00137 0.000541 0.00208
0.001377 0.000552 0.002047
0.001389 0.000558 0.002022
0.001406 0.000562 0.002002
0.001425 0.000563 0.001986
0.001445 0.000563 0.001973
0.001467 0.000561 0.001962
0.001492 0.000558 0.001954
0.001519 0.000552 0.00195
0.001551 0.000542 0.001954
0.001651 0.000494 0.002012
0.001702 0.000468 0.002044
0.00175 0.000445 0.00207
0.001794 0.000426 0.002091
0.001836 0.000409 0.002108
0.001876 0.000392 0.002124
0.001914 0.000377 0.002136
0.001952 0.000363 0.002148
0.00199 0.000348 0.00216
0.002025 0.000336 0.002169
0.00206 0.000324 0.002177
0.002089 0.000318 0.002173
0.000983 0.000496 0.002524
0.000855 0.000584 0.002367
0.001307 0.000416 0.002723
0.000498 0.000434 0.002944
0.000765 0.000721 0.002331
0.001306 0.00058 0.002721
0.001346 0.00028 0.002702
0.001368 0.000279 0.002691
0.00139 0.000278 0.002679
0.00141 0.000278 0.002665
0.001422 0.000285 0.002639
0.001426 0.000298 0.002601
0.001429 0.000313 0.002562
0.001432 0.000328 0.002522
0.001433 0.000343 0.00248
0.001432 0.000361 0.002435
0.001427 0.000382 0.002383
0.001419 0.000406 0.002327
0.001408 0.000432 0.002267
0.001377 0.000491 0.002135
0.001369 0.000514 0.00208
0.001377 0.000525 0.002047
0.00139 0.000531 0.002022
0.001406 0.000534 0.002002
0.001425 0.000536 0.001987
0.001445 0.000536 0.001973
0.001467 0.000534 0.001962
0.001492 0.000531 0.001954
0.001519 0.000525 0.00195
0.001551 0.000516 0.001953
0.00165 0.000467 0.002011
0.001702 0.000441 0.002043
0.00175 0.000418 0.002071
0.001794 0.000399 0.002091
0.001836 0.000381 0.002108
0.001876 0.000365 0.002124
0.001915 0.00035 0.002137
0.001952 0.000335 0.002148
0.00199 0.000321 0.002159
0.002026 0.000308 0.002169
0.002061 0.000296 0.002177
0.002088 0.00029 0.002173
0.001194 0.00039 0.002695
0.000459 0.000421 0.002984
0.000692 0.000725 0.002346
0.001257 0.000583 0.002731
0.001346 0.000253 0.002702
0.001368 0.000252 0.002691
0.00139 0.00025 0.002679
0.00141 0.000251 0.002664
0.001422 0.000257 0.002639
0.001426 0.000271 0.002601
0.001429 0.000285 0.002562
0.001431 0.000301 0.002521
0.001433 0.000316 0.00248
0.001433 0.000333 0.002436
0.001427 0.000355 0.002383
0.001369 0.000487 0.00208
0.001376 0.000498 0.002047
0.001389 0.000504 0.002022
0.001406 0.000507 0.002002
0.001425 0.000509 0.001987
0.001445 0.000508 0.001973
0.001467 0.000507 0.001962
0.001492 0.000504 0.001953
0.001519 0.000498 0.00195
0.001551 0.000489 0.001953
0.00165 0.00044 0.002011
0.001702 0.000414 0.002043
0.001752 0.00039 0.002073
0.001794 0.000372 0.002091
0.001836 0.000354 0.002109
0.001876 0.000338 0.002124
0.001915 0.000322 0.002137
0.001952 0.000308 0.002148
0.00199 0.000294 0.002159
0.002026 0.000281 0.002169
0.002061 0.000269 0.002177
0.002088 0.000263 0.002173
0.001284 0.000416 0.002732
0.000569 0.000503 0.002764
0.000983 0.000605 0.002523
0.000942 0.000713 0.002477
0.001346 0.000226 0.002702
0.001368 0.000224 0.002691
0.00139 0.000223 0.002679
0.001409 0.000224 0.002664
0.001422 0.000231 0.002639
0.001426 0.000244 0.002601
0.00143 0.000258 0.002563
0.001432 0.000273 0.002521
0.001433 0.000289 0.00248
0.001432 0.000307 0.002435
0.001427 0.000327 0.002384
0.001408 0.000377 0.002268
0.001395 0.000405 0.002205
0.001376 0.000437 0.002133
0.001369 0.00046 0.00208
0.001377 0.000471 0.002047
0.001389 0.000477 0.002022
0.001406 0.00048 0.002002
0.001425 0.000481 0.001986
0.001446 0.000481 0.001973
0.001467 0.00048 0.001962
0.001492 0.000477 0.001954
0.001519 0.000471 0.00195
0.001551 0.000461 0.001954
0.001597 0.00044 0.001976
0.001651 0.000413 0.002012
0.001703 0.000386 0.002045
0.001751 0.000363 0.002072
0.001794 0.000344 0.002091
0.001836 0.000327 0.002108
0.001876 0.00031 0.002124
0.001915 0.000295 0.002137
0.001952 0.000281 0.002148
0.00199 0.000267 0.002159
0.002026 0.000254 0.002169
0.002061 0.000242 0.002177
0.002088 0.000236 0.002172
0.000649 0.000611 0.002373
0.000617 0.000644 0.002432
0.000481 0.000451 0.002972
0.000983 0.000659 0.002524
0.001346 0.000199 0.002702
0.001368 0.000197 0.002691
0.00139 0.000197 0.002678
0.001409 0.000197 0.002663
0.001422 0.000204 0.002638
0.001426 0.000217 0.002601
0.001429 0.000231 0.002562
0.001432 0.000246 0.002522
0.001433 0.000262 0.00248
0.001432 0.00028 0.002434
0.001427 0.000301 0.002383
0.001408 0.00035 0.002268
0.001394 0.000379 0.002204
0.001376 0.00041 0.002133
0.001369 0.000433 0.002079
0.001377 0.000443 0.002047
0.001389 0.00045 0.002022
0.001406 0.000453 0.002002
0.001425 0.000454 0.001986
0.001446 0.000454 0.001973
0.001468 0.000453 0.001962
0.001492 0.000449 0.001953
0.001519 0.000444 0.00195
0.001552 0.000434 0.001954
0.001594 0.000415 0.001973
0.001651 0.000385 0.002012
0.001702 0.000359 0.002044
0.00175 0.000337 0.002071
0.001794 0.000317 0.002091
0.001836 0.0003 0.002108
0.001876 0.000284 0.002123
0.001915 0.000268 0.002137
0.001952 0.000254 0.002148
0.00199 0.000239 0.00216
0.002026 0.000226 0.002169
0.002061 0.000215 0.002176
0.002088 0.00021 0.002172
0.00067 0.000615 0.002357
0.000765 0.000667 0.002331
0.000692 0.000698 0.002346
0.000716 0.000751 0.002341
0.001193 0.000635 0.002695
0.001368 0.000171 0.00269
0.001389 0.00017 0.002677
0.001408 0.000171 0.002662
0.001421 0.000177 0.002637
0.001426 0.00019 0.002601
0.001429 0.000204 0.002562
0.001431 0.000219 0.002521
0.001433 0.000235 0.00248
0.001432 0.000252 0.002435
0.001427 0.000273 0.002383
0.001404 -2.9e-05 0.001561
0.001369 0.000406 0.002079
0.001377 0.000416 0.002047
0.001389 0.000423 0.002022
0.001406 0.000426 0.002002
0.001425 0.000427 0.001986
0.001446 0.000427 0.001973
0.001467 0.000426 0.001962
0.001492 0.000422 0.001953
0.001519 0.000416 0.00195
0.001552 0.000406 0.001954
0.001595 0.000388 0.001973
0.001651 0.000358 0.002012
0.001702 0.000332 0.002044
0.001751 0.000309 0.002071
0.001794 0.00029 0.002091
0.001835 0.000273 0.002108
0.001876 0.000256 0.002124
0.001915 0.00024 0.002138
0.001952 0.000227 0.002148
0.00199 0.000212 0.00216
0.002026 0.000199 0.002169
0.002061 0.000188 0.002176
0.002087 0.000183 0.002171
0.000579 0.000333 0.002716
0.001384 -2.9e-05 0.001576
0.000588 0.000355 0.002662
0.000792 0.000662 0.002334
0.000605 0.000618 0.002555
0.00074 0.000751 0.002334
0.00058 0.000712 0.002718
0.001367 0.000144 0.002688
0.001387 0.000144 0.002675
0.001406 0.000145 0.002659
0.00142 0.00015 0.002636
0.001426 0.000163 0.0026
0.001429 0.000177 0.002561
0.001431 0.000192 0.002521
0.001433 0.000208 0.00248
0.001432 0.000225 0.002435
0.001427 0.000246 0.002383
0.001407 0.000297 0.002266
0.001393 0.000325 0.002203
0.001365 -3e-05 0.001591
0.001369 0.000379 0.002079
0.001377 0.000389 0.002047
0.001389 0.000396 0.002022
0.001406 0.000399 0.002002
0.001425 0.0004 0.001987
0.001446 0.0004 0.001973
0.001467 0.000398 0.001962
0.001492 0.000395 0.001953
0.001519 0.000389 0.00195
0.001552 0.000379 0.001954
0.001595 0.00036 0.001973
0.001651 0.000331 0.002012
0.001702 0.000305 0.002043
0.001751 0.000282 0.002072
0.001794 0.000263 0.002091
0.001835 0.000246 0.002108
0.001876 0.000229 0.002124
0.001915 0.000213 0.002137
0.001952 0.000199 0.002148
0.001991 0.000185 0.002161
0.002026 0.000172 0.002169
0.00206 0.000161 0.002176
0.002086 0.000157 0.002169
0.000569 0.000313 0.002763
0.000556 0.000297 0.002803
0.001021 0.000502 0.002561
0.000854 0.000638 0.002367
0.000649 0.000692 0.002374
0.000693 0.000751 0.002349
0.000589 0.000734 0.002667
0.001364 0.000119 0.002685
0.001385 0.000119 0.002671
0.001404 0.00012 0.002656
0.00142 0.000124 0.002635
0.001426 0.000135 0.002601
0.001429 0.00015 0.002562
0.001431 0.000165 0.002521
0.001433 0.00018 0.002479
0.001433 0.000197 0.002436
0.001407 0.000269 0.002267
0.001394 0.000297 0.002204
0.001368 0.000352 0.002078
0.001377 0.000362 0.002047
0.001389 0.000368 0.002022
0.001406 0.000372 0.002002
0.001425 0.000373 0.001986
0.001445 0.000373 0.001973
0.001467 0.000371 0.001961
0.001492 0.000368 0.001953
0.001519 0.000362 0.00195
0.001552 0.000352 0.001954
0.001595 0.000333 0.001974
0.001651 0.000304 0.002011
0.001702 0.000278 0.002043
0.001752 0.000254 0.002073
0.001795 0.000235 0.002092
0.001836 0.000218 0.002108
0.001877 0.000201 0.002124
0.001916 0.000186 0.002138
0.001953 0.000172 0.002149
0.00199 0.000158 0.00216
0.002026 0.000145 0.00217
0.002059 0.000134 0.002174
0.002084 0.000131 0.002166
0.000542 0.000282 0.002842
0.000459 0.000259 0.002983
0.000983 0.000524 0.002522
0.000692 0.000671 0.002345
0.000765 0.000694 0.002331
0.000853 0.000721 0.002364
0.000434 0.000614 0.002987
0.00136 9.5e-05 0.002679
0.001381 9.5e-05 0.002665
0.0014 9.6e-05 0.002651
0.001417 9.9e-05 0.002631
0.001426 0.000108 0.0026
0.00143 0.000122 0.002562
0.001431 0.000138 0.00252
0.001433 0.000153 0.002479
0.001433 0.00017 0.002436
0.001426 0.000192 0.002382
0.001417 0.000217 0.002326
0.001407 0.000242 0.002267
0.001394 0.000269 0.002204
0.001369 0.000324 0.002079
0.001376 0.000335 0.002046
0.001389 0.000341 0.002022
0.001406 0.000344 0.002002
0.001425 0.000346 0.001986
0.001445 0.000346 0.001973
0.001467 0.000344 0.001961
0.001491 0.000341 0.001953
0.001519 0.000335 0.00195
0.001552 0.000325 0.001954
0.001596 0.000305 0.001974
0.001651 0.000276 0.002012
0.001702 0.000251 0.002044
0.001752 0.000227 0.002073
0.001794 0.000209 0.002091
0.001836 0.000191 0.002108
0.001876 0.000174 0.002124
0.001915 0.000159 0.002138
0.001953 0.000145 0.00215
0.00199 0.000131 0.002161
0.002026 0.000118 0.002169
0.002057 0.000109 0.002171
0.002081 0.000107 0.002161
0.000435 0.00026 0.002988
0.00074 0.00067 0.002333
0.00074 0.000697 0.002333
0.000942 0.000659 0.002477
0.001193 0.000608 0.002694
0.001334 7.3e-05 0.002683
0.001355 7.3e-05 0.002671
0.001375 7.3e-05 0.002657
0.001395 7.3e-05 0.002642
0.001412 7.6e-05 0.002624
0.001425 8.2e-05 0.002599
0.001429 9.6e-05 0.002561
0.001431 0.000111 0.002521
0.001433 0.000126 0.00248
0.001433 0.000143 0.002436
0.001427 0.000165 0.002383
0.001418 0.000189 0.002326
0.001407 0.000215 0.002266
0.001394 0.000243 0.002203
0.001369 0.000297 0.002079
0.001376 0.000308 0.002046
0.001389 0.000314 0.002021
0.001406 0.000317 0.002002
0.001425 0.000318 0.001986
0.001445 0.000318 0.001973
0.001467 0.000317 0.001961
0.001491 0.000314 0.001953
0.001519 0.000308 0.00195
0.001552 0.000297 0.001955
0.001596 0.000278 0.001974
0.001651 0.000249 0.002012
0.001703 0.000223 0.002045
0.001751 0.0002 0.002072
0.001795 0.000181 0.002091
0.001836 0.000163 0.002109
0.001876 0.000147 0.002124
0.001915 0.000132 0.002138
0.001953 0.000118 0.002149
0.00199 0.000104 0.00216
0.002025 9.1e-05 0.002168
0.002053 8.5e-05 0.002165
0.002076 8.3e-05 0.002154
0.001345 -3e-05 0.001606
0.000983 0.000469 0.002523
0.00041 0.000425 0.002992
0.00067 0.000723 0.002358
0.001306 0.000553 0.002721
0.001283 0.000607 0.002729
0.001327 5.2e-05 0.002673
0.001348 5.1e-05 0.002661
0.001368 5.1e-05 0.002647
0.001388 5.2e-05 0.002632
0.001406 5.4e-05 0.002615
0.001421 5.8e-05 0.002593
0.001428 6.9e-05 0.00256
0.001431 8.4e-05 0.00252
0.001433 9.9e-05 0.00248
0.001432 0.000116 0.002435
0.001427 0.000137 0.002383
0.001418 0.000162 0.002326
0.001407 0.000188 0.002266
0.001325 -3.1e-05 0.001621
0.001369 0.00027 0.002079
0.001376 0.000281 0.002046
0.001389 0.000287 0.002021
0.001406 0.00029 0.002002
0.001425 0.000291 0.001986
0.001445 0.000291 0.001973
0.001467 0.00029 0.001961
0.001491 0.000287 0.001953
0.001519 0.00028 0.00195
0.001552 0.00027 0.001954
0.001596 0.000251 0.001975
0.001651 0.000222 0.002012
0.001704 0.000196 0.002045
0.001751 0.000173 0.002071
0.001795 0.000154 0.002092
0.001836 0.000136 0.002109
0.001877 0.00012 0.002124
0.001915 0.000105 0.002137
0.001953 9.1e-05 0.002148
0.00199 7.7e-05 0.002159
0.002022 6.7e-05 0.002163
0.002048 6.2e-05 0.002157
0.00207 6.1e-05 0.002145
0.00209 6.1e-05 0.002131
0.001305 -3.1e-05 0.001635
0.001161 0.000351 0.002672
0.000631 0.00063 0.002397
0.001329 0.000445 0.002711
0.000498 0.000488 0.002944
0.000588 0.00068 0.002665
0.000409 0.000615 0.002991
0.001317 3.3e-05 0.002659
0.001338 3.2e-05 0.002647
0.001358 3.2e-05 0.002633
0.001379 3.2e-05 0.002619
0.001398 3.3e-05 0.002603
0.001414 3.7e-05 0.002582
0.001426 4.4e-05 0.002556
0.001431 5.7e-05 0.00252
0.001434 7.1e-05 0.002481
0.001432 8.9e-05 0.002435
0.001427 0.000111 0.002383
0.001417 0.000135 0.002325
0.001406 0.000162 0.002265
0.001394 0.000189 0.002203
0.001368 0.000244 0.002078
0.001376 0.000253 0.002046
0.001389 0.00026 0.002022
0.001406 0.000263 0.002002
0.001425 0.000264 0.001986
0.001446 0.000264 0.001973
0.001467 0.000263 0.001961
0.001492 0.000259 0.001953
0.001519 0.000253 0.00195
0.001552 0.000243 0.001954
0.001596 0.000223 0.001975
0.001652 0.000194 0.002013
0.001704 0.000168 0.002045
0.001751 0.000146 0.002071
0.001794 0.000127 0.002091
0.001836 0.000109 0.002109
0.001877 9.2e-05 0.002125
0.001915 7.8e-05 0.002137
0.001952 6.4e-05 0.002148
0.001988 5.1e-05 0.002156
0.002016 4.5e-05 0.002154
0.00204 4.2e-05 0.002145
0.002061 4.1e-05 0.002133
0.002081 4.1e-05 0.002119
0.001092 0.000383 0.002621
0.001092 0.000519 0.00262
0.000513 0.000527 0.002913
0.000597 0.000703 0.002612
0.00116 0.00065 0.002672
0.000516 0.000632 0.00292
0.001304 1.6e-05 0.00264
0.001325 1.6e-05 0.002627
0.001346 1.6e-05 0.002614
0.001366 1.6e-05 0.0026
0.001386 1.6e-05 0.002585
0.001403 1.9e-05 0.002566
0.001417 2.4e-05 0.002544
0.001428 3.2e-05 0.002515
0.001433 4.5e-05 0.002479
0.001432 6.2e-05 0.002434
0.001427 8.3e-05 0.002384
0.001418 0.000107 0.002327
0.001407 0.000134 0.002266
0.001393 0.000162 0.002202
0.001375 0.000194 0.002132
0.001369 0.000216 0.002079
0.001376 0.000226 0.002046
0.001389 0.000232 0.002022
0.001406 0.000236 0.002002
0.001425 0.000237 0.001986
0.001445 0.000237 0.001973
0.001468 0.000235 0.001961
0.001492 0.000232 0.001953
0.00152 0.000226 0.00195
0.001552 0.000216 0.001954
0.001597 0.000196 0.001976
0.001652 0.000167 0.002013
0.001703 0.000142 0.002044
0.001752 0.000118 0.002072
0.001794 0.0001 0.002091
0.001836 8.2e-05 0.002109
0.001877 6.6e-05 0.002124
0.001914 5.2e-05 0.002135
0.00195 3.8e-05 0.002145
0.001981 3e-05 0.002146
0.002007 2.5e-05 0.002141
0.00203 2.3e-05 0.00213
0.00205 2.3e-05 0.002117
0.001127 0.000366 0.002647
0.001329 0.0005 0.002711
0.000597 0.000676 0.002611
0.000556 0.000596 0.002805
0.000498 0.000542 0.002944
0.001328 0.000555 0.00271
0.001282 7e-06 0.002608
0.001303 7e-06 0.002595
0.001324 7e-06 0.002582
0.001344 7e-06 0.002567
0.001364 7e-06 0.002554
0.001384 7e-06 0.002538
0.001402 9e-06 0.002522
0.001418 1.3e-05 0.0025
0.001427 2.3e-05 0.00247
0.00143 3.6e-05 0.002432
0.001286 -3.2e-05 0.00165
0.001375 0.000167 0.002131
0.001369 0.000188 0.002079
0.001376 0.000199 0.002046
0.001389 0.000205 0.002021
0.001406 0.000209 0.002002
0.001425 0.00021 0.001986
0.001446 0.00021 0.001973
0.001468 0.000208 0.001961
0.001492 0.000205 0.001953
0.001519 0.000199 0.00195
0.001552 0.000189 0.001954
0.001597 0.000169 0.001976
0.001651 0.00014 0.002012
0.001703 0.000114 0.002045
0.001752 9.1e-05 0.002072
0.001794 7.3e-05 0.00209
0.001836 5.5e-05 0.002108
0.001875 3.9e-05 0.002123
0.001911 2.5e-05 0.002133
0.001943 1.7e-05 0.002134
0.001969 1.2e-05 0.002129
0.001993 1e-05 0.002119
0.002014 9e-06 0.002107
0.002035 9e-06 0.002093
0.002055 1e-05 0.002079
0.001266 -3.2e-05 0.001664
0.000616 0.000454 0.00243
0.00061 0.000429 0.00249
0.001258 0.000283 0.002731
0.001093 0.000736 0.002623
0.000556 0.00046 0.002804
0.000692 0.000644 0.002345
0.000765 0.000613 0.002331
0.001234 3e-06 0.002581
0.001254 3e-06 0.002567
0.001275 3e-06 0.002554
0.001296 2e-06 0.002541
0.001318 1e-06 0.00253
0.001337 3e-06 0.002513
0.001356 3e-06 0.002498
0.000604 0.000455 0.002554
0.000631 0.000603 0.002396
0.000616 0.00059 0.002431
0.001422 1.6e-05 0.00242
0.001423 3.2e-05 0.002378
0.001419 5.2e-05 0.002328
0.001407 7.9e-05 0.002266
0.001392 0.000108 0.002201
0.001374 0.00014 0.00213
0.001369 0.000161 0.002079
0.001376 0.000172 0.002046
0.001389 0.000178 0.002021
0.001406 0.000182 0.002002
0.001425 0.000183 0.001986
0.001446 0.000182 0.001973
0.001467 0.000181 0.001961
0.001492 0.000178 0.001953
0.001519 0.000172 0.00195
0.001552 0.000162 0.001954
0.001596 0.000142 0.001975
0.001652 0.000113 0.002013
0.001704 8.6e-05 0.002046
0.001752 6.4e-05 0.002072
0.001793 4.6e-05 0.00209
0.001835 2.9e-05 0.002107
0.00187 1.3e-05 0.002119
0.001967 4e-06 0.002082
0.001987 4e-06 0.002067
0.002008 4e-06 0.002054
0.002028 4e-06 0.00204
0.001245 -3.3e-05 0.001679
0.000821 0.0006 0.002343
0.000385 0.000399 0.002996
0.001127 0.000719 0.002648
0.000556 0.000731 0.002805
0.0012 4e-06 0.002531
0.00122 4e-06 0.002517
0.001239 6e-06 0.002501
0.001299 6e-06 0.002458
0.001321 5e-06 0.002446
0.001341 5e-06 0.002431
0.001381 6e-06 0.002403
0.001402 5e-06 0.00239
0.001415 1.1e-05 0.002365
0.001419 2.5e-05 0.002328
0.001406 5.2e-05 0.002265
0.001392 8.1e-05 0.0022
0.001374 0.000113 0.002131
0.001368 0.000135 0.002078
0.001376 0.000145 0.002046
0.001389 0.000151 0.002021
0.001406 0.000154 0.002002
0.001425 0.000155 0.001986
0.001445 0.000155 0.001973
0.001467 0.000154 0.001961
0.001492 0.000151 0.001953
0.001519 0.000145 0.00195
0.001552 0.000135 0.001954
0.001596 0.000115 0.001975
0.001652 8.5e-05 0.002013
0.001704 5.9e-05 0.002046
0.001751 3.7e-05 0.002072
0.001792 2e-05 0.002087
0.001826 8e-06 0.002094
0.001938 1e-06 0.002039
0.001957 2e-06 0.002023
0.001978 1e-06 0.00201
0.002 1e-06 0.001998
0.001226 -3.3e-05 0.001693
0.001328 0.000364 0.00271
0.000792 0.000608 0.002333
0.001283 0.000362 0.00273
0.001057 0.000482 0.002592
0.000597 0.00054 0.002611
0.000589 0.000516 0.002667
0.001164 7e-06 0.002478
0.001185 6e-06 0.002466
0.001269 4e-06 0.002413
0.001289 4e-06 0.002399
0.00131 3e-06 0.002386
0.001331 4e-06 0.002373
0.001351 3e-06 0.002359
0.000605 0.000482 0.002555
0.000498 0.000325 0.002944
0.000513 0.000337 0.002911
0.001391 5.5e-05 0.002199
0.001375 8.5e-05 0.002132
0.001368 0.000108 0.002078
0.001376 0.000118 0.002046
0.001389 0.000124 0.002021
0.001405 0.000127 0.002001
0.001425 0.000128 0.001986
0.001445 0.000128 0.001972
0.001467 0.000127 0.001961
0.001492 0.000124 0.001953
0.00152 0.000117 0.00195
0.001552 0.000107 0.001954
0.001597 8.7e-05 0.001976
0.001652 5.9e-05 0.002013
0.001704 3.2e-05 0.002046
0.001748 1.3e-05 0.002067
0.001779 3e-06 0.002069
0.001801 2e-06 0.002057
0.001882 3e-06 0.002001
0.001902 4e-06 0.001986
0.001923 3e-06 0.001974
0.001943 3e-06 0.00196
0.001205 -3.3e-05 0.001707
0.001185 -3.3e-05 0.001721
0.001165 -3.3e-05 0.001735
0.000765 0.000586 0.002331
0.00074 0.000588 0.002333
0.001092 0.000465 0.002621
0.000579 0.000496 0.002716
0.001127 0.000312 0.002648
0.000498 0.000298 0.002944
0.001283 0.00028 0.00273
0.000569 0.000422 0.002764
0.000428 0.000703 0.00297
0.001223 -2e-06 0.00239
0.001244 -2e-06 0.002377
0.001265 -3e-06 0.002364
0.001285 -3e-06 0.00235
0.001306 -3e-06 0.002337
0.001328 -4e-06 0.002324
0.001057 0.000374 0.002591
0.000579 0.000442 0.002716
0.000589 0.000463 0.002665
0.001374 5.9e-05 0.00213
0.001368 8e-05 0.002078
0.001376 9.1e-05 0.002046
0.001389 9.7e-05 0.002021
0.001405 0.0001 0.002001
0.001425 0.000101 0.001986
0.001445 0.000101 0.001972
0.001467 0.0001 0.001961
0.001492 9.6e-05 0.001953
0.001519 9e-05 0.00195
0.001552 8e-05 0.001953
0.001597 6e-05 0.001976
0.001653 3.1e-05 0.002014
0.001733 -2e-06 0.002044
0.001756 -4e-06 0.002035
0.001776 -4e-06 0.002021
0.001795 -3e-06 0.002005
0.001855 -2e-06 0.001961
0.001874 -2e-06 0.001945
0.001894 -0.0 0.001931
0.001914 -0.0 0.001917
0.001933 0.0 0.001901
0.000616 0.000482 0.00243
0.000609 0.000456 0.002489
0.000597 0.000377 0.00261
0.000716 0.000589 0.002339
0.001145 -3.3e-05 0.001749
0.000481 0.000234 0.002971
0.000556 0.000568 0.002805
0.000384 0.000645 0.002993
0.001168 -1e-06 0.002353
0.001189 -1e-06 0.00234
0.001252 -2e-06 0.002301
0.001271 -1e-06 0.002286
0.001292 -2e-06 0.002272
0.001255 0.000668 0.002725
0.001092 0.000356 0.00262
0.001354 -3e-06 0.002233
0.001374 -2e-06 0.002218
0.001368 5.3e-05 0.002077
0.001376 6.4e-05 0.002045
0.001389 7e-05 0.002021
0.001405 7.3e-05 0.002001
0.001424 7.4e-05 0.001985
0.001445 7.4e-05 0.001972
0.001467 7.3e-05 0.001961
0.001492 6.9e-05 0.001953
0.001519 6.3e-05 0.001949
0.001552 5.3e-05 0.001953
0.001595 3.4e-05 0.001973
0.001682 -4e-06 0.002013
0.001702 -4e-06 0.001999
0.001722 -3e-06 0.001984
0.001745 -5e-06 0.001974
0.001765 -5e-06 0.00196
0.001785 -5e-06 0.001946
0.001848 -7e-06 0.001908
0.001867 -6e-06 0.001892
0.001888 -6e-06 0.001878
0.001909 -6e-06 0.001866
0.00193 -6e-06 0.001852
0.00116 0.000704 0.002672
0.000604 0.000429 0.002553
0.001124 -3.3e-05 0.001763
0.001034 -1e-06 0.002375
0.001053 0.0 0.002359
0.001073 0.0 0.002344
0.001093 0.0 0.002331
0.001113 1e-06 0.002315
0.001131 2e-06 0.002299
0.001127 0.000339 0.002648
0.001161 0.000323 0.002673
0.001103 -3.3e-05 0.001776
0.001216 -0.0 0.002249
0.001235 2e-06 0.002232
0.001253 3e-06 0.002215
0.001275 2e-06 0.002204
0.001317 1e-06 0.002177
0.001337 1e-06 0.002164
0.001359 -0.0 0.002152
0.001367 2.7e-05 0.002076
0.001375 3.7e-05 0.002045
0.001389 4.3e-05 0.002021
0.001405 4.6e-05 0.002001
0.001424 4.7e-05 0.001985
0.001445 4.7e-05 0.001972
0.001467 4.6e-05 0.001961
0.001491 4.2e-05 0.001953
0.001519 3.6e-05 0.001949
0.00155 2.7e-05 0.001951
0.001083 -3.3e-05 0.00179
0.001647 -2e-06 0.001961
0.001667 -2e-06 0.001947
0.001687 -1e-06 0.001932
0.00181 -2e-06 0.001851
0.001831 -3e-06 0.001838
0.001853 -4e-06 0.001826
0.001872 -3e-06 0.001811
0.001892 -3e-06 0.001797
0.001194 0.000688 0.002696
0.000919 -1e-06 0.002381
0.00067 0.000534 0.002357
0.000481 0.000288 0.002972
0.000513 0.00031 0.002911
0.001017 3e-06 0.002305
0.001037 3e-06 0.002291
0.001058 3e-06 0.002279
0.001078 3e-06 0.002265
0.001099 2e-06 0.002252
0.000434 0.000505 0.002988
0.000716 0.000562 0.002338
0.001203 0.0 0.002186
0.001224 0.0 0.002172
0.000407 0.000672 0.002985
0.000556 0.000378 0.002805
0.001246 0.000735 0.002697
0.001306 -1e-06 0.002118
0.001327 -1e-06 0.002105
0.001348 -2e-06 0.002092
0.001365 2e-06 0.002073
0.001375 1e-05 0.002044
0.001389 1.6e-05 0.00202
0.001405 1.9e-05 0.002
0.001424 2e-05 0.001985
0.001445 2e-05 0.001971
0.001467 1.9e-05 0.001961
0.001491 1.5e-05 0.001952
0.001518 1e-05 0.001948
0.001548 2e-06 0.001948
0.001754 1e-06 0.001812
0.001774 1e-06 0.001798
0.001794 1e-06 0.001784
0.001062 -3.2e-05 0.001803
0.001041 -3.2e-05 0.001816
0.000885 1e-06 0.002331
0.000906 0.0 0.002318
0.000927 -0.0 0.002305
0.000943 0.000494 0.00248
0.000611 0.000536 0.002493
0.001226 0.000676 0.002717
0.001011 -3e-06 0.002253
0.001032 -3e-06 0.002241
0.001054 -4e-06 0.002228
0.000542 0.000391 0.002842
0.001252 0.000699 0.002716
0.001224 0.000707 0.002714
0.001057 0.000455 0.002592
0.000459 0.00034 0.002984
0.001227 0.000376 0.002717
0.001201 -7e-06 0.002138
0.001222 -7e-06 0.002125
0.001243 -8e-06 0.002112
0.00102 0.000692 0.00256
0.000579 0.000604 0.002717
0.000528 0.000404 0.002877
0.001325 -9e-06 0.002057
0.001345 -9e-06 0.002043
0.001364 -8e-06 0.002028
0.001384 -8e-06 0.002013
0.001403 -6e-06 0.001997
0.001422 -6e-06 0.001982
0.001443 -5e-06 0.001968
0.001464 -6e-06 0.001956
0.001486 -8e-06 0.001944
0.001508 -9e-06 0.001932
0.001529 -1e-05 0.00192
0.001726 -4e-06 0.001772
0.001746 -3e-06 0.001757
0.001766 -3e-06 0.001743
0.001785 -2e-06 0.001727
0.001805 -2e-06 0.001712
0.001824 -1e-06 0.001697
0.00102 -3.2e-05 0.001829
0.000435 0.000368 0.002989
0.001351 0.000393 0.0027
0.000385 0.000372 0.002995
0.000862 -8e-06 0.002297
0.000883 -9e-06 0.002285
0.000904 -9e-06 0.002271
0.000924 -8e-06 0.002258
0.000945 -8e-06 0.002244
0.000765 0.00064 0.002331
0.000986 -9e-06 0.002216
0.001006 -9e-06 0.002202
0.000556 0.000405 0.002805
0.001193 0.000717 0.002694
0.001406 0.000714 0.002632
0.001108 -8e-06 0.002133
0.001126 -7e-06 0.002116
0.001147 -7e-06 0.002102
0.001168 -7e-06 0.00209
0.001188 -7e-06 0.002075
0.001208 -7e-06 0.002061
0.00041 0.000506 0.002991
0.001127 0.00053 0.002647
0.000543 0.000418 0.002843
0.00131 -7e-06 0.001992
0.001331 -8e-06 0.001979
0.001351 -7e-06 0.001965
0.001372 -8e-06 0.001952
0.001392 -7e-06 0.001937
0.001413 -8e-06 0.001924
0.001432 -7e-06 0.001909
0.001453 -7e-06 0.001896
0.001638 -8e-06 0.001774
0.001658 -8e-06 0.001759
0.001679 -9e-06 0.001746
0.001699 -8e-06 0.001732
0.00172 -9e-06 0.001719
0.001739 -8e-06 0.001703
0.001759 -8e-06 0.001689
0.00178 -8e-06 0.001676
0.001801 -8e-06 0.001662
0.00182 -8e-06 0.001648
0.000513 0.000418 0.002912
0.000821 0.000708 0.002343
0.001351 0.00042 0.0027
0.000869 -7e-06 0.00222
0.000889 -7e-06 0.002205
0.000908 -6e-06 0.00219
0.001329 0.000255 0.002711
0.000999 -3.1e-05 0.001842
0.000978 -3.1e-05 0.001855
0.001329 0.000283 0.00271
0.000853 0.000505 0.002363
0.000616 0.000508 0.002431
0.001069 -4e-06 0.002077
0.001089 -4e-06 0.002062
0.001109 -3e-06 0.002048
0.00113 -3e-06 0.002034
0.00115 -3e-06 0.00202
0.00117 -3e-06 0.002005
0.000542 0.000554 0.002841
0.00116 0.000514 0.002671
0.000588 0.000436 0.002664
0.000597 0.000459 0.00261
0.001313 -3e-06 0.001909
0.001332 -2e-06 0.001894
0.001354 -3e-06 0.001881
0.001394 -3e-06 0.001853
0.001414 -2e-06 0.001839
0.001434 -2e-06 0.001825
0.001455 -2e-06 0.001811
0.001599 -4e-06 0.001717
0.001621 -5e-06 0.001705
0.001641 -4e-06 0.00169
0.001662 -5e-06 0.001678
0.001683 -5e-06 0.001664
0.001704 -6e-06 0.001651
0.001724 -6e-06 0.001638
0.001746 -7e-06 0.001626
0.001767 -7e-06 0.001612
0.001786 -7e-06 0.001598
0.001807 -8e-06 0.001585
0.000732 -6e-06 0.002238
0.000751 -5e-06 0.002222
0.000771 -4e-06 0.002208
0.000432 0.000671 0.00298
0.001424 0.000723 0.002606
0.000851 -3e-06 0.00215
0.000871 -2e-06 0.002136
0.00116 0.000732 0.00267
0.000556 0.000433 0.002805
0.001329 0.00031 0.002711
0.000957 -3e-05 0.001868
0.000528 0.000377 0.002877
0.000616 0.000671 0.002432
0.001051 0.0 0.002006
0.001072 -0.0 0.001993
0.001092 0.0 0.001979
0.001113 0.0 0.001965
0.001133 0.0 0.001951
0.001153 0.0 0.001937
0.000481 0.000505 0.002972
0.001092 0.000547 0.002619
0.000435 0.000341 0.002989
0.000936 -2.9e-05 0.00188
0.000498 0.000406 0.002945
0.001377 1e-06 0.001785
0.001398 0.0 0.001772
0.001418 1e-06 0.001757
0.001439 0.0 0.001744
0.001461 -1e-06 0.001732
0.00148 -0.0 0.001717
0.0015 0.0 0.001703
0.00152 1e-06 0.001688
0.001541 0.0 0.001675
0.001562 -0.0 0.001662
0.001583 -0.0 0.001649
0.001605 -1e-06 0.001638
0.001624 -1e-06 0.001622
0.001646 -2e-06 0.00161
0.001666 -2e-06 0.001596
0.001686 -1e-06 0.001581
0.001707 -2e-06 0.001569
0.001729 -3e-06 0.001557
0.001749 -3e-06 0.001543
0.001771 -4e-06 0.001531
0.000694 -1e-06 0.002182
0.000714 -1e-06 0.002168
0.000734 0.0 0.002153
0.000754 0.0 0.002139
0.000773 1e-06 0.002123
0.000498 0.000243 0.002944
0.000815 0.0 0.002097
0.000836 -0.0 0.002083
0.000856 0.0 0.002069
0.000877 -1e-06 0.002056
0.001306 0.000308 0.002721
0.000853 0.000531 0.002364
0.000528 0.00035 0.002877
0.001227 0.000349 0.002716
0.000513 0.000364 0.002912
0.001227 0.000458 0.002716
0.000606 0.000725 0.002558
0.001042 -2e-06 0.001949
0.001062 -2e-06 0.001935
0.001083 -2e-06 0.001921
0.001104 -2e-06 0.001908
0.001124 -3e-06 0.001895
0.000569 0.000584 0.002765
0.000528 0.000486 0.002877
0.00041 0.000343 0.002992
0.000589 0.00049 0.002665
0.001226 -3e-06 0.001826
0.001247 -3e-06 0.001812
0.001368 -2e-06 0.001727
0.001388 -2e-06 0.001713
0.001408 -2e-06 0.001698
0.001428 -1e-06 0.001684
0.001449 -1e-06 0.001671
0.001468 -0.0 0.001656
0.001488 0.0 0.001641
0.00151 -1e-06 0.001629
0.001609 1e-06 0.001556
0.00163 1e-06 0.001543
0.00165 1e-06 0.001528
0.001671 1e-06 0.001515
0.001693 -0.0 0.001504
0.001712 0.0 0.001488
0.001733 -0.0 0.001475
0.00066 0.0 0.002132
0.000681 -0.0 0.002119
0.000702 -1e-06 0.002106
0.000723 -1e-06 0.002093
0.000744 -2e-06 0.00208
0.000764 -2e-06 0.002066
0.000785 -3e-06 0.002053
0.000806 -3e-06 0.00204
0.000827 -4e-06 0.002027
0.000849 -5e-06 0.002015
0.001257 0.000528 0.002731
0.000605 0.000672 0.002555
0.000632 0.00071 0.0024
0.000597 0.000621 0.002611
0.001057 0.000591 0.002592
0.000975 -7e-06 0.001938
0.000996 -8e-06 0.001925
0.001017 -9e-06 0.001912
0.001038 -9e-06 0.001899
0.001059 -9e-06 0.001886
0.001079 -9e-06 0.001872
0.0011 -1e-05 0.001859
0.00112 -1e-05 0.001845
0.001141 -1e-05 0.001832
0.001162 -1e-05 0.001819
0.001182 -1e-05 0.001804
0.001203 -1e-05 0.001791
0.001223 -1e-05 0.001777
0.001244 -1.1e-05 0.001763
0.001264 -1.1e-05 0.001749
0.001284 -1e-05 0.001735
0.001304 -1e-05 0.001721
0.001325 -1e-05 0.001707
0.001344 -1e-05 0.001692
0.001364 -9e-06 0.001678
0.001384 -9e-06 0.001663
0.001404 -8e-06 0.001649
0.001424 -8e-06 0.001634
0.001444 -7e-06 0.00162
0.001463 -7e-06 0.001605
0.001582 -4e-06 0.001517
0.001602 -3e-06 0.001501
0.001621 -2e-06 0.001487
0.001641 -2e-06 0.001471
0.00166 -1e-06 0.001456
0.00168 -1e-06 0.001442
0.00067 0.000506 0.002357
0.00116 0.000596 0.002671
0.000676 -7e-06 0.002068
0.000698 -8e-06 0.002056
0.000719 -8e-06 0.002043
0.000741 -1e-05 0.002032
