-0.002278 0.00041 0.001966
-0.002262 0.00041 0.001984
-0.002246 0.00041 0.002003
-0.00223 0.00041 0.002021
-0.002213 0.00041 0.00204
-0.002195 0.000412 0.002056
-0.002166 0.00042 0.002064
-0.002123 0.000436 0.002059
-0.002075 0.000456 0.002049
-0.002024 0.000478 0.002035
-0.001529 0.000694 0.001899
-0.00151 0.000696 0.001916
-0.001494 0.000696 0.001934
-0.00148 0.000695 0.001955
-0.00147 0.00069 0.001978
-0.001463 0.000684 0.002005
-0.001466 0.000673 0.00204
-0.001482 0.000653 0.002088
-0.001497 0.000634 0.002133
-0.002448 0.000538 0.001264
-0.002411 0.000551 0.001263
-0.00237 0.000567 0.00126
-0.002326 0.000584 0.001254
-0.00228 0.000602 0.001247
-0.002233 0.000622 0.001238
-0.002185 0.000641 0.00123
-0.002149 0.000653 0.001231
-0.002121 0.00066 0.001239
-0.0021 0.000664 0.001253
-0.002081 0.000665 0.001269
-0.002066 0.000665 0.001289
-0.002052 0.000662 0.00131
-0.002651 0.00069 0.001261
-0.002692 0.000619 0.001253
-0.00285 0.000638 0.00036
-0.002229 0.000474 0.001726
-0.002248 0.000452 0.001775
-0.002266 0.00043 0.001824
-0.002282 0.000411 0.001871
-0.002295 0.000393 0.001915
-0.002293 0.000384 0.001946
-0.002279 0.000383 0.001966
-0.002263 0.000383 0.001985
-0.002246 0.000383 0.002003
-0.00223 0.000383 0.002022
-0.002213 0.000383 0.00204
-0.002195 0.000384 0.002056
-0.002167 0.000392 0.002064
-0.002123 0.000409 0.002059
-0.002074 0.00043 0.002047
-0.001529 0.000667 0.001899
-0.00151 0.000669 0.001915
-0.001494 0.000669 0.001934
-0.00148 0.000667 0.001954
-0.00147 0.000663 0.001978
-0.001464 0.000657 0.002006
-0.001467 0.000645 0.002041
-0.001482 0.000625 0.002088
-0.001497 0.000606 0.002133
-0.002449 0.00051 0.001264
-0.002411 0.000524 0.001263
-0.002369 0.00054 0.00126
-0.002325 0.000557 0.001254
-0.00228 0.000575 0.001247
-0.002232 0.000595 0.001238
-0.002185 0.000614 0.00123
-0.002149 0.000626 0.001231
-0.002122 0.000633 0.00124
-0.002099 0.000637 0.001253
-0.002081 0.000638 0.001269
-0.002065 0.000637 0.001289
-0.002771 0.000708 0.001045
-0.002783 0.000632 0.001132
-0.002556 0.000673 0.001272
-0.002692 0.000511 0.001253
-0.00265 0.000527 0.001261
-0.002524 0.00074 0.000442
-0.002383 0.000707 0.000514
-0.002228 0.000447 0.001725
-0.002248 0.000424 0.001776
-0.002266 0.000403 0.001824
-0.002282 0.000384 0.001871
-0.002295 0.000366 0.001915
-0.002293 0.000357 0.001946
-0.002279 0.000355 0.001966
-0.002263 0.000355 0.001985
-0.002247 0.000355 0.002003
-0.00223 0.000356 0.002022
-0.002213 0.000356 0.00204
-0.002195 0.000357 0.002056
-0.002167 0.000365 0.002064
-0.002123 0.000382 0.002059
-0.00151 0.000642 0.001915
-0.001493 0.000642 0.001934
-0.00148 0.00064 0.001954
-0.00147 0.000636 0.001978
-0.001464 0.00063 0.002006
-0.001467 0.000618 0.002041
-0.001482 0.000598 0.002087
-0.001498 0.000578 0.002134
-0.002448 0.000484 0.001263
-0.002411 0.000497 0.001263
-0.002368 0.000513 0.001259
-0.002325 0.00053 0.001254
-0.00228 0.000548 0.001247
-0.00223 0.000569 0.001236
-0.002184 0.000587 0.001229
-0.002149 0.000599 0.001231
-0.002122 0.000606 0.00124
-0.0021 0.00061 0.001253
-0.002081 0.000611 0.001269
-0.002065 0.00061 0.001289
-0.002748 0.000697 0.00101
-0.002765 0.000631 0.001178
-0.002927 0.000551 0.000322
-0.002793 0.000496 0.00111
-0.002649 0.000582 0.001261
-0.002725 0.000608 0.001242
-0.002228 0.00042 0.001725
-0.002248 0.000397 0.001776
-0.002266 0.000376 0.001824
-0.002283 0.000356 0.001871
-0.002295 0.000338 0.001915
-0.002293 0.00033 0.001946
-0.002279 0.000328 0.001966
-0.002263 0.000328 0.001985
-0.002246 0.000328 0.002003
-0.00223 0.000329 0.002022
-0.002213 0.000329 0.00204
-0.002195 0.00033 0.002056
-0.002167 0.000338 0.002064
-0.002124 0.000354 0.00206
-0.001509 0.000615 0.001915
-0.001493 0.000615 0.001934
-0.00148 0.000613 0.001954
-0.001469 0.000609 0.001978
-0.001464 0.000603 0.002006
-0.001467 0.00059 0.002042
-0.001481 0.000572 0.002087
-0.001498 0.000551 0.002134
-0.002448 0.000457 0.001263
-0.002411 0.00047 0.001263
-0.002369 0.000486 0.001259
-0.002325 0.000503 0.001254
-0.00228 0.000521 0.001247
-0.00223 0.000541 0.001236
-0.002184 0.00056 0.001229
-0.002148 0.000572 0.00123
-0.002121 0.000579 0.001239
-0.002099 0.000583 0.001253
-0.002081 0.000584 0.001269
-0.002065 0.000583 0.001289
-0.002789 0.000667 0.001081
-0.002692 0.000647 0.001253
-0.002592 0.000751 0.000845
-0.002797 0.000499 0.001085
-0.002196 0.000692 0.001675
-0.002721 0.000607 -0.000512
-0.002228 0.000393 0.001725
-0.002249 0.00037 0.001776
-0.002266 0.000349 0.001824
-0.002283 0.000329 0.001872
-0.002295 0.000311 0.001915
-0.002293 0.000303 0.001946
-0.002279 0.000301 0.001966
-0.002263 0.000301 0.001985
-0.002246 0.000301 0.002003
-0.002229 0.000302 0.002021
-0.002213 0.000302 0.002039
-0.002195 0.000303 0.002056
-0.002166 0.000311 0.002064
-0.002123 0.000327 0.002059
-0.001509 0.000587 0.001915
-0.001493 0.000588 0.001933
-0.001479 0.000586 0.001954
-0.001469 0.000582 0.001978
-0.001464 0.000575 0.002006
-0.001466 0.000564 0.002041
-0.001483 0.000544 0.002088
-0.001498 0.000524 0.002135
-0.00288 0.000633 -0.000657
-0.002411 0.000443 0.001263
-0.002368 0.000459 0.001259
-0.002325 0.000476 0.001253
-0.00228 0.000493 0.001247
-0.00223 0.000514 0.001236
-0.002184 0.000533 0.001228
-0.002148 0.000545 0.00123
-0.002121 0.000552 0.001239
-0.002099 0.000555 0.001253
-0.002081 0.000557 0.001269
-0.002065 0.000556 0.001288
-0.002786 0.000663 0.001107
-0.002679 0.000732 0.000933
-0.002764 0.00073 0.000397
-0.002785 0.000495 0.001134
-0.002108 0.000759 0.001525
-0.002727 0.000553 0.001242
-0.002227 0.000366 0.001725
-0.002249 0.000343 0.001776
-0.002266 0.000322 0.001824
-0.002282 0.000302 0.001871
-0.002295 0.000284 0.001915
-0.002293 0.000275 0.001946
-0.002279 0.000274 0.001966
-0.002262 0.000274 0.001984
-0.002246 0.000274 0.002003
-0.002229 0.000275 0.002021
-0.002213 0.000275 0.002039
-0.002194 0.000276 0.002056
-0.002166 0.000284 0.002064
-0.002123 0.0003 0.002059
-0.001509 0.00056 0.001915
-0.001493 0.000561 0.001933
-0.001479 0.000559 0.001954
-0.001469 0.000555 0.001978
-0.001464 0.000548 0.002006
-0.001467 0.000536 0.002042
-0.001483 0.000516 0.002088
-0.001499 0.000496 0.002135
-0.002448 0.000402 0.001268
-0.00241 0.000416 0.001263
-0.002369 0.000432 0.001259
-0.002325 0.000448 0.001254
-0.00228 0.000466 0.001248
-0.002231 0.000487 0.001237
-0.002184 0.000506 0.001229
-0.002148 0.000518 0.00123
-0.002121 0.000525 0.001239
-0.002099 0.000528 0.001252
-0.002081 0.00053 0.001269
-0.002065 0.000529 0.001288
-0.00278 0.000661 0.001131
-0.00265 0.000663 0.001261
-0.002747 0.000616 0.00101
-0.002158 0.000669 0.001603
-0.002228 0.000338 0.001726
-0.002249 0.000315 0.001777
-0.002266 0.000295 0.001824
-0.002282 0.000275 0.001871
-0.002295 0.000257 0.001915
-0.002292 0.000248 0.001945
-0.002279 0.000247 0.001966
-0.002263 0.000247 0.001985
-0.002247 0.000247 0.002003
-0.00223 0.000247 0.002022
-0.002213 0.000247 0.00204
-0.002194 0.000249 0.002056
-0.002166 0.000257 0.002064
-0.002123 0.000273 0.002059
-0.001509 0.000533 0.001915
-0.001492 0.000534 0.001933
-0.001479 0.000532 0.001954
-0.001469 0.000528 0.001978
-0.001464 0.000521 0.002006
-0.001467 0.000509 0.002042
-0.001482 0.00049 0.002087
-0.0015 0.000469 0.002136
-0.002449 0.000375 0.001264
-0.002411 0.000388 0.001263
-0.002368 0.000405 0.001259
-0.002324 0.000422 0.001253
-0.00228 0.000439 0.001247
-0.00223 0.00046 0.001236
-0.002184 0.000478 0.001229
-0.002148 0.000491 0.00123
-0.002121 0.000497 0.001239
-0.002099 0.000501 0.001252
-0.002081 0.000502 0.001269
-0.002065 0.000502 0.001289
-0.002778 0.000677 0.001049
-0.002604 0.000681 0.001267
-0.00278 0.000595 0.00105
0.001011 -1.4e-05 0.001888
-0.002197 0.000638 0.001675
0.000988 -1.5e-05 0.001898
-0.002227 0.000312 0.001724
-0.002248 0.000289 0.001776
-0.002266 0.000268 0.001824
-0.002283 0.000247 0.001872
-0.002295 0.00023 0.001915
-0.002292 0.000222 0.001945
-0.002279 0.00022 0.001966
-0.002263 0.00022 0.001985
-0.002246 0.00022 0.002003
-0.00223 0.00022 0.002022
-0.002213 0.00022 0.00204
-0.002194 0.000222 0.002055
-0.002165 0.00023 0.002063
-0.002123 0.000246 0.002059
-0.001509 0.000506 0.001915
-0.001492 0.000507 0.001933
-0.001479 0.000505 0.001954
-0.001469 0.000501 0.001978
-0.001464 0.000494 0.002006
-0.001467 0.000482 0.002041
-0.001482 0.000462 0.002088
-0.001499 0.000442 0.002135
-0.00245 0.000347 0.001265
-0.00241 0.000361 0.001263
-0.002368 0.000377 0.001259
-0.002324 0.000395 0.001253
-0.00228 0.000412 0.001247
-0.00223 0.000433 0.001236
-0.002184 0.000451 0.001229
-0.002148 0.000463 0.00123
-0.002121 0.00047 0.001239
-0.002099 0.000474 0.001252
-0.002081 0.000475 0.001269
-0.002065 0.000475 0.001289
-0.002691 0.000674 0.001253
-0.002784 0.000604 0.001133
-0.002796 0.000581 0.001084
-0.002997 0.000449 0.000134
-0.002372 0.000711 0.000538
-0.002219 0.000624 0.001707
-0.002179 0.000653 0.00164
-0.002226 0.000285 0.001724
-0.002247 0.000262 0.001775
-0.002265 0.000241 0.001824
-0.002283 0.00022 0.001871
-0.002294 0.000203 0.001914
-0.002291 0.000195 0.001944
-0.002278 0.000193 0.001965
-0.002262 0.000193 0.001985
-0.002246 0.000193 0.002003
-0.002229 0.000193 0.002021
-0.002212 0.000194 0.002039
-0.002193 0.000195 0.002055
-0.002165 0.000203 0.002063
-0.002123 0.000219 0.002059
-0.002076 0.000238 0.002049
-0.001509 0.000479 0.001915
-0.001492 0.000479 0.001933
-0.001479 0.000477 0.001954
-0.001469 0.000473 0.001978
-0.001464 0.000467 0.002006
-0.001466 0.000455 0.002041
-0.001482 0.000435 0.002088
-0.001498 0.000415 0.002135
-0.002449 0.00032 0.001265
-0.002411 0.000334 0.001264
-0.002367 0.000351 0.001258
-0.002325 0.000367 0.001254
-0.00228 0.000385 0.001247
-0.00223 0.000406 0.001236
-0.002184 0.000424 0.001229
-0.002148 0.000436 0.00123
-0.002121 0.000443 0.001239
-0.002099 0.000447 0.001253
-0.002081 0.000448 0.001269
-0.002065 0.000447 0.001288
-0.002762 0.000659 0.001177
-0.002748 0.000643 0.001009
-0.002792 0.000578 0.00111
-0.002504 0.000641 0.001275
-0.002226 0.000258 0.001724
-0.002248 0.000235 0.001775
-0.002266 0.000213 0.001824
-0.002281 0.000194 0.00187
-0.002294 0.000176 0.001914
-0.00229 0.000169 0.001943
-0.002277 0.000167 0.001964
-0.002262 0.000166 0.001984
-0.002246 0.000166 0.002003
-0.002229 0.000166 0.002021
-0.002211 0.000167 0.002038
-0.002192 0.000169 0.002054
-0.002164 0.000176 0.002063
-0.002122 0.000192 0.002059
-0.002076 0.000211 0.00205
-0.001384 -2.7e-05 0.001577
-0.001508 0.000452 0.001914
-0.001492 0.000452 0.001933
-0.001479 0.00045 0.001954
-0.001469 0.000446 0.001978
-0.001464 0.000439 0.002006
-0.001467 0.000427 0.002042
-0.001482 0.000408 0.002088
-0.001498 0.000388 0.002135
-0.002449 0.000293 0.001264
-0.00241 0.000307 0.001263
-0.002367 0.000324 0.001258
-0.002325 0.00034 0.001254
-0.002279 0.000358 0.001247
-0.00223 0.000379 0.001236
-0.002184 0.000397 0.001229
-0.002148 0.000409 0.00123
-0.002121 0.000416 0.001239
-0.002099 0.00042 0.001253
-0.002081 0.000421 0.001269
-0.002065 0.00042 0.001289
-0.002772 0.00066 0.001154
-0.002506 0.000721 0.001276
-0.002784 0.000577 0.001133
-0.002793 0.000551 0.00111
-0.002226 0.000231 0.001724
-0.002247 0.000208 0.001775
-0.002266 0.000186 0.001824
-0.002293 0.00015 0.001913
-0.002287 0.000143 0.001941
-0.002275 0.000141 0.001963
-0.00226 0.00014 0.001983
-0.002244 0.000139 0.002002
-0.002227 0.00014 0.002019
-0.002209 0.000141 0.002036
-0.002189 0.000143 0.002052
-0.002163 0.000149 0.002062
-0.002122 0.000165 0.002059
-0.002075 0.000184 0.00205
-0.001508 0.000425 0.001914
-0.001492 0.000425 0.001933
-0.001479 0.000423 0.001954
-0.001469 0.000419 0.001978
-0.001464 0.000412 0.002007
-0.001467 0.0004 0.002042
-0.001483 0.000381 0.002088
-0.001498 0.000361 0.002135
-0.00245 0.000265 0.001265
-0.002411 0.000279 0.001264
-0.002368 0.000296 0.001259
-0.002325 0.000313 0.001254
-0.002279 0.000331 0.001247
-0.002229 0.000352 0.001235
-0.002184 0.00037 0.001229
-0.002148 0.000382 0.00123
-0.002121 0.000389 0.001239
-0.002099 0.000393 0.001253
-0.00208 0.000394 0.001269
-0.002065 0.000393 0.001289
-0.002751 0.00066 0.001199
-0.002556 0.000701 0.001272
-0.002961 0.000537 0.000302
-0.002604 0.000573 0.001267
-0.002227 0.000203 0.001724
-0.002247 0.000181 0.001775
-0.002265 0.000159 0.001823
-0.002281 0.000139 0.00187
-0.002291 0.000123 0.001912
-0.002284 0.000118 0.001938
-0.002271 0.000116 0.001959
-0.002256 0.000115 0.00198
-0.002241 0.000114 0.001999
-0.002224 0.000115 0.002016
-0.002205 0.000116 0.002033
-0.002186 0.000118 0.002049
-0.002161 0.000123 0.00206
-0.002123 0.000137 0.002059
-0.002075 0.000157 0.002049
-0.001402 -2.7e-05 0.00156
-0.001509 0.000397 0.001915
-0.001492 0.000398 0.001933
-0.001479 0.000396 0.001954
-0.001469 0.000392 0.001978
-0.001464 0.000385 0.002006
-0.001466 0.000373 0.002041
-0.001482 0.000354 0.002088
-0.001499 0.000333 0.002135
-0.002448 0.00024 0.001263
-0.002411 0.000252 0.001264
-0.002368 0.000269 0.001259
-0.002325 0.000286 0.001254
-0.002279 0.000304 0.001247
-0.002229 0.000324 0.001236
-0.002183 0.000343 0.001228
-0.002148 0.000355 0.00123
-0.002121 0.000362 0.001239
-0.002098 0.000366 0.001252
-0.00208 0.000367 0.001269
-0.002065 0.000366 0.001289
-0.002738 0.000661 0.00122
-0.002775 0.000604 0.001156
-0.002726 0.00058 0.001242
-0.002765 0.000549 0.001178
-0.00278 0.000568 0.00105
-0.002227 0.000176 0.001725
-0.002247 0.000153 0.001775
-0.002266 0.000132 0.001824
-0.002281 0.000113 0.00187
-0.002287 9.8e-05 0.001908
-0.002278 9.4e-05 0.001933
-0.002265 9.2e-05 0.001954
-0.002251 9.1e-05 0.001975
-0.002235 9.1e-05 0.001994
-0.002218 9.1e-05 0.002012
-0.0022 9.2e-05 0.002028
-0.002181 9.4e-05 0.002044
-0.002158 9.9e-05 0.002057
-0.002121 0.000111 0.002057
-0.002075 0.00013 0.00205
-0.001509 0.00037 0.001915
-0.001492 0.000371 0.001933
-0.001479 0.000369 0.001954
-0.001469 0.000365 0.001978
-0.001464 0.000358 0.002006
-0.001466 0.000346 0.002041
-0.001483 0.000326 0.002088
-0.001498 0.000306 0.002135
-0.002449 0.000211 0.001264
-0.00241 0.000225 0.001263
-0.002369 0.000241 0.00126
-0.002325 0.000258 0.001254
-0.002279 0.000277 0.001246
-0.002229 0.000297 0.001236
-0.002183 0.000316 0.001228
-0.002147 0.000328 0.001229
-0.00212 0.000335 0.001239
-0.002098 0.000338 0.001252
-0.00208 0.00034 0.001269
-0.002065 0.000339 0.001288
-0.00272 0.000665 0.001239
-0.002755 0.000603 0.001201
-0.002744 0.000576 0.001223
-0.002556 0.000646 0.001272
-0.00265 0.000609 0.001261
-0.002226 0.000149 0.001724
-0.002248 0.000126 0.001776
-0.002266 0.000104 0.001824
-0.002279 8.6e-05 0.001868
-0.002281 7.5e-05 0.001903
-0.002271 7.2e-05 0.001927
-0.002257 7e-05 0.001948
-0.002243 6.9e-05 0.001968
-0.002227 6.8e-05 0.001987
-0.00221 6.9e-05 0.002005
-0.002193 7e-05 0.002022
-0.002173 7.2e-05 0.002038
-0.002151 7.5e-05 0.002051
-0.002119 8.5e-05 0.002056
-0.002075 0.000102 0.00205
-0.002026 0.000123 0.002037
-0.001508 0.000343 0.001914
-0.001492 0.000343 0.001933
-0.001478 0.000342 0.001954
-0.001469 0.000338 0.001978
-0.001464 0.000331 0.002006
-0.001467 0.000319 0.002042
-0.001483 0.000299 0.002089
-0.001499 0.000279 0.002135
-0.002448 0.000185 0.001268
-0.00241 0.000198 0.001263
-0.002368 0.000214 0.001259
-0.002325 0.000231 0.001254
-0.002279 0.000249 0.001247
-0.002229 0.00027 0.001236
-0.002183 0.000289 0.001228
-0.002147 0.000301 0.00123
-0.00212 0.000308 0.001239
-0.002098 0.000311 0.001252
-0.00208 0.000313 0.001269
-0.002065 0.000312 0.001288
-0.002727 0.000598 0.000989
-0.002792 0.000606 0.001109
-0.002755 0.000576 0.001201
-0.002781 0.00054 0.00105
-0.001419 -2.8e-05 0.001542
-0.002249 9.8e-05 0.001777
-0.002266 7.8e-05 0.001824
-0.002276 6.1e-05 0.001866
-0.002272 5.3e-05 0.001895
-0.002261 5e-05 0.001918
-0.002247 4.9e-05 0.001939
-0.002232 4.8e-05 0.001959
-0.002217 4.8e-05 0.001978
-0.0022 4.8e-05 0.001996
-0.002182 4.9e-05 0.002013
-0.002163 5.1e-05 0.002029
-0.002143 5.4e-05 0.002044
-0.002115 6e-05 0.002053
-0.002075 7.5e-05 0.00205
-0.002025 9.6e-05 0.002037
-0.001509 0.000316 0.001915
-0.001492 0.000316 0.001933
-0.001478 0.000315 0.001953
-0.001468 0.000311 0.001978
-0.001463 0.000304 0.002006
-0.001466 0.000292 0.002041
-0.001483 0.000271 0.002089
-0.001498 0.000252 0.002134
-0.002447 0.000159 0.001262
-0.00241 0.000171 0.001263
-0.002368 0.000187 0.001259
-0.002324 0.000204 0.001254
-0.002279 0.000222 0.001246
-0.00223 0.000243 0.001237
-0.002184 0.000261 0.001229
-0.002147 0.000274 0.001229
-0.00212 0.00028 0.001239
-0.002098 0.000284 0.001252
-0.00208 0.000286 0.001269
-0.002064 0.000285 0.001288
-0.002687 0.000704 0.001251
-0.002762 0.000704 0.000397
-0.002765 0.000576 0.001178
-0.002755 0.000522 0.001201
-0.001436 -2.9e-05 0.001524
-0.002249 7.1e-05 0.001777
-0.002264 5.1e-05 0.001823
-0.002268 3.9e-05 0.001859
-0.00226 3.4e-05 0.001885
-0.002248 3.1e-05 0.001907
-0.002234 3e-05 0.001927
-0.002219 2.9e-05 0.001947
-0.002203 2.9e-05 0.001966
-0.002186 2.9e-05 0.001984
-0.002169 3e-05 0.002001
-0.00215 3.2e-05 0.002017
-0.00213 3.4e-05 0.002033
-0.002106 3.9e-05 0.002044
-0.002072 5e-05 0.002047
-0.001453 -2.9e-05 0.001507
-0.001508 0.000289 0.001914
-0.001492 0.000289 0.001932
-0.001478 0.000288 0.001953
-0.001468 0.000284 0.001977
-0.001463 0.000276 0.002006
-0.001467 0.000264 0.002042
-0.001483 0.000244 0.002089
-0.001497 0.000225 0.002134
-0.002448 0.00013 0.001264
-0.00241 0.000144 0.001263
-0.002368 0.00016 0.001259
-0.002324 0.000177 0.001253
-0.002278 0.000195 0.001246
-0.00223 0.000216 0.001236
-0.002184 0.000234 0.001229
-0.002147 0.000247 0.001229
-0.00212 0.000254 0.001238
-0.002098 0.000257 0.001252
-0.00208 0.000258 0.001269
-0.002064 0.000258 0.001288
-0.002779 0.000699 0.001076
-0.002795 0.000609 0.001084
-0.002774 0.000577 0.001155
-0.002603 0.000546 0.001266
-0.00147 -3e-05 0.001489
-0.002227 6.7e-05 0.001725
-0.002247 4.5e-05 0.001775
-0.002257 2.8e-05 0.001817
-0.002254 2.1e-05 0.001846
-0.002243 1.7e-05 0.00187
-0.00223 1.5e-05 0.001891
-0.002215 1.4e-05 0.001911
-0.0022 1.4e-05 0.00193
-0.002184 1.4e-05 0.001949
-0.002168 1.4e-05 0.001967
-0.00215 1.4e-05 0.001985
-0.002132 1.5e-05 0.002002
-0.002113 1.7e-05 0.002018
-0.002091 2.1e-05 0.002031
-0.002063 2.9e-05 0.002039
-0.001508 0.000262 0.001914
-0.001492 0.000262 0.001933
-0.001478 0.000261 0.001953
-0.001468 0.000256 0.001978
-0.001463 0.000249 0.002006
-0.001467 0.000237 0.002042
-0.001482 0.000218 0.002088
-0.001497 0.000198 0.002134
-0.002449 0.000103 0.001264
-0.002411 0.000116 0.001264
-0.002367 0.000133 0.001258
-0.002324 0.00015 0.001254
-0.002279 0.000168 0.001247
-0.00223 0.000188 0.001237
-0.002184 0.000207 0.001229
-0.002147 0.00022 0.001229
-0.00212 0.000226 0.001238
-0.002098 0.00023 0.001252
-0.00208 0.000231 0.001269
-0.002064 0.00023 0.001288
-0.002778 0.000694 0.001103
-0.00278 0.000622 0.00105
-0.002623 0.000735 0.000874
-0.002073 0.000755 0.001482
-0.002793 0.000523 0.00111
-0.002226 4.1e-05 0.001724
-0.002241 2.1e-05 0.00177
-0.002241 1.1e-05 0.001803
-0.002231 7e-06 0.001827
-0.002216 6e-06 0.001846
-0.0022 6e-06 0.001865
-0.002185 6e-06 0.001884
-0.002169 6e-06 0.001903
-0.002152 6e-06 0.001921
-0.002136 6e-06 0.00194
-0.00212 6e-06 0.001958
-0.002103 6e-06 0.001977
-0.002086 7e-06 0.001995
-0.002068 8e-06 0.002011
-0.002046 1.3e-05 0.002024
-0.001508 0.000235 0.001914
-0.001491 0.000235 0.001932
-0.001478 0.000233 0.001953
-0.001468 0.000229 0.001978
-0.001463 0.000222 0.002006
-0.001467 0.00021 0.002042
-0.001483 0.00019 0.002089
-0.001497 0.000171 0.002134
-0.002448 7.6e-05 0.001264
-0.00241 9e-05 0.001263
-0.002367 0.000106 0.001258
-0.002323 0.000123 0.001253
-0.00228 0.00014 0.001247
-0.002231 0.000161 0.001237
-0.002184 0.00018 0.001229
-0.002147 0.000192 0.00123
-0.00212 0.000199 0.001238
-0.002098 0.000203 0.001252
-0.002079 0.000204 0.001269
-0.002064 0.000203 0.001288
-0.002772 0.000692 0.001127
-0.002741 0.000632 0.001222
-0.002213 0.000733 0.00171
-0.002779 0.000514 0.001049
-0.002504 0.000586 0.001275
-0.002555 0.000565 0.001271
-0.00222 1.7e-05 0.001719
-0.002223 5e-06 0.001754
-0.002215 0.0 0.00178
-0.002185 -2e-06 0.00182
-0.00217 -2e-06 0.001839
-0.002154 -2e-06 0.001857
-0.002136 -1e-06 0.001874
-0.00212 -1e-06 0.001893
-0.002103 -1e-06 0.001911
-0.002089 -2e-06 0.001931
-0.002071 -1e-06 0.001948
-0.002055 -1e-06 0.001968
-0.001508 0.000208 0.001914
-0.001492 0.000208 0.001933
-0.001478 0.000206 0.001953
-0.001469 0.000202 0.001978
-0.001464 0.000195 0.002006
-0.001467 0.000183 0.002042
-0.001483 0.000163 0.002089
-0.001497 0.000144 0.002134
-0.002449 4.8e-05 0.001265
-0.002409 6.3e-05 0.001263
-0.002368 7.9e-05 0.001259
-0.002324 9.6e-05 0.001253
-0.002279 0.000114 0.001247
-0.002231 0.000133 0.001237
-0.002183 0.000153 0.001228
-0.002147 0.000165 0.00123
-0.00212 0.000172 0.001239
-0.002098 0.000176 0.001252
-0.002079 0.000177 0.001269
-0.002064 0.000176 0.001288
-0.002713 0.000696 0.001236
-0.002754 0.000631 0.0012
-0.002506 0.000694 0.001276
-0.002217 0.000705 0.00171
-0.002193 1.6e-05 0.001663
-0.002199 3e-06 0.001701
-0.002188 -0.0 0.001723
-0.002171 0.0 0.001741
-0.001487 -3e-05 0.001471
-0.002056 1e-06 0.00187
-0.002042 0.0 0.00189
-0.002024 1e-06 0.001908
-0.001503 -3e-05 0.001452
-0.001508 0.00018 0.001914
-0.001492 0.00018 0.001933
-0.001478 0.000179 0.001953
-0.001468 0.000175 0.001978
-0.001464 0.000168 0.002006
-0.001467 0.000155 0.002042
-0.001482 0.000136 0.002088
-0.001497 0.000117 0.002133
-0.002446 2.3e-05 0.001262
-0.002409 3.6e-05 0.001262
-0.002369 5.1e-05 0.00126
-0.002324 6.8e-05 0.001253
-0.002278 8.7e-05 0.001246
-0.002229 0.000107 0.001236
-0.002182 0.000126 0.001228
-0.002147 0.000138 0.00123
-0.00212 0.000145 0.001239
-0.002098 0.000148 0.001252
-0.00208 0.00015 0.001269
-0.002064 0.000149 0.001288
-0.002765 0.00069 0.001151
-0.002774 0.000631 0.001156
-0.002603 0.000655 0.001266
-0.002157 0.000723 0.001603
-0.002172 3e-06 0.001644
-0.002156 2e-06 0.001663
-0.00152 -3.1e-05 0.001434
0.000919 -1.7e-05 0.001924
0.000896 -1.8e-05 0.001933
0.000873 -1.9e-05 0.001942
-0.001537 -3.1e-05 0.001416
-0.001553 -3.1e-05 0.001397
-0.001508 0.000153 0.001915
-0.001492 0.000153 0.001933
-0.001478 0.000152 0.001954
-0.001468 0.000147 0.001978
-0.001464 0.00014 0.002007
-0.001468 0.000128 0.002043
-0.001482 0.000109 0.002088
-0.001497 9e-05 0.002134
-0.002431 5e-06 0.001249
-0.002404 1.2e-05 0.001258
-0.002369 2.4e-05 0.00126
-0.002324 4.1e-05 0.001253
-0.002277 6e-05 0.001245
-0.002228 8e-05 0.001235
-0.002182 9.9e-05 0.001228
-0.002147 0.000111 0.00123
-0.00212 0.000117 0.001239
-0.002098 0.000121 0.001252
-0.00208 0.000122 0.001269
-0.002064 0.000122 0.001288
-0.00273 0.000692 0.001216
-0.002604 0.000708 0.001267
-0.002649 0.000636 0.001261
-0.002197 0.000665 0.001675
-0.002774 0.000522 0.001156
-0.002748 0.000726 0.001143
-0.001569 -3.1e-05 0.001379
-0.001585 -3.1e-05 0.00136
-0.001601 -3.1e-05 0.001341
0.00085 -1.9e-05 0.001951
0.000826 -1.9e-05 0.001959
0.000803 -2e-05 0.001967
0.00078 -2e-05 0.001976
-0.001617 -3e-05 0.001323
-0.001508 0.000126 0.001915
-0.001492 0.000126 0.001933
-0.001479 0.000124 0.001954
-0.001469 0.00012 0.001978
-0.001464 0.000113 0.002006
-0.001467 0.000101 0.002042
-0.001483 8.1e-05 0.002089
-0.001497 6.3e-05 0.002133
-0.002393 2e-06 0.001215
-0.002378 0.0 0.001235
-0.002358 3e-06 0.00125
-0.002324 1.4e-05 0.001254
-0.002279 3.2e-05 0.001247
-0.002229 5.3e-05 0.001235
-0.002181 7.2e-05 0.001227
-0.002147 8.3e-05 0.00123
-0.00212 9e-05 0.001239
-0.002097 9.4e-05 0.001252
-0.002079 9.5e-05 0.001269
-0.002064 9.5e-05 0.001288
-0.002051 9.3e-05 0.001309
-0.002039 8.9e-05 0.001333
-0.002765 0.000603 0.001178
-0.002784 0.000523 0.001133
-0.001633 -3.1e-05 0.001304
-0.001649 -3e-05 0.001285
-0.002727 0.000726 0.001188
-0.002739 0.000725 0.001166
-0.001784 -2e-06 0.001927
-0.001508 9.9e-05 0.001915
-0.001492 9.9e-05 0.001933
-0.001479 9.7e-05 0.001954
-0.001469 9.3e-05 0.001978
-0.001463 8.6e-05 0.002006
-0.001468 7.4e-05 0.002043
-0.001483 5.4e-05 0.002089
-0.001497 3.5e-05 0.002134
-0.002358 -2e-06 0.001185
-0.002341 -3e-06 0.001203
-0.002325 -3e-06 0.001221
-0.002305 -2e-06 0.001237
-0.002277 6e-06 0.001245
-0.00223 2.5e-05 0.001237
-0.002181 4.5e-05 0.001227
-0.002147 5.7e-05 0.001229
-0.00212 6.3e-05 0.001238
-0.002097 6.7e-05 0.001252
-0.002079 6.8e-05 0.001268
-0.002064 6.8e-05 0.001288
-0.002051 6.6e-05 0.001309
-0.00204 6.2e-05 0.001333
-0.002748 0.00067 0.00101
-0.002797 0.000526 0.001085
-0.001664 -3e-05 0.001266
-0.00168 -2.9e-05 0.001247
-0.001913 1e-06 0.00168
-0.001898 0.0 0.001699
-0.001696 -2.9e-05 0.001228
-0.001711 -2.9e-05 0.001208
-0.001726 -2.8e-05 0.001189
-0.001754 -1e-06 0.001868
-0.001745 -5e-06 0.001892
-0.001508 7.2e-05 0.001915
-0.001493 7.1e-05 0.001934
-0.001478 7e-05 0.001953
-0.001468 6.6e-05 0.001978
-0.001463 5.9e-05 0.002006
-0.001467 4.7e-05 0.002042
-0.001483 2.7e-05 0.002089
-0.001497 8e-06 0.002134
-0.00231 -2e-06 0.001143
-0.002294 -2e-06 0.001162
-0.002276 -1e-06 0.001179
-0.002261 -1e-06 0.001198
-0.002246 -2e-06 0.001218
-0.002224 2e-06 0.001231
-0.002182 1.7e-05 0.001228
-0.002146 3e-05 0.001229
-0.002119 3.6e-05 0.001238
-0.002097 4e-05 0.001251
-0.002079 4.1e-05 0.001268
-0.002063 4.1e-05 0.001287
-0.00205 3.9e-05 0.001309
-0.00204 3.5e-05 0.001332
-0.002032 3e-05 0.001359
-0.00216 0.000749 0.001604
-0.002215 0.000678 0.001711
-0.002755 0.000549 0.001201
-0.002492 0.000751 0.000454
0.000757 -2e-05 0.001983
-0.002992 0.000444 0.000257
-0.001914 3e-06 0.001583
-0.001898 3e-06 0.001601
-0.001883 3e-06 0.00162
-0.001867 3e-06 0.001639
-0.001817 3e-06 0.001694
-0.001802 2e-06 0.001713
-0.001769 3e-06 0.00175
-0.001721 2e-06 0.001807
-0.001705 3e-06 0.001825
-0.001508 4.5e-05 0.001915
-0.001492 4.4e-05 0.001933
-0.001476 4.4e-05 0.001952
-0.001467 4e-05 0.001976
-0.001463 3.2e-05 0.002006
-0.001468 1.9e-05 0.002043
-0.001471 -3e-06 0.002111
-0.002259 3e-06 0.001099
-0.002245 1e-06 0.001119
-0.002228 2e-06 0.001137
-0.002211 2e-06 0.001155
-0.002195 2e-06 0.001174
-0.00218 2e-06 0.001193
-0.002164 2e-06 0.001212
-0.002142 5e-06 0.001226
-0.002118 1e-05 0.001237
-0.002096 1.3e-05 0.001251
-0.002079 1.4e-05 0.001268
-0.002063 1.4e-05 0.001287
-0.002051 1.2e-05 0.001309
-0.00204 8e-06 0.001332
-0.002031 4e-06 0.001358
-0.002021 2e-06 0.001383
-0.00201 -3e-06 0.001404
-0.001993 -3e-06 0.001422
-0.001977 -3e-06 0.001441
-0.001962 -4e-06 0.00146
-0.00278 0.000649 0.001049
-0.002697 0.000731 0.001228
-0.001914 -4e-06 0.001517
-0.001898 -4e-06 0.001536
-0.001882 -4e-06 0.001554
-0.001866 -5e-06 0.001573
-0.00185 -4e-06 0.001592
-0.001834 -4e-06 0.00161
-0.001818 -4e-06 0.001629
-0.001741 -2.7e-05 0.001169
-0.001785 -4e-06 0.001666
-0.001769 -4e-06 0.001684
-0.001753 -4e-06 0.001703
-0.001737 -4e-06 0.001722
-0.00172 -4e-06 0.00174
-0.001686 -3e-06 0.001775
-0.001669 -3e-06 0.001794
-0.001652 -2e-06 0.001812
-0.001508 1.7e-05 0.001915
-0.001489 1.9e-05 0.00193
-0.001473 1.9e-05 0.001949
-0.00222 -0.0 0.001065
-0.002205 -1e-06 0.001084
-0.002191 -3e-06 0.001105
-0.002177 -4e-06 0.001125
-0.002162 -4e-06 0.001144
-0.002146 -5e-06 0.001163
-0.002131 -5e-06 0.001183
-0.002117 -6e-06 0.001203
-0.002102 -7e-06 0.001223
-0.002086 -7e-06 0.001242
-0.002069 -7e-06 0.00126
-0.002053 -7e-06 0.001278
-0.002037 -7e-06 0.001297
-0.002023 -8e-06 0.001317
-0.002007 -9e-06 0.001336
-0.001991 -9e-06 0.001355
-0.001975 -9e-06 0.001373
-0.001958 -8e-06 0.001392
-0.001942 -8e-06 0.00141
-0.001926 -8e-06 0.001429
-0.00191 -8e-06 0.001448
-0.002473 0.000676 0.000752
-0.001879 -9e-06 0.001486
-0.001861 -8e-06 0.001503
-0.001845 -8e-06 0.001522
-0.001829 -8e-06 0.00154
-0.001813 -9e-06 0.001559
-0.001798 -9e-06 0.001579
-0.001779 -8e-06 0.001595
-0.00175 -9e-06 0.001635
-0.001732 -9e-06 0.001653
-0.001716 -9e-06 0.001671
-0.0017 -9e-06 0.00169
-0.001632 -7e-06 0.001761
-0.001616 -7e-06 0.00178
-0.001588 -9e-06 0.00182
-0.00157 -8e-06 0.001838
-0.0015 -3e-06 0.001907
-0.001481 -2e-06 0.001923
-0.001464 -3e-06 0.001942
-0.001453 -6e-06 0.001964
-0.001381 -2e-06 0.002032
-0.002757 0.000727 0.00112
-0.002174 -9e-06 0.001057
-0.002157 -8e-06 0.001075
-0.002142 -9e-06 0.001095
-0.002776 0.000494 0.001156
-0.00211 -9e-06 0.001132
-0.002092 -8e-06 0.001149
-0.002073 -7e-06 0.001165
-0.002058 -7e-06 0.001185
-0.002043 -8e-06 0.001205
-0.002025 -7e-06 0.001221
-0.002009 -7e-06 0.00124
-0.001993 -7e-06 0.001259
-0.001977 -7e-06 0.001277
-0.001962 -8e-06 0.001297
-0.001942 -6e-06 0.001313
-0.001926 -6e-06 0.001331
-0.001909 -5e-06 0.001349
-0.001894 -6e-06 0.001369
-0.001877 -5e-06 0.001386
-0.001857 -3e-06 0.001402
-0.001755 -2.6e-05 0.001149
-0.001776 -4e-06 0.001495
-0.00176 -3e-06 0.001513
-0.002762 0.000729 0.001096
-0.001681 -4e-06 0.001607
-0.001665 -4e-06 0.001627
-0.00165 -5e-06 0.001646
-0.001633 -5e-06 0.001664
-0.00157 -5e-06 0.001739
-0.001553 -5e-06 0.001757
-0.001539 -6e-06 0.001778
-0.001524 -7e-06 0.001797
-0.001508 -8e-06 0.001817
-0.00146 -7e-06 0.001872
-0.001445 -8e-06 0.001892
-0.001431 -1e-05 0.001913
-0.001414 -9e-06 0.00193
-0.001396 -8e-06 0.001948
-0.001381 -8e-06 0.001967
-0.001364 -9e-06 0.001985
-0.001348 -8e-06 0.002003
-0.00242 0.00075 0.000475
-0.002519 0.000715 0.00044
-0.002477 0.000732 0.000448
-0.002059 -5e-06 0.001088
-0.002044 -6e-06 0.001107
-0.002025 -4e-06 0.001123
-0.002009 -4e-06 0.001142
-0.001992 -4e-06 0.00116
-0.001974 -3e-06 0.001177
-0.00196 -4e-06 0.001197
-0.001942 -3e-06 0.001214
-0.001926 -3e-06 0.001233
-0.001909 -2e-06 0.001251
-0.001893 -3e-06 0.00127
-0.001879 -4e-06 0.00129
-0.00186 -2e-06 0.001306
-0.001841 -1e-06 0.001322
-0.001826 -1e-06 0.001342
-0.001811 -2e-06 0.001361
-0.002727 0.00057 0.00099
-0.002727 0.000498 0.001242
-0.002745 0.000494 0.001224
-0.001727 0.0 0.001452
-0.001714 -2e-06 0.001473
-0.001648 -1e-06 0.001546
-0.001631 -0.0 0.001564
-0.001615 -1e-06 0.001583
-0.001599 -1e-06 0.001601
-0.001582 -0.0 0.00162
-0.001567 -1e-06 0.001639
-0.002438 0.000642 0.001264
-0.001535 -1e-06 0.001676
-0.00152 -2e-06 0.001696
-0.001504 -2e-06 0.001715
-0.001488 -2e-06 0.001733
-0.001472 -2e-06 0.001752
-0.001457 -2e-06 0.001771
-0.001441 -3e-06 0.00179
-0.002158 0.000695 0.001603
-0.002555 0.000593 0.001271
-0.00136 -3e-06 0.001883
-0.001345 -4e-06 0.001903
-0.00133 -5e-06 0.001923
-0.001314 -4e-06 0.001941
-0.001299 -5e-06 0.001961
-0.002068 0.000731 0.00148
-0.002698 0.00065 0.000412
-0.002042 -2e-06 0.001007
-0.002025 -1e-06 0.001025
-0.00201 -2e-06 0.001044
-0.001977 -1e-06 0.001081
-0.00196 -1e-06 0.001099
-0.001944 -1e-06 0.001118
-0.001926 -0.0 0.001135
-0.00191 0.0 0.001153
-0.001893 1e-06 0.001171
-0.002994 0.000554 0.000233
-0.002849 0.000585 0.00036
-0.001814 -1e-06 0.001266
-0.001798 -1e-06 0.001284
-0.001781 -0.0 0.001302
-0.001766 -1e-06 0.001322
-0.002808 0.000629 0.000379
-0.002506 0.000667 0.001275
-0.002693 0.000592 0.001254
-0.001686 -2e-06 0.001416
-0.001669 -2e-06 0.001434
-0.001654 -2e-06 0.001453
-0.001637 -2e-06 0.001471
-0.001621 -1e-06 0.001489
-0.001605 -2e-06 0.001509
-0.001589 -2e-06 0.001527
-0.001572 -1e-06 0.001545
-0.001556 -1e-06 0.001564
-0.001539 -1e-06 0.001582
-0.001523 -1e-06 0.0016
-0.001491 -1e-06 0.001638
-0.001474 -1e-06 0.001656
-0.001457 -0.0 0.001674
-0.00144 0.0 0.001691
-0.001425 -0.0 0.001711
-0.001408 0.0 0.001729
-0.001392 -0.0 0.001748
-0.001313 -1e-06 0.001842
-0.001298 -2e-06 0.001862
-0.001281 -1e-06 0.00188
-0.001266 -2e-06 0.001899
-0.00213 0.000688 0.001563
-0.002042 0.000749 0.00144
-0.002743 0.000604 0.001222
-0.002713 0.000728 0.001209
-0.00198 -1e-06 0.000986
-0.001964 -1e-06 0.001004
-0.002114 0.000755 0.001257
-0.002678 0.00057 0.000933
-0.001918 -3e-06 0.001062
-0.001903 -3e-06 0.001082
-0.001887 -3e-06 0.001101
-0.001872 -4e-06 0.001121
-0.001857 -5e-06 0.00114
-0.001841 -5e-06 0.001159
-0.002603 0.0006 0.001266
-0.002744 0.000549 0.001223
-0.002774 0.000549 0.001156
-0.002797 0.000554 0.001085
-0.001764 -7e-06 0.001254
-0.001749 -8e-06 0.001274
-0.001734 -8e-06 0.001294
-0.001718 -8e-06 0.001313
-0.001701 -8e-06 0.001331
-0.001685 -8e-06 0.001349
-0.001669 -8e-06 0.001368
-0.001653 -9e-06 0.001387
-0.001637 -9e-06 0.001406
-0.001621 -9e-06 0.001424
-0.001605 -9e-06 0.001443
-0.001589 -9e-06 0.001462
-0.001573 -9e-06 0.001481
-0.001557 -9e-06 0.001499
-0.00154 -8e-06 0.001517
-0.001522 -8e-06 0.001534
-0.001455 -7e-06 0.001606
-0.001439 -7e-06 0.001625
-0.001423 -6e-06 0.001644
-0.001405 -5e-06 0.001661
-0.001388 -5e-06 0.001679
-0.001372 -4e-06 0.001697
-0.001268 -1e-06 0.001803
-0.001251 -0.0 0.001821
-0.001236 -1e-06 0.00184
-0.001219 -0.0 0.001858
-0.001202 0.0 0.001876
-0.002766 0.000494 0.001179
-0.002197 0.000747 0.001675
-0.002961 0.000618 0.000303
-0.002473 0.000746 -0.00013
-0.002556 0.000728 0.001271
-0.002518 0.000653 0.000784
-0.002674 0.000738 0.001245
-0.002743 0.000691 0.001195
-0.002755 0.00069 0.001174
-0.001872 -1.1e-05 0.001055
-0.001857 -1.2e-05 0.001074
-0.001842 -1.2e-05 0.001094
-0.001827 -1.3e-05 0.001114
-0.001812 -1.4e-05 0.001133
-0.001797 -1.4e-05 0.001153
-0.001781 -1.5e-05 0.001172
-0.001766 -1.5e-05 0.001191
-0.001751 -1.6e-05 0.00121
-0.001735 -1.6e-05 0.00123
-0.00172 -1.7e-05 0.001249
-0.001705 -1.8e-05 0.001269
-0.001689 -1.8e-05 0.001288
-0.001673 -1.8e-05 0.001306
-0.001657 -1.8e-05 0.001325
-0.001641 -1.8e-05 0.001344
-0.001626 -1.9e-05 0.001363
-0.00161 -1.9e-05 0.001382
-0.001593 -1.8e-05 0.0014
-0.001577 -1.8e-05 0.001418
-0.001561 -1.8e-05 0.001437
-0.001544 -1.8e-05 0.001455
-0.001528 -1.8e-05 0.001474
-0.001512 -1.8e-05 0.001492
-0.001495 -1.8e-05 0.001511
-0.001478 -1.8e-05 0.001528
-0.001461 -1.7e-05 0.001546
-0.001444 -1.7e-05 0.001564
-0.001427 -1.6e-05 0.001582
-0.00141 -1.5e-05 0.0016
-0.001393 -1.5e-05 0.001618
-0.001376 -1.5e-05 0.001636
-0.001359 -1.4e-05 0.001653
-0.001341 -1.3e-05 0.001671
-0.001201 -6e-06 0.00181
-0.002756 0.000494 0.001201
-0.002133 0.000714 0.001564
-0.002103 0.000735 0.001523
-0.002555 0.00062 0.001271
-0.002182 0.000734 0.001638
-0.002086 0.000763 0.001271
-0.002603 0.000627 0.001266
-0.002403 0.000754 0.000495
-0.002765 0.000522 0.001178
-0.002178 0.000707 0.001639
-0.002991 0.000499 0.000257
-0.002429 0.000753 0.00072
-0.002902 0.000622 -0.000685
-0.002578 0.000673 -9.4e-05
-0.002702 0.000567 0.000413
-0.002652 0.000584 0.000904
-0.002622 0.000599 0.000874
-0.00278 0.000486 0.00105
-0.002798 0.000472 0.001085
-0.002794 0.000468 0.00111
-0.002785 0.000468 0.001133
-0.002776 0.000467 0.001156
-0.002766 0.000467 0.001179
-0.002756 0.000467 0.001202
-0.002745 0.000467 0.001224
-0.002728 0.000471 0.001243
-0.002692 0.000484 0.001253
-0.00265 0.0005 0.001261
-0.002604 0.000518 0.001267
-0.002554 0.000538 0.001271
-0.002505 0.000559 0.001275
-0.002104 0.000732 0.001252
-0.002082 0.000738 0.001269
-0.002041 0.000744 0.001332
-0.002031 0.000733 0.001408
-0.002041 0.000723 0.00144
-0.002069 0.000703 0.00148
-0.002102 0.00068 0.001523
-0.00213 0.000661 0.001563
-0.002158 0.000641 0.001603
-0.002178 0.000626 0.001639
-0.002196 0.000611 0.001675
-0.002519 0.000688 0.00044
-0.002477 0.000705 0.000448
-0.002445 0.000716 0.00046
-0.002417 0.000725 0.000474
-0.002399 0.000729 0.000493
-0.002384 0.000732 0.000513
-0.002989 0.000608 0.000257
-0.002704 0.000719 0.000961
-0.002729 0.000706 0.000989
-0.002961 0.000591 0.000302
-0.002997 0.000474 0.000184
-0.00296 0.000483 0.000303
-0.002848 0.000612 0.00036
-0.002745 0.00048 0.001011
-0.00278 0.000459 0.00105
-0.002798 0.000445 0.001085
-0.002794 0.000441 0.00111
-0.002785 0.000441 0.001133
-0.002775 0.00044 0.001156
-0.002766 0.00044 0.001179
-0.002756 0.00044 0.001202
-0.002745 0.00044 0.001224
-0.002727 0.000444 0.001243
-0.002692 0.000456 0.001253
-0.002649 0.000473 0.001261
-0.002604 0.000491 0.001267
-0.002555 0.000511 0.001271
-0.002502 0.000533 0.001274
-0.002042 0.000717 0.001332
-0.002035 0.000715 0.001356
-0.002031 0.000712 0.001381
-0.002031 0.000706 0.001408
-0.00204 0.000696 0.00144
-0.00207 0.000675 0.001481
-0.002103 0.000653 0.001523
-0.002129 0.000634 0.001562
-0.002158 0.000614 0.001603
-0.002178 0.000599 0.001639
-0.002198 0.000583 0.001676
-0.002213 0.00057 0.00171
-0.00248 0.000676 0.000449
-0.002442 0.00069 0.000461
-0.002417 0.000698 0.000475
-0.002398 0.000703 0.000492
-0.002383 0.000704 0.000513
-0.002875 0.000682 -0.000814
-0.002701 0.000747 0.000961
-0.002725 0.000734 0.000989
-0.002983 0.000582 0.000281
-0.00296 0.00051 0.000302
-0.002927 0.000524 0.000322
-0.002996 0.00061 0.000183
-0.002746 0.000453 0.00101
-0.00278 0.000432 0.00105
-0.002798 0.000417 0.001085
-0.002794 0.000414 0.00111
-0.002785 0.000414 0.001133
-0.002775 0.000413 0.001156
-0.002766 0.000413 0.001179
-0.002755 0.000413 0.001201
-0.002745 0.000413 0.001224
-0.002727 0.000416 0.001243
-0.002692 0.000429 0.001253
-0.002649 0.000446 0.001261
-0.002603 0.000465 0.001266
-0.002556 0.000483 0.001272
-0.0025 0.000506 0.001273
-0.002042 0.00069 0.001332
-0.002034 0.000688 0.001355
-0.00203 0.000685 0.001381
-0.002031 0.000679 0.001408
-0.00204 0.000669 0.00144
-0.002068 0.000649 0.00148
-0.002103 0.000626 0.001523
-0.002129 0.000607 0.001563
-0.002158 0.000587 0.001603
-0.002178 0.000572 0.001639
-0.002197 0.000556 0.001676
-0.002214 0.000542 0.001711
-0.002521 0.000633 0.000441
-0.00248 0.000649 0.000449
-0.002441 0.000663 0.000458
-0.002416 0.000671 0.000474
-0.002397 0.000675 0.000492
-0.002383 0.000677 0.000513
-0.002373 0.000677 0.000535
-0.002974 0.000697 0.000254
-0.002811 0.000737 0.000379
-0.002977 0.000692 0.000125
-0.002996 0.000583 0.000183
-0.002622 0.000654 0.000874
-0.00289 0.00054 0.000342
-0.00298 0.000638 0.00028
-0.002748 0.000426 0.00101
-0.00278 0.000405 0.00105
-0.002798 0.00039 0.001085
-0.002793 0.000387 0.00111
-0.002784 0.000387 0.001133
-0.002775 0.000386 0.001156
-0.002765 0.000386 0.001179
-0.002756 0.000385 0.001201
-0.002745 0.000385 0.001224
-0.002727 0.000389 0.001243
-0.002693 0.000402 0.001254
-0.002648 0.000419 0.00126
-0.002604 0.000437 0.001267
-0.002555 0.000457 0.001271
-0.002504 0.000478 0.001275
-0.002052 0.000662 0.00131
-0.002041 0.000663 0.001332
-0.002034 0.000661 0.001355
-0.00203 0.000657 0.001381
-0.002031 0.000652 0.001408
-0.002041 0.000641 0.00144
-0.002067 0.000622 0.00148
-0.002104 0.000598 0.001524
-0.002131 0.000579 0.001563
-0.002159 0.000559 0.001604
-0.002177 0.000544 0.001639
-0.002197 0.000529 0.001676
-0.002214 0.000515 0.001711
-0.002521 0.000606 0.000441
-0.002479 0.000622 0.000449
-0.002441 0.000636 0.000458
-0.002416 0.000644 0.000474
-0.002397 0.000648 0.000492
-0.002383 0.00065 0.000513
-0.002373 0.00065 0.000535
-0.002982 0.000697 0.000206
-0.002852 0.000719 0.000361
-0.002566 0.00063 -0.000416
-0.002449 0.000701 -0.000152
-0.002996 0.000527 0.000208
-0.002366 0.000712 0.000561
-0.002982 0.00061 0.000281
-0.002748 0.000398 0.00101
-0.00278 0.000377 0.00105
-0.002797 0.000363 0.001085
-0.002793 0.00036 0.00111
-0.002784 0.000359 0.001133
-0.002774 0.000359 0.001156
-0.002765 0.000359 0.001179
-0.002756 0.000358 0.001201
-0.002745 0.000358 0.001224
-0.002727 0.000362 0.001243
-0.002692 0.000375 0.001254
-0.002649 0.000392 0.001261
-0.002603 0.00041 0.001266
-0.002554 0.00043 0.001271
-0.002504 0.000451 0.001275
-0.002052 0.000635 0.00131
-0.002041 0.000635 0.001332
-0.002033 0.000634 0.001355
-0.00203 0.00063 0.001381
-0.002031 0.000624 0.001408
-0.00204 0.000614 0.00144
-0.002067 0.000595 0.001479
-0.002102 0.000572 0.001523
-0.00213 0.000552 0.001563
-0.002159 0.000532 0.001604
-0.002178 0.000517 0.00164
-0.002199 0.000501 0.001676
-0.002214 0.000488 0.00171
-0.00252 0.000579 0.00044
-0.002479 0.000595 0.000449
-0.002441 0.000609 0.000458
-0.002416 0.000617 0.000474
-0.002397 0.000621 0.000492
-0.002383 0.000623 0.000513
-0.002373 0.000623 0.000535
-0.002991 0.000666 0.000207
-0.002994 0.000522 0.000123
-0.002927 0.000578 0.000322
-0.002994 0.000527 0.000233
-0.002994 0.000445 0.000233
-0.00276 0.00065 0.000397
-0.002927 0.000605 0.000322
-0.002781 0.00035 0.00105
-0.002797 0.000336 0.001085
-0.002793 0.000333 0.00111
-0.002784 0.000333 0.001133
-0.002774 0.000332 0.001156
-0.002765 0.000332 0.001179
-0.002755 0.000331 0.001201
-0.002745 0.000331 0.001224
-0.002727 0.000335 0.001243
-0.002692 0.000348 0.001253
-0.002649 0.000364 0.001261
-0.002603 0.000383 0.001266
-0.002554 0.000403 0.001271
-0.002504 0.000423 0.001275
-0.002052 0.000608 0.00131
-0.00204 0.000608 0.001331
-0.002033 0.000607 0.001355
-0.00203 0.000603 0.001381
-0.002031 0.000597 0.001408
-0.00204 0.000587 0.00144
-0.002068 0.000567 0.00148
-0.002101 0.000545 0.001522
-0.002131 0.000524 0.001564
-0.002159 0.000505 0.001604
-0.002179 0.000489 0.00164
-0.002198 0.000474 0.001676
-0.002214 0.000461 0.001711
-0.00252 0.000552 0.00044
-0.002479 0.000568 0.000449
-0.002441 0.000582 0.000458
-0.002416 0.00059 0.000474
-0.002397 0.000594 0.000492
-0.002383 0.000596 0.000513
-0.002373 0.000596 0.000535
-0.002991 0.000667 0.000183
-0.002997 0.000584 0.000159
-0.002592 0.000697 0.000845
-0.002592 0.000642 0.000845
-0.002995 0.000446 0.000208
-0.002994 0.000472 0.000233
-0.002372 0.000729 0.000662
-0.00278 0.000323 0.00105
-0.002797 0.000309 0.001085
-0.002793 0.000306 0.00111
-0.002784 0.000305 0.001133
-0.002774 0.000305 0.001156
-0.002765 0.000304 0.001179
-0.002755 0.000304 0.001201
-0.002745 0.000304 0.001224
-0.002727 0.000308 0.001243
-0.002691 0.000321 0.001253
-0.002649 0.000337 0.001261
-0.002602 0.000356 0.001266
-0.002554 0.000376 0.001271
-0.002503 0.000396 0.001274
-0.002052 0.00058 0.00131
-0.00204 0.000581 0.001331
-0.002033 0.00058 0.001355
-0.00203 0.000576 0.001381
-0.002031 0.00057 0.001409
-0.00204 0.00056 0.00144
-0.002069 0.00054 0.00148
-0.002102 0.000517 0.001523
-0.002132 0.000497 0.001564
-0.002159 0.000478 0.001604
-0.00218 0.000462 0.00164
-0.002198 0.000448 0.001675
-0.00252 0.000525 0.00044
-0.002477 0.000541 0.000448
-0.002442 0.000554 0.000458
-0.002416 0.000562 0.000474
-0.002397 0.000567 0.000492
-0.002383 0.000569 0.000513
-0.002373 0.000569 0.000535
-0.002979 0.000697 0.00023
-0.002851 0.000665 0.000361
-0.002762 0.000676 0.000397
-0.00268 0.000651 0.000931
-0.00289 0.000485 0.000342
-0.002363 0.000735 0.000636
-0.002362 0.000738 0.000611
-0.00278 0.000296 0.00105
-0.002797 0.000282 0.001085
-0.002792 0.000279 0.00111
-0.002783 0.000278 0.001133
-0.002774 0.000278 0.001156
-0.002764 0.000278 0.001178
-0.002754 0.000278 0.001201
-0.002744 0.000278 0.001223
-0.002727 0.000281 0.001243
-0.002692 0.000293 0.001254
-0.002649 0.00031 0.001261
-0.002603 0.000329 0.001266
-0.002554 0.000349 0.001271
-0.002504 0.000369 0.001275
-0.002065 0.000552 0.001288
-0.002052 0.000553 0.00131
-0.00204 0.000554 0.001331
-0.002033 0.000553 0.001355
-0.00203 0.000549 0.001381
-0.002031 0.000543 0.001408
-0.002041 0.000532 0.00144
-0.002069 0.000513 0.00148
-0.002102 0.00049 0.001523
-0.002132 0.00047 0.001564
-0.002159 0.00045 0.001604
-0.00218 0.000435 0.00164
-0.0022 0.00042 0.001675
-0.002522 0.000497 0.000441
-0.002477 0.000514 0.000448
-0.002442 0.000527 0.000458
-0.002416 0.000535 0.000474
-0.002397 0.00054 0.000492
-0.002383 0.000542 0.000513
-0.002373 0.000541 0.000535
-0.002366 0.000539 0.000559
-0.002927 0.00066 0.000322
-0.002808 0.000657 0.000379
-0.002472 0.000692 -0.00013
-0.002984 0.000446 0.000281
-0.002362 0.000739 0.000586
-0.00242 0.000703 0.000719
-0.002623 0.000575 -0.000449
-0.00278 0.000269 0.00105
-0.002796 0.000255 0.001085
-0.002793 0.000252 0.00111
-0.002784 0.000251 0.001133
-0.002775 0.00025 0.001156
-0.002765 0.00025 0.001179
-0.002755 0.00025 0.001201
-0.002744 0.00025 0.001223
-0.002727 0.000254 0.001243
-0.002692 0.000266 0.001253
-0.002648 0.000283 0.00126
-0.002603 0.000301 0.001267
-0.002553 0.000322 0.001271
-0.002504 0.000342 0.001275
-0.002065 0.000525 0.001289
-0.002052 0.000526 0.00131
-0.00204 0.000527 0.001331
-0.002033 0.000525 0.001355
-0.00203 0.000522 0.001381
-0.002031 0.000515 0.001409
-0.002041 0.000505 0.00144
-0.002066 0.000487 0.001479
-0.002103 0.000463 0.001523
-0.002133 0.000442 0.001564
-0.002161 0.000423 0.001604
-0.002181 0.000407 0.001641
-0.002198 0.000393 0.001676
-0.002521 0.00047 0.000441
-0.002478 0.000487 0.000448
-0.002441 0.0005 0.000458
-0.002416 0.000508 0.000474
-0.002397 0.000512 0.000492
-0.002383 0.000514 0.000513
-0.002373 0.000514 0.000535
-0.002866 0.000681 -0.000837
-0.002996 0.000586 0.000134
-0.00289 0.000594 0.000342
-0.002997 0.000501 0.000183
-0.002637 0.000646 -7.8e-05
-0.00278 0.000242 0.00105
-0.002796 0.000228 0.001084
-0.002792 0.000225 0.00111
-0.002784 0.000224 0.001133
-0.002774 0.000223 0.001156
-0.002765 0.000223 0.001179
-0.002755 0.000222 0.001201
-0.002744 0.000223 0.001223
-0.002727 0.000226 0.001242
-0.002692 0.000239 0.001254
-0.002648 0.000256 0.00126
-0.002604 0.000274 0.001267
-0.002555 0.000294 0.001271
-0.002504 0.000314 0.001275
-0.002065 0.000498 0.001289
-0.002052 0.000499 0.00131
-0.00204 0.0005 0.001331
-0.002033 0.000498 0.001355
-0.00203 0.000494 0.001381
-0.002031 0.000488 0.001409
-0.002041 0.000478 0.00144
-0.002067 0.000459 0.00148
-0.002102 0.000436 0.001523
-0.002132 0.000416 0.001564
-0.002162 0.000395 0.001605
-0.002181 0.00038 0.001641
-0.002198 0.000366 0.001676
-0.002214 0.000352 0.001711
-0.002522 0.000442 0.000441
-0.002479 0.000459 0.000448
-0.002441 0.000473 0.000458
-0.002416 0.000481 0.000474
-0.002397 0.000485 0.000492
-0.002383 0.000487 0.000513
-0.002373 0.000487 0.000535
-0.002988 0.000665 0.000232
-0.002995 0.000582 0.000208
-0.002559 0.000714 0.000815
-0.002905 0.000645 -0.000711
-0.002901 0.0004 -0.000759
-0.002415 0.000682 -0.000271
-0.002975 0.000475 0.0001
-0.002781 0.000214 0.001051
-0.002795 0.000201 0.001084
-0.002792 0.000198 0.00111
-0.002784 0.000196 0.001133
-0.002775 0.000196 0.001156
-0.002765 0.000195 0.001179
-0.002755 0.000195 0.001201
-0.002743 0.000196 0.001223
-0.002726 0.0002 0.001242
-0.002692 0.000212 0.001254
-0.002647 0.00023 0.00126
-0.002603 0.000247 0.001267
-0.002556 0.000266 0.001272
-0.002065 0.00047 0.001289
-0.002052 0.000472 0.00131
-0.00204 0.000473 0.001331
-0.002033 0.000471 0.001355
-0.002029 0.000467 0.001381
-0.002031 0.000461 0.001409
-0.002042 0.00045 0.001441
-0.002067 0.000432 0.001479
-0.002102 0.000409 0.001523
-0.002133 0.000388 0.001564
-0.002158 0.000369 0.001603
-0.002181 0.000352 0.001641
-0.002197 0.000339 0.001676
-0.002214 0.000325 0.001711
-0.002522 0.000415 0.000441
-0.00248 0.000431 0.000449
-0.002442 0.000446 0.000459
-0.002416 0.000454 0.000474
-0.002397 0.000458 0.000492
-0.002382 0.00046 0.000512
-0.002372 0.00046 0.000535
-0.002927 0.000687 0.000322
-0.002993 0.000581 0.000233
-0.002729 0.000625 0.000988
-0.002704 0.000583 0.000961
-0.001771 -2.6e-05 0.001126
-0.002831 0.000661 -0.000876
-0.0027 0.000677 0.000413
-0.002624 0.000708 0.000873
-0.00278 0.000187 0.00105
-0.002794 0.000175 0.001084
-0.00279 0.000171 0.001109
-0.002783 0.00017 0.001133
-0.002774 0.000169 0.001156
-0.002765 0.000169 0.001179
-0.002754 0.000169 0.001201
-0.002742 0.00017 0.001223
-0.002725 0.000173 0.001242
-0.002692 0.000185 0.001253
-0.002647 0.000203 0.00126
-0.002604 0.000219 0.001267
-0.002556 0.000239 0.001272
-0.002065 0.000443 0.001289
-0.002052 0.000445 0.00131
-0.00204 0.000446 0.001331
-0.002033 0.000444 0.001355
-0.002029 0.00044 0.001381
-0.002031 0.000434 0.001409
-0.002042 0.000423 0.001441
-0.002067 0.000405 0.001479
-0.002103 0.000381 0.001523
-0.002132 0.000361 0.001564
-0.002157 0.000343 0.001603
-0.002181 0.000325 0.001641
-0.002198 0.000311 0.001676
-0.00222 0.000297 0.001708
-0.002523 0.000388 0.000449
-0.00248 0.000404 0.00045
-0.002443 0.000418 0.00046
-0.002416 0.000427 0.000474
-0.002397 0.000431 0.000492
-0.002382 0.000433 0.000512
-0.002372 0.000433 0.000535
-0.002944 0.000705 7.8e-05
-0.002889 0.000622 0.000341
-0.002716 0.000705 -0.000905
-0.002795 0.000675 -0.000886
-0.002997 0.000447 0.000184
-0.002999 0.000448 0.000159
-0.002994 0.000614 0.000134
-0.002747 0.000181 0.00101
-0.00278 0.00016 0.00105
-0.002792 0.000149 0.001083
-0.002788 0.000145 0.001108
-0.002781 0.000144 0.001132
-0.002773 0.000143 0.001155
-0.002763 0.000142 0.001178
-0.002752 0.000143 0.0012
-0.002739 0.000144 0.001221
-0.002723 0.000147 0.001241
-0.002691 0.000158 0.001253
-0.002647 0.000175 0.00126
-0.002604 0.000192 0.001267
-0.002556 0.000211 0.001272
-0.002503 0.000234 0.001274
-0.001783 -2.7e-05 0.001104
-0.002052 0.000418 0.00131
-0.00204 0.000418 0.001331
-0.002033 0.000416 0.001355
-0.002029 0.000413 0.001381
-0.002031 0.000407 0.001409
-0.002041 0.000396 0.001441
