-0.00265 3.8e-05 0.001261
-0.002623 4.6e-05 0.001276
-0.002583 6.2e-05 0.001284
-0.002535 8.1e-05 0.00129
-0.00204 0.000283 0.001331
-0.00203 0.000282 0.001354
-0.002024 0.00028 0.001378
-0.002022 0.000276 0.001404
-0.002026 0.000268 0.001434
-0.002041 0.000255 0.001468
-0.002074 0.000233 0.00151
-0.002102 0.000213 0.00155
-0.002133 0.000192 0.001592
-0.002157 0.000174 0.00163
-0.002177 0.000159 0.001666
-0.002194 0.000145 0.001702
-0.002546 0.000212 0.000453
-0.002504 0.000229 0.000461
-0.002461 0.000245 0.000468
-0.002428 0.000257 0.00048
-0.002406 0.000263 0.000496
-0.002389 0.000267 0.000516
-0.002377 0.000268 0.000537
-0.002368 0.000267 0.00056
-0.002362 0.000264 0.000585
-0.002991 0.000667 0.000183
-0.00296 0.000686 0.000104
-0.002989 0.000607 0.000282
-0.002997 0.000608 0.000208
-0.002983 0.000472 0.000306
-0.002962 0.000631 0.000106
-0.002725 2.5e-05 0.001025
-0.002725 2e-05 0.001052
-0.002719 1.7e-05 0.001076
-0.002712 1.6e-05 0.0011
-0.002703 1.5e-05 0.001123
-0.002693 1.5e-05 0.001146
-0.002683 1.5e-05 0.001168
-0.002672 1.5e-05 0.00119
-0.00266 1.6e-05 0.001212
-0.002647 1.7e-05 0.001233
-0.002631 2e-05 0.001253
-0.00261 2.6e-05 0.00127
-0.002579 3.7e-05 0.001283
-0.002534 5.4e-05 0.001289
-0.001893 -3e-05 0.000884
-0.00204 0.000256 0.001331
-0.00203 0.000255 0.001354
-0.002024 0.000253 0.001378
-0.002022 0.000249 0.001404
-0.002027 0.000241 0.001434
-0.002041 0.000228 0.001468
-0.002074 0.000206 0.00151
-0.002103 0.000185 0.001551
-0.002132 0.000165 0.001591
-0.002177 0.000132 0.001666
-0.002194 0.000118 0.001702
-0.002547 0.000185 0.000453
-0.002505 0.000201 0.000461
-0.00246 0.000219 0.000467
-0.002428 0.00023 0.00048
-0.002406 0.000236 0.000496
-0.002389 0.000239 0.000516
-0.002377 0.00024 0.000537
-0.002368 0.000239 0.00056
-0.002362 0.000237 0.000585
-0.002963 0.000658 0.000106
-0.002631 0.000731 0.000897
-0.002997 0.000498 0.000233
-0.001904 -3e-05 0.000861
-0.003 0.000501 0.000159
-0.002981 0.000698 0.000206
-0.0027 1.1e-05 0.001014
-0.002695 8e-06 0.001038
-0.002687 7e-06 0.001061
-0.002677 7e-06 0.001084
-0.002667 6e-06 0.001107
-0.002657 6e-06 0.001129
-0.002647 6e-06 0.001151
-0.002636 6e-06 0.001174
-0.002626 6e-06 0.001196
-0.002616 6e-06 0.001219
-0.002604 7e-06 0.00124
-0.002588 1e-05 0.00126
-0.002563 1.7e-05 0.001276
-0.002528 3e-05 0.001286
-0.001914 -3e-05 0.000839
-0.002039 0.000229 0.001331
-0.00203 0.000228 0.001354
-0.002024 0.000226 0.001378
-0.002022 0.000221 0.001404
-0.002026 0.000214 0.001433
-0.002042 0.0002 0.001468
-0.002074 0.000179 0.00151
-0.002104 0.000158 0.001551
-0.002132 0.000138 0.001591
-0.002157 0.00012 0.00163
-0.002176 0.000105 0.001666
-0.002194 9.1e-05 0.001702
-0.002546 0.000158 0.000453
-0.002504 0.000174 0.00046
-0.002459 0.000192 0.000467
-0.002428 0.000203 0.00048
-0.002406 0.000209 0.000496
-0.002389 0.000212 0.000516
-0.002377 0.000213 0.000537
-0.002368 0.000212 0.00056
-0.002362 0.00021 0.000585
-0.002994 0.00064 0.000158
-0.002707 0.000689 0.000987
-0.002681 0.000657 0.000435
-0.002883 0.000497 -0.000633
-0.00253 0.000728 0.00081
-0.002668 7e-06 0.000972
-0.002664 2e-06 0.000997
-0.002655 2e-06 0.001019
-0.002611 3e-06 0.001108
-0.002601 3e-06 0.00113
-0.002571 2e-06 0.001198
-0.00256 2e-06 0.00122
-0.002548 3e-06 0.001241
-0.002535 5e-06 0.001262
-0.002511 1.2e-05 0.001278
-0.002052 0.0002 0.00131
-0.002039 0.000201 0.001331
-0.002029 0.000201 0.001354
-0.002023 0.000199 0.001378
-0.002022 0.000194 0.001405
-0.002026 0.000187 0.001434
-0.002043 0.000173 0.001469
-0.002103 0.000131 0.001551
-0.002132 0.000111 0.001591
-0.002158 9.2e-05 0.001631
-0.002176 7.8e-05 0.001666
-0.002194 6.3e-05 0.001702
-0.002545 0.000131 0.000452
-0.002502 0.000148 0.00046
-0.002458 0.000166 0.000466
-0.002428 0.000175 0.00048
-0.002406 0.000182 0.000496
-0.002389 0.000185 0.000516
-0.002376 0.000186 0.000537
-0.002368 0.000185 0.00056
-0.002981 0.000665 0.000281
-0.002993 0.000607 0.000257
-0.002999 0.000583 0.000159
-0.002655 0.000689 0.000929
-0.003 0.000527 0.000184
-0.00262 1.4e-05 0.000896
-0.002627 5e-06 0.000926
-0.002619 3e-06 0.000949
-0.002609 3e-06 0.000971
-0.002717 0.000611 -0.000486
-0.002587 4e-06 0.001015
-0.002576 4e-06 0.001037
-0.002566 4e-06 0.00106
-0.002558 3e-06 0.001083
-0.002535 4e-06 0.001127
-0.002524 5e-06 0.001149
-0.002514 4e-06 0.001171
-0.002505 4e-06 0.001194
-0.002498 2e-06 0.001218
-0.002488 2e-06 0.00124
-0.002473 4e-06 0.001261
-0.002051 0.000173 0.00131
-0.002039 0.000174 0.001331
-0.002029 0.000174 0.001354
-0.002023 0.000171 0.001378
-0.002022 0.000167 0.001405
-0.002026 0.000159 0.001434
-0.002043 0.000146 0.001469
-0.002104 0.000104 0.001551
-0.002132 8.4e-05 0.001592
-0.002157 6.6e-05 0.00163
-0.002177 5e-05 0.001667
-0.002192 3.7e-05 0.001701
-0.002503 0.000121 0.00046
-0.002459 0.000138 0.000467
-0.002427 0.000149 0.000479
-0.002405 0.000155 0.000496
-0.002388 0.000158 0.000516
-0.002376 0.000159 0.000537
-0.002368 0.000158 0.00056
-0.002992 0.000634 0.000257
-0.002955 0.000592 0.000326
-0.002566 0.000682 0.000841
-0.002857 0.000552 4.2e-05
-0.002477 0.000703 -0.001446
-0.002574 1.7e-05 0.00085
-0.002586 4e-06 0.000879
-0.002575 4e-06 0.000901
-0.002561 6e-06 0.000921
-0.002549 7e-06 0.000943
-0.002976 0.000703 0.000155
-0.002531 5e-06 0.000989
-0.00252 6e-06 0.001011
-0.002509 6e-06 0.001033
-0.002478 6e-06 0.0011
-0.002469 5e-06 0.001123
-0.002459 5e-06 0.001146
-0.002449 5e-06 0.001168
-0.002051 0.000146 0.00131
-0.002039 0.000147 0.001331
-0.002029 0.000147 0.001354
-0.002024 0.000144 0.001378
-0.002022 0.00014 0.001405
-0.002026 0.000132 0.001434
-0.002039 0.000121 0.001467
-0.001924 -3e-05 0.000816
-0.002103 7.7e-05 0.001551
-0.002132 5.7e-05 0.001592
-0.002156 3.9e-05 0.00163
-0.002174 2.5e-05 0.001665
-0.002186 1.2e-05 0.001697
-0.002502 9.4e-05 0.00046
-0.002458 0.000111 0.000466
-0.002426 0.000122 0.000479
-0.002405 0.000128 0.000496
-0.002388 0.000131 0.000516
-0.002376 0.000132 0.000537
-0.002368 0.000131 0.00056
-0.002987 0.000635 0.000281
-0.00299 0.000579 0.000282
-0.0026 0.000664 0.000871
-0.002546 2e-06 0.000833
-0.002538 1e-06 0.000857
-0.002526 2e-06 0.000878
-0.002517 2e-06 0.000901
-0.002507 0.0 0.000924
-0.002498 1e-06 0.000947
-0.002487 1e-06 0.000969
-0.002478 1e-06 0.000992
-0.00247 -1e-06 0.001015
-0.002459 -1e-06 0.001037
-0.002449 -1e-06 0.00106
-0.002439 -1e-06 0.001082
-0.002428 -1e-06 0.001104
-0.002418 -1e-06 0.001127
-0.002408 -1e-06 0.001149
-0.002397 -1e-06 0.001171
-0.002387 -1e-06 0.001194
-0.002066 0.000116 0.001289
-0.002051 0.000119 0.00131
-0.002039 0.00012 0.001331
-0.002029 0.00012 0.001354
-0.002024 0.000117 0.001378
-0.002022 0.000113 0.001404
-0.002026 0.000105 0.001434
-0.002038 9.4e-05 0.001467
-0.002105 4.8e-05 0.001552
-0.002135 2.8e-05 0.001593
-0.002152 1.4e-05 0.001628
-0.002157 6e-06 0.001657
-0.002157 1e-06 0.001684
-0.002501 6.7e-05 0.000459
-0.002459 8.3e-05 0.000467
-0.002427 9.4e-05 0.000479
-0.002405 0.000101 0.000496
-0.002388 0.000104 0.000516
-0.002376 0.000105 0.000537
-0.002367 0.000104 0.00056
-0.002996 0.000636 0.000208
-0.002981 0.000582 0.000306
-0.002682 0.000629 0.000435
-0.002502 3e-06 0.000785
-0.002503 -3e-06 0.000813
-0.002492 -2e-06 0.000835
-0.002484 -4e-06 0.000859
-0.002474 -4e-06 0.000881
-0.002463 -3e-06 0.000903
-0.002442 -3e-06 0.000948
-0.002431 -3e-06 0.00097
-0.002399 -2e-06 0.001036
-0.00239 -3e-06 0.00106
-0.002377 -2e-06 0.001081
-0.002369 -3e-06 0.001104
-0.002355 -1e-06 0.001125
-0.002346 -2e-06 0.001148
-0.002335 -2e-06 0.00117
-0.002327 -2e-06 0.001193
-0.002065 8.9e-05 0.001289
-0.002051 9.2e-05 0.00131
-0.002039 9.3e-05 0.001331
-0.002029 9.2e-05 0.001354
-0.002023 9e-05 0.001378
-0.002021 8.6e-05 0.001404
-0.002026 7.8e-05 0.001434
-0.002039 6.6e-05 0.001467
-0.002074 4.3e-05 0.00151
-0.00211 1.9e-05 0.001554
-0.002126 5e-06 0.001589
-0.002126 -0.0 0.001616
-0.002117 -0.0 0.001639
-0.002103 1e-06 0.00166
-0.0025 4.1e-05 0.000459
-0.00246 5.6e-05 0.000467
-0.002426 6.8e-05 0.000479
-0.002405 7.4e-05 0.000496
-0.002388 7.7e-05 0.000516
-0.002375 7.8e-05 0.000537
-0.002367 7.7e-05 0.00056
-0.002952 0.000458 0.000103
-0.002996 0.00058 0.000233
-0.00273 0.000622 0.001014
-0.002458 -2e-06 0.000765
-0.002444 0.0 0.000786
-0.002433 1e-06 0.000808
-0.002422 1e-06 0.00083
-0.002411 1e-06 0.000852
-0.002366 3e-06 0.00094
-0.001934 -3e-05 0.000794
-0.002297 2e-06 0.001098
-0.002287 2e-06 0.00112
-0.002274 3e-06 0.001142
-0.002266 2e-06 0.001165
-0.001944 -3e-05 0.000771
-0.002084 5.8e-05 0.00127
-0.002065 6.3e-05 0.001289
-0.002051 6.5e-05 0.00131
-0.002039 6.6e-05 0.001331
-0.002029 6.5e-05 0.001354
-0.002023 6.3e-05 0.001378
-0.002021 5.9e-05 0.001404
-0.002025 5.1e-05 0.001433
-0.002076 9e-06 0.00151
-0.00209 2e-06 0.001545
-0.00209 -3e-06 0.001572
-0.002079 -3e-06 0.001594
-0.001954 -3e-05 0.000749
-0.001963 -2.9e-05 0.000726
-0.00246 2.8e-05 0.000468
-0.002426 4.1e-05 0.000479
-0.002404 4.7e-05 0.000496
-0.002387 5e-05 0.000515
-0.002375 5.1e-05 0.000536
-0.002366 5e-05 0.000559
-0.002916 0.000718 0.000345
-0.002731 0.000676 0.001014
-0.002566 0.000709 0.000841
-0.002385 3e-06 0.000759
-0.002376 3e-06 0.000781
-0.002364 4e-06 0.000803
-0.002351 5e-06 0.000824
-0.002342 4e-06 0.000847
-0.002333 4e-06 0.00087
-0.002321 5e-06 0.000892
-0.002629 0.000703 0.0009
-0.002731 0.000649 0.001014
-0.002279 5e-06 0.000981
-0.002271 4e-06 0.001004
-0.002261 4e-06 0.001027
-0.002239 4e-06 0.001071
-0.002228 4e-06 0.001093
-0.002217 5e-06 0.001115
-0.002206 5e-06 0.001137
-0.002083 3.1e-05 0.00127
-0.002064 3.6e-05 0.001289
-0.002029 3.8e-05 0.001353
-0.002022 3.6e-05 0.001378
-0.00202 3.2e-05 0.001404
-0.002028 2.3e-05 0.001435
-0.002044 -1e-06 0.001524
-0.001971 -2.8e-05 0.000703
-0.001982 -2.8e-05 0.00068
-0.002476 4e-06 0.000421
-0.002467 3e-06 0.000444
-0.002451 6e-06 0.000463
-0.002425 1.4e-05 0.000478
-0.002404 2e-05 0.000496
-0.002386 2.3e-05 0.000515
-0.002374 2.4e-05 0.000536
-0.002365 2.4e-05 0.000559
-0.00236 2.1e-05 0.000584
-0.002356 1.7e-05 0.000609
-0.002797 0.000714 0.000402
-0.002601 0.000691 0.000871
-0.002347 1e-06 0.000714
-0.002337 1e-06 0.000736
-0.002328 0.0 0.000759
-0.002318 -0.0 0.000782
-0.002307 0.0 0.000804
-0.002297 0.0 0.000826
-0.002288 -1e-06 0.000849
-0.002278 -0.0 0.000872
-0.0026 0.000719 0.000871
-0.001991 -2.8e-05 0.000657
-0.002682 0.000675 0.000958
-0.002238 -1e-06 0.000962
-0.002228 -1e-06 0.000984
-0.002218 -1e-06 0.001007
-0.002208 -2e-06 0.00103
-0.002197 -2e-06 0.001052
-0.002187 -2e-06 0.001074
-0.002176 -1e-06 0.001096
-0.002166 -1e-06 0.001119
-0.002155 -1e-06 0.001141
-0.002081 6e-06 0.001268
-0.002063 9e-06 0.001288
-0.002018 6e-06 0.001403
-0.002 -2.7e-05 0.000634
-0.002009 -2.6e-05 0.000611
-0.002427 2e-06 0.000398
-0.002417 1e-06 0.00042
-0.002409 0.0 0.000444
-0.002401 -1e-06 0.000467
-0.00239 -0.0 0.000489
-0.00238 -0.0 0.000512
-0.002369 -0.0 0.000534
-0.00236 -1e-06 0.000557
-0.002352 -2e-06 0.000581
-0.002346 -4e-06 0.000605
-0.00298 0.000699 0.000181
-0.00243 0.000763 -0.000226
-0.002435 0.000756 -0.000173
-0.00231 -7e-06 0.000697
-0.002301 -8e-06 0.00072
-0.002293 -9e-06 0.000743
-0.002281 -8e-06 0.000765
-0.002273 -9e-06 0.000788
-0.002264 -1e-05 0.000811
-0.002251 -9e-06 0.000832
-0.00263 0.000621 0.0009
-0.0018 0.000584 -0.002397
-0.002707 0.000662 0.000987
-0.002199 -8e-06 0.000944
-0.00219 -9e-06 0.000967
-0.00218 -9e-06 0.000989
-0.002169 -9e-06 0.001012
-0.002066 -9e-06 0.001235
-0.002055 -8e-06 0.001257
-0.002042 -7e-06 0.001278
-0.00239 -7e-06 0.000381
-0.002384 -9e-06 0.000405
-0.002374 -9e-06 0.000427
-0.002363 -9e-06 0.00045
-0.002354 -9e-06 0.000473
-0.002342 -9e-06 0.000494
-0.002332 -9e-06 0.000517
-0.002322 -9e-06 0.000539
-0.002312 -9e-06 0.000562
-0.002301 -9e-06 0.000584
-0.00229 -8e-06 0.000606
-0.002279 -8e-06 0.000628
-0.002247 -7e-06 0.000695
-0.002237 -7e-06 0.000717
-0.002227 -7e-06 0.000739
-0.002216 -7e-06 0.000762
-0.002395 0.000742 0.000715
-0.002619 0.000657 0.00045
-0.00211 -6e-06 0.000984
-0.002098 -5e-06 0.001006
-0.002047 -5e-06 0.001118
-0.002038 -6e-06 0.001141
-0.002017 -6e-06 0.001186
-0.00201 -8e-06 0.001209
-0.002 -7e-06 0.001232
-0.001991 -8e-06 0.001255
-0.002841 0.00056 0.000384
-0.00192 -9e-06 0.001412
-0.001909 -8e-06 0.001434
-0.001899 -9e-06 0.001457
-0.002745 0.000601 0.000419
-0.002995 0.000497 0.000258
-0.002982 0.0005 0.000306
-0.002258 -4e-06 0.00051
-0.002249 -3e-06 0.000532
-0.00224 -4e-06 0.000555
-0.002227 -3e-06 0.000577
-0.002218 -4e-06 0.0006
-0.002208 -4e-06 0.000622
-0.002196 -3e-06 0.000644
-0.003 0.0005 0.000184
-0.00253 0.000673 0.00081
-0.002164 -2e-06 0.00071
-0.002152 -2e-06 0.000732
-0.002993 0.000469 0.000282
-0.002706 0.000607 0.000987
-0.002629 0.000649 0.0009
-0.002682 0.000621 0.000958
-0.002952 0.000718 0.000102
-0.00208 -2e-06 0.000889
-0.00207 -2e-06 0.000911
-0.002058 -1e-06 0.000933
-0.001991 -4e-06 0.001092
-0.001979 -3e-06 0.001113
-0.00196 -3e-06 0.001159
-0.00195 -4e-06 0.001181
-0.001937 -3e-06 0.001202
-0.001927 -3e-06 0.001225
-0.001918 -3e-06 0.001248
-0.001909 -4e-06 0.001271
-0.002337 0.000798 0.000682
-0.001879 -5e-06 0.001339
-0.001867 -4e-06 0.00136
-0.001859 -4e-06 0.001383
-0.00185 -5e-06 0.001406
-0.001843 -7e-06 0.001431
-0.001831 -6e-06 0.001452
-0.002439 0.000747 0.000747
-0.002257 -3e-06 0.000373
-0.002245 -2e-06 0.000395
-0.002235 -3e-06 0.000417
-0.002223 -2e-06 0.000439
-0.002616 0.000685 0.00045
-0.002202 -1e-06 0.000484
-0.002191 -1e-06 0.000506
-0.002181 -1e-06 0.000528
-0.00217 -1e-06 0.00055
-0.002159 -0.0 0.000572
-0.002148 -0.0 0.000595
-0.002139 -1e-06 0.000617
-0.002129 -1e-06 0.00064
-0.002908 0.000457 -0.000661
-0.003 0.000528 0.000159
-0.002681 0.00073 0.000958
-0.00284 0.000587 0.000384
-0.002797 0.000605 0.000402
-0.002494 0.000635 -0.001481
-0.002971 0.000707 0.000129
-0.002036 -1e-06 0.000841
-0.002026 -1e-06 0.000864
-0.002016 -1e-06 0.000886
-0.002006 -1e-06 0.000909
-0.001881 -1e-06 0.001177
-0.001868 0.0 0.001198
-0.00186 -1e-06 0.001221
-0.001849 -0.0 0.001243
-0.00184 -1e-06 0.001266
-0.001821 -2e-06 0.001311
-0.001807 -0.0 0.001332
-0.001799 -1e-06 0.001356
-0.00179 -2e-06 0.001379
-0.001782 -3e-06 0.001402
-0.001773 -3e-06 0.001425
-0.00176 -2e-06 0.001446
-0.001752 -3e-06 0.00147
-0.002199 -1e-06 0.000346
-0.002189 -1e-06 0.000369
-0.00218 -2e-06 0.000392
-0.002169 -1e-06 0.000414
-0.002159 -1e-06 0.000436
-0.002148 -1e-06 0.000459
-0.002139 -2e-06 0.000482
-0.002131 -3e-06 0.000505
-0.002122 -3e-06 0.000528
-0.002113 -4e-06 0.000551
-0.002102 -4e-06 0.000573
-0.002092 -4e-06 0.000596
-0.002084 -5e-06 0.000619
-0.002707 0.000634 0.000987
-0.002487 0.000723 0.000779
-0.002552 0.000741 0.000465
-0.002706 0.000716 0.000986
-0.002972 0.000667 0.000304
-0.002024 -7e-06 0.000754
-0.002015 -7e-06 0.000777
-0.002005 -7e-06 0.0008
-0.001995 -7e-06 0.000822
-0.001985 -7e-06 0.000845
-0.001975 -8e-06 0.000867
-0.001966 -8e-06 0.00089
-0.001869 -6e-06 0.00109
-0.001857 -5e-06 0.001111
-0.001826 -5e-06 0.001178
-0.001814 -5e-06 0.0012
-0.001802 -4e-06 0.001222
-0.001792 -3e-06 0.001244
-0.00178 -2e-06 0.001265
-0.001758 -2e-06 0.00131
-0.001747 -2e-06 0.001332
-0.001736 -1e-06 0.001354
-0.001724 -0.0 0.001375
-0.001713 0.0 0.001397
-0.001705 -1e-06 0.001421
-0.002682 0.000647 0.000958
-0.002655 0.000662 0.000929
-0.002995 0.000524 0.000258
-0.002144 -5e-06 0.000348
-0.002135 -6e-06 0.000371
-0.002128 -7e-06 0.000395
-0.002981 0.000696 0.000231
-0.002987 0.000644 0.000133
-0.002996 0.000637 0.000183
-0.002995 0.000635 0.000233
-0.002977 0.000638 0.000305
-0.002882 0.000678 0.000365
-0.002944 0.000706 0.000325
-0.002962 0.0007 0.000303
-0.002971 0.000697 0.000279
-0.002039 -1.4e-05 0.000625
-0.002029 -1.5e-05 0.000648
-0.00202 -1.6e-05 0.000671
-0.002011 -1.6e-05 0.000694
-0.002002 -1.7e-05 0.000717
-0.001992 -1.7e-05 0.000739
-0.001982 -1.7e-05 0.000762
-0.001972 -1.7e-05 0.000784
-0.001963 -1.8e-05 0.000807
-0.001952 -1.8e-05 0.00083
-0.001942 -1.8e-05 0.000852
-0.001932 -1.8e-05 0.000874
-0.001921 -1.8e-05 0.000897
-0.001911 -1.8e-05 0.000919
-0.001902 -1.8e-05 0.000942
-0.00189 -1.8e-05 0.000964
-0.00188 -1.8e-05 0.000986
-0.001868 -1.7e-05 0.001008
-0.001858 -1.7e-05 0.00103
-0.001847 -1.7e-05 0.001052
-0.001835 -1.6e-05 0.001074
-0.001824 -1.5e-05 0.001096
-0.001813 -1.5e-05 0.001118
-0.00179 -1.4e-05 0.001161
-0.001779 -1.3e-05 0.001183
-0.001767 -1.3e-05 0.001205
-0.001755 -1.2e-05 0.001227
-0.001742 -1.1e-05 0.001248
-0.001683 -7e-06 0.001356
-0.001672 -6e-06 0.001378
-0.001659 -5e-06 0.0014
-0.002654 0.000635 0.000929
-0.002629 0.000676 0.0009
-0.002992 0.000524 0.000282
-0.002982 0.000527 0.000306
-0.002529 0.000701 0.00081
-0.002997 0.000525 0.000233
-0.002881 0.000515 0.000365
-0.00284 0.000533 0.000384
-0.002798 0.000551 0.000403
-0.002744 0.000574 0.000419
-0.002683 0.000602 0.000435
-0.002394 0.000729 0.000516
-0.002364 0.000733 0.000661
-0.002374 0.000726 0.000687
-0.002396 0.000714 0.000716
-0.002439 0.000692 0.000747
-0.002485 0.000669 0.000779
-0.002531 0.000646 0.000811
-0.002566 0.000627 0.000841
-0.002599 0.00061 0.000871
-0.002629 0.000595 0.0009
-0.002656 0.00058 0.000929
-0.002682 0.000566 0.000958
-0.002706 0.000553 0.000987
-0.00273 0.000541 0.001014
-0.002423 0.000732 -0.000273
-0.00243 0.000727 -0.000299
-0.002421 0.000742 -0.000252
-0.002423 0.000739 -0.000227
-0.002427 0.000736 -0.000202
-0.002435 0.000731 -0.000176
-0.00282 0.000568 2.2e-05
-0.002557 0.000609 -0.00039
-0.002556 0.000691 -0.00039
-0.002667 0.00069 -0.000455
-0.002993 0.000451 0.000135
-0.003001 0.000446 0.000159
-0.003002 0.000445 0.000184
-0.003 0.000444 0.000209
-0.002999 0.000443 0.000234
-0.002996 0.000442 0.000258
-0.002993 0.000442 0.000283
-0.002983 0.000445 0.000306
-0.002955 0.000456 0.000327
-0.002918 0.000472 0.000346
-0.002881 0.000488 0.000365
-0.00284 0.000506 0.000384
-0.002798 0.000524 0.000402
-0.002743 0.000548 0.000419
-0.002682 0.000575 0.000435
-0.002365 0.000705 0.000661
-0.002375 0.000699 0.000687
-0.002398 0.000686 0.000716
-0.002438 0.000666 0.000747
-0.002486 0.000642 0.000779
-0.00253 0.000619 0.000811
-0.002568 0.000599 0.000841
-0.0026 0.000583 0.000871
-0.002629 0.000567 0.0009
-0.002656 0.000553 0.000929
-0.002682 0.000539 0.000958
-0.002707 0.000526 0.000987
-0.002729 0.000514 0.001014
-0.002888 0.000567 -0.00082
-0.00269 0.000664 -0.000894
-0.002421 0.000715 -0.000252
-0.002423 0.000712 -0.000227
-0.002426 0.000709 -0.000202
-0.002457 0.000692 -0.00141
-0.002434 0.000707 -0.000175
-0.002953 0.000512 0.000103
-0.002656 0.00072 -5.5e-05
-0.002994 0.000424 0.000135
-0.003002 0.000419 0.000159
-0.003001 0.000418 0.000184
-0.003 0.000417 0.000209
-0.002998 0.000416 0.000234
-0.002997 0.000415 0.000258
-0.002993 0.000415 0.000283
-0.002983 0.000418 0.000306
-0.002955 0.000429 0.000327
-0.002919 0.000444 0.000346
-0.00288 0.000461 0.000365
-0.00284 0.000479 0.000384
-0.002798 0.000496 0.000403
-0.002742 0.000521 0.000419
-0.002361 0.000683 0.000635
-0.002365 0.000678 0.000661
-0.002377 0.000671 0.000688
-0.002398 0.000659 0.000716
-0.002438 0.000638 0.000747
-0.002487 0.000614 0.000779
-0.002529 0.000592 0.00081
-0.002569 0.000572 0.000841
-0.002599 0.000556 0.000871
-0.002629 0.00054 0.0009
-0.002656 0.000526 0.000929
-0.002681 0.000512 0.000958
-0.002706 0.000499 0.000987
-0.00273 0.000486 0.001014
-0.002747 0.000599 -1.8e-05
-0.002733 0.000647 -0.000886
-0.002421 0.000688 -0.000252
-0.002422 0.000685 -0.000227
-0.002902 0.000678 -0.00066
-0.00282 0.00065 2.2e-05
-0.002705 0.000563 -3.7e-05
-0.002532 0.000568 -0.001605
-0.002913 0.000423 -0.000736
-0.001775 0.000644 -0.001882
-0.002994 0.000397 0.000135
-0.003001 0.000392 0.000159
-0.003001 0.000391 0.000184
-0.002999 0.00039 0.000209
-0.002997 0.000389 0.000233
-0.002995 0.000388 0.000258
-0.002992 0.000388 0.000283
-0.002982 0.000391 0.000306
-0.002955 0.000402 0.000327
-0.002919 0.000417 0.000346
-0.002881 0.000434 0.000365
-0.00284 0.000451 0.000384
-0.002797 0.00047 0.000402
-0.002359 0.000658 0.00061
-0.00236 0.000655 0.000635
-0.002364 0.000652 0.000661
-0.002376 0.000644 0.000688
-0.002397 0.000632 0.000716
-0.00244 0.000611 0.000747
-0.002485 0.000587 0.000779
-0.002568 0.000545 0.000841
-0.0026 0.000529 0.000871
-0.00263 0.000513 0.0009
-0.002656 0.000498 0.000929
-0.002681 0.000485 0.000958
-0.002707 0.000471 0.000986
-0.002732 0.000459 0.001013
-0.002668 0.000581 -0.000455
-0.002716 0.000557 -0.000486
-0.002526 0.000609 -0.001548
-0.002495 0.000715 -0.000914
-0.002953 0.000566 0.000103
-0.002715 0.000503 -0.000486
-0.002536 0.000571 -0.00158
-0.002429 0.000757 -0.000273
-0.002762 0.000642 -0.000517
-0.002992 0.00037 0.000136
-0.003001 0.000365 0.000159
-0.003 0.000364 0.000184
-0.002998 0.000363 0.000209
-0.002997 0.000362 0.000233
-0.002995 0.000361 0.000258
-0.002992 0.000361 0.000282
-0.002982 0.000364 0.000306
-0.002955 0.000375 0.000327
-0.002918 0.000391 0.000346
-0.00288 0.000407 0.000365
-0.002839 0.000424 0.000384
-0.002797 0.000443 0.000402
-0.002743 0.000466 0.000419
-0.002682 0.000493 0.000435
-0.002615 0.000523 0.00045
-0.002362 0.000631 0.000586
-0.002359 0.000631 0.00061
-0.00236 0.000628 0.000635
-0.002364 0.000625 0.000661
-0.002376 0.000617 0.000688
-0.002396 0.000606 0.000716
-0.00244 0.000583 0.000747
-0.002486 0.00056 0.000779
-0.002527 0.000539 0.00081
-0.002568 0.000518 0.000841
-0.002599 0.000501 0.000871
-0.00263 0.000485 0.0009
-0.002657 0.000471 0.000929
-0.002682 0.000458 0.000958
-0.002708 0.000444 0.000986
-0.002732 0.000432 0.001012
-0.002481 0.000686 -0.001663
-0.002796 0.000598 -0.000547
-0.002476 0.000677 -0.001445
-0.00298 0.000555 0.000124
-0.002486 0.000741 -0.000107
-0.002882 0.000417 -0.000633
-0.002891 0.000484 6.2e-05
-0.002827 0.000554 -0.000576
-0.002891 0.000651 -0.000794
-0.003 0.000338 0.000159
-0.003 0.000337 0.000184
-0.002999 0.000336 0.000209
-0.002997 0.000335 0.000233
-0.002995 0.000334 0.000258
-0.002992 0.000334 0.000282
-0.002983 0.000336 0.000306
-0.002955 0.000348 0.000327
-0.002919 0.000363 0.000346
-0.002879 0.00038 0.000365
-0.00284 0.000397 0.000384
-0.002797 0.000415 0.000402
-0.002744 0.000439 0.000419
-0.00268 0.000467 0.000435
-0.002614 0.000496 0.00045
-0.002362 0.000604 0.000586
-0.002358 0.000603 0.00061
-0.002359 0.000601 0.000635
-0.002364 0.000597 0.000661
-0.002374 0.000591 0.000687
-0.002396 0.000579 0.000716
-0.002439 0.000556 0.000747
-0.002486 0.000533 0.000779
-0.002529 0.000511 0.00081
-0.002568 0.000491 0.000841
-0.002598 0.000475 0.000871
-0.002629 0.000458 0.0009
-0.002656 0.000444 0.000929
-0.002681 0.00043 0.000958
-0.002708 0.000417 0.000986
-0.002913 0.00045 -0.000736
-0.00246 0.000725 -0.000128
-0.002917 0.000531 -0.000712
-0.002785 0.000692 2e-06
-0.002771 0.000496 -0.000876
-0.002359 0.000673 -0.001731
-0.002449 0.000663 -0.000326
-0.002763 0.000669 -0.000517
-0.003 0.000311 0.000159
-0.003 0.00031 0.000184
-0.002998 0.000309 0.000209
-0.002996 0.000308 0.000233
-0.002995 0.000307 0.000258
-0.002992 0.000307 0.000282
-0.002982 0.000309 0.000306
-0.002955 0.000321 0.000327
-0.002918 0.000336 0.000346
-0.002879 0.000353 0.000365
-0.002839 0.00037 0.000384
-0.002796 0.000388 0.000402
-0.002744 0.000412 0.000419
-0.002681 0.00044 0.000435
-0.002614 0.000469 0.00045
-0.002362 0.000576 0.000586
-0.002358 0.000576 0.00061
-0.002359 0.000574 0.000635
-0.002364 0.00057 0.000661
-0.002374 0.000563 0.000687
-0.002395 0.000552 0.000715
-0.002439 0.00053 0.000747
-0.002486 0.000506 0.000779
-0.002529 0.000484 0.00081
-0.002567 0.000464 0.000841
-0.002599 0.000447 0.000871
-0.00263 0.000431 0.0009
-0.002656 0.000417 0.000929
-0.002681 0.000403 0.000958
-0.002708 0.00039 0.000986
-0.002487 0.000713 -0.000107
-0.002919 0.000559 -0.000687
-0.00282 0.000677 2.2e-05
-0.002225 0.000616 -0.001714
-0.002923 0.000633 8.1e-05
-0.001749 0.00067 -0.001827
-0.002614 0.000554 -0.000422
-0.002202 0.000699 -0.001081
-0.002667 0.000717 -0.000455
-0.003 0.000284 0.000159
-0.003 0.000283 0.000184
-0.002998 0.000282 0.000209
-0.002996 0.000281 0.000233
-0.002994 0.00028 0.000258
-0.002991 0.00028 0.000282
-0.002982 0.000282 0.000306
-0.002954 0.000294 0.000327
-0.002918 0.000309 0.000346
-0.00288 0.000325 0.000365
-0.002839 0.000343 0.000384
-0.002796 0.000362 0.000402
-0.002744 0.000384 0.000419
-0.00268 0.000413 0.000435
-0.002613 0.000443 0.000449
-0.002362 0.000549 0.000586
-0.002358 0.000549 0.00061
-0.002359 0.000547 0.000635
-0.002364 0.000543 0.000661
-0.002374 0.000536 0.000687
-0.002395 0.000525 0.000715
-0.002439 0.000502 0.000747
-0.002486 0.000479 0.000779
-0.002529 0.000456 0.00081
-0.002568 0.000436 0.000841
-0.002599 0.00042 0.000871
-0.00263 0.000404 0.0009
-0.002656 0.00039 0.000929
-0.002682 0.000376 0.000958
-0.002708 0.000363 0.000985
-0.002655 0.000612 -5.5e-05
-0.002917 0.000558 -0.000712
-0.002477 0.00073 -0.001446
-0.001086 0.000743 -0.002389
-0.002891 0.000646 6.2e-05
-0.002746 0.000654 -1.8e-05
-0.002668 0.000608 -0.000455
-0.00292 0.000423 -0.000688
-0.002492 0.000627 -0.001668
-0.002922 0.000525 8.3e-05
-0.002746 0.000627 -1.8e-05
-0.002623 0.00074 -0.000424
-0.002999 0.000257 0.000159
-0.002999 0.000256 0.000184
-0.002998 0.000255 0.000209
-0.002996 0.000254 0.000233
-0.002994 0.000253 0.000258
-0.002991 0.000253 0.000282
-0.002982 0.000255 0.000306
-0.002955 0.000266 0.000327
-0.002918 0.000282 0.000346
-0.00288 0.000298 0.000365
-0.00284 0.000315 0.000384
-0.002796 0.000334 0.000402
-0.002741 0.000358 0.000419
-0.00268 0.000385 0.000435
-0.002613 0.000415 0.00045
-0.002361 0.000522 0.000586
-0.002357 0.000522 0.00061
-0.002359 0.00052 0.000635
-0.002363 0.000516 0.000661
-0.002374 0.000509 0.000687
-0.002394 0.000498 0.000715
-0.002437 0.000476 0.000747
-0.002484 0.000452 0.000779
-0.002528 0.00043 0.00081
-0.002567 0.00041 0.000841
-0.002601 0.000392 0.000871
-0.002629 0.000377 0.0009
-0.002656 0.000363 0.000929
-0.002683 0.000348 0.000958
-0.002708 0.000336 0.000985
-0.002614 0.00058 -0.000423
-0.002857 0.000634 4.2e-05
-0.002955 0.000648 0.0001
-0.002784 0.000719 2e-06
-0.002745 0.000709 -1.8e-05
-0.002883 0.000525 -0.000633
-0.002827 0.0005 -0.000576
-0.002918 0.000422 -0.000712
-0.0029 0.000624 -0.000771
-0.00289 0.000538 6.2e-05
-0.002666 0.000743 -5.7e-05
-0.002998 0.00023 0.000159
-0.002998 0.000229 0.000184
-0.002997 0.000228 0.000209
-0.002995 0.000227 0.000233
-0.002993 0.000226 0.000258
-0.00299 0.000226 0.000282
-0.002981 0.000229 0.000306
-0.002954 0.000239 0.000327
-0.002917 0.000255 0.000346
-0.00288 0.000271 0.000365
-0.00284 0.000288 0.000384
-0.002796 0.000307 0.000402
-0.002742 0.000331 0.000419
-0.002681 0.000358 0.000435
-0.002612 0.000388 0.000449
-0.002361 0.000495 0.000586
-0.002357 0.000495 0.00061
-0.002359 0.000493 0.000635
-0.002363 0.000489 0.000661
-0.002374 0.000482 0.000687
-0.002395 0.00047 0.000715
-0.002437 0.000449 0.000747
-0.002485 0.000425 0.000779
-0.002528 0.000402 0.00081
-0.002568 0.000382 0.000841
-0.002601 0.000365 0.000871
-0.002629 0.00035 0.0009
-0.002657 0.000335 0.000929
-0.002683 0.000322 0.000957
-0.002709 0.000308 0.000985
-0.002538 0.000664 -8.9e-05
-0.002953 0.000594 0.000103
-0.00282 0.000704 2.2e-05
-0.002809 0.0007 -0.000866
-0.002535 0.000626 -0.001579
-0.002908 0.000511 -0.000661
-0.002432 0.000645 -0.000298
-0.002556 0.000637 -0.00039
-0.002891 0.000592 6.2e-05
-0.002998 0.000203 0.000159
-0.002998 0.000202 0.000184
-0.002997 0.000201 0.000209
-0.002995 0.0002 0.000233
-0.002993 0.000199 0.000258
-0.002989 0.000199 0.000282
-0.00298 0.000202 0.000306
-0.002954 0.000212 0.000327
-0.002917 0.000228 0.000346
-0.00288 0.000244 0.000365
-0.00284 0.000261 0.000384
-0.002796 0.00028 0.000402
-0.002743 0.000303 0.000419
-0.002682 0.00033 0.000435
-0.002611 0.000362 0.000449
-0.002361 0.000468 0.000586
-0.002358 0.000468 0.00061
-0.002359 0.000466 0.000635
-0.002364 0.000462 0.000661
-0.002374 0.000455 0.000687
-0.002395 0.000443 0.000716
-0.002438 0.000421 0.000747
-0.002487 0.000396 0.000779
-0.00253 0.000375 0.000811
-0.002568 0.000355 0.000841
-0.002601 0.000338 0.000871
-0.002629 0.000323 0.0009
-0.002657 0.000308 0.000929
-0.002684 0.000294 0.000957
-0.002709 0.000281 0.000984
-0.002614 0.000608 -0.000423
-0.002954 0.000621 0.000101
-0.002912 0.000642 -0.000712
-0.002452 0.000748 -0.001408
-0.002871 0.000716 -0.000785
-0.00292 0.000504 -0.000688
-0.002443 0.000731 -0.000151
-0.002423 0.000678 -0.000272
-0.002432 0.000672 -0.000298
-0.002784 0.000665 2e-06
-0.002998 0.000175 0.000184
-0.002997 0.000174 0.000209
-0.002995 0.000173 0.000233
-0.002992 0.000172 0.000258
-0.002988 0.000173 0.000282
-0.002979 0.000175 0.000306
-0.002954 0.000185 0.000327
-0.002918 0.0002 0.000346
-0.00288 0.000217 0.000365
-0.00284 0.000234 0.000384
-0.002796 0.000253 0.000403
-0.002744 0.000275 0.00042
-0.002682 0.000303 0.000435
-0.002362 0.00044 0.000586
-0.002359 0.00044 0.00061
-0.00236 0.000438 0.000635
-0.002364 0.000434 0.000661
-0.002375 0.000427 0.000688
-0.002395 0.000416 0.000716
-0.002489 0.000368 0.00078
-0.00253 0.000347 0.000811
-0.002568 0.000328 0.000841
-0.002601 0.000311 0.000871
-0.002629 0.000296 0.0009
-0.002657 0.000281 0.000929
-0.002683 0.000267 0.000957
-0.002708 0.000254 0.000984
-0.002252 0.000759 -0.000941
-0.002908 0.000658 -0.000721
-0.002827 0.00069 -0.000576
-0.002797 0.000706 -0.000547
-0.002494 0.00049 -0.001669
-0.002922 0.000579 8.3e-05
-0.001873 0.000706 -0.002191
-0.002435 0.000564 -0.001731
-0.002423 0.000682 -0.000223
-0.002888 0.000722 -0.000712
-0.002746 0.000681 -1.8e-05
-0.002996 0.000148 0.000184
-0.002996 0.000147 0.000208
-0.002994 0.000146 0.000233
-0.00299 0.000146 0.000257
-0.002985 0.000147 0.000282
-0.002976 0.000149 0.000305
-0.002954 0.000158 0.000327
-0.002918 0.000173 0.000346
-0.00288 0.00019 0.000365
-0.00284 0.000206 0.000384
-0.002796 0.000225 0.000403
-0.002743 0.000249 0.000419
-0.002683 0.000275 0.000435
-0.002362 0.000413 0.000586
-0.002359 0.000413 0.00061
-0.002359 0.000411 0.000635
-0.002364 0.000407 0.000661
-0.002375 0.0004 0.000688
-0.002395 0.000389 0.000716
-0.002438 0.000367 0.000747
-0.002488 0.000342 0.000779
-0.002529 0.000321 0.000811
-0.002568 0.000301 0.000841
-0.002601 0.000283 0.000871
-0.002628 0.000269 0.0009
-0.002657 0.000254 0.000929
-0.002684 0.00024 0.000957
-0.002707 0.000228 0.000985
-0.002506 0.000625 -0.001647
-0.002885 0.000579 -0.000632
-0.002781 0.000748 2e-06
-0.002821 0.000731 2.2e-05
-0.002915 0.000614 -0.000712
-0.002857 0.000566 -0.000604
-0.001815 0.000655 -0.00198
-0.002444 0.000676 -0.000151
-0.002426 0.000682 -0.000199
-0.00276 0.000507 -0.000517
-0.002908 0.00043 -0.000661
-0.002527 0.000663 -0.001548
-0.002646 0.000708 -0.000901
-0.002891 0.000619 6.2e-05
-0.002992 0.000123 0.000183
-0.002992 0.000121 0.000208
-0.00299 0.000121 0.000233
-0.002986 0.000121 0.000257
-0.002981 0.000122 0.000281
-0.002973 0.000124 0.000305
-0.002954 0.000131 0.000327
-0.002919 0.000146 0.000346
-0.00288 0.000162 0.000365
-0.002841 0.000179 0.000384
-0.002796 0.000199 0.000402
-0.002368 0.000385 0.000562
-0.002362 0.000386 0.000586
-0.002359 0.000386 0.00061
-0.002359 0.000384 0.000635
-0.002364 0.00038 0.000661
-0.002375 0.000373 0.000688
-0.002396 0.000361 0.000716
-0.002436 0.000341 0.000747
-0.002488 0.000314 0.00078
-0.00253 0.000293 0.000811
-0.002568 0.000273 0.000841
-0.002602 0.000256 0.000871
-0.002628 0.000241 0.0009
-0.002657 0.000226 0.000929
-0.002684 0.000213 0.000957
-0.002707 0.0002 0.000985
-0.002856 0.000512 -0.000604
-0.002796 0.000625 -0.000547
-0.002891 0.000701 6.1e-05
-0.002924 0.000688 8e-05
-0.002496 0.000685 -0.001643
-0.00288 0.000717 -0.000762
-0.002531 0.000596 -0.001605
-0.002433 0.00068 -0.000175
-0.00251 0.000622 -0.001515
-0.002615 0.000662 -0.000423
-0.00276 0.000589 -0.000517
-0.002857 0.000607 4.2e-05
-0.002984 0.000101 0.000157
-0.002985 9.9e-05 0.000182
-0.002985 9.7e-05 0.000207
-0.002983 9.7e-05 0.000232
-0.002979 9.7e-05 0.000256
-0.002974 9.7e-05 0.00028
-0.002967 9.9e-05 0.000304
-0.002951 0.000105 0.000326
-0.002918 0.000119 0.000346
-0.002879 0.000136 0.000365
-0.00284 0.000152 0.000384
-0.002796 0.000171 0.000403
-0.002368 0.000358 0.000562
-0.002362 0.000359 0.000586
-0.002359 0.000359 0.00061
-0.002359 0.000357 0.000635
-0.002364 0.000353 0.000661
-0.002375 0.000346 0.000688
-0.002396 0.000334 0.000716
-0.002488 0.000287 0.000779
-0.002531 0.000265 0.000811
-0.002568 0.000246 0.000842
-0.002601 0.000229 0.000871
-0.002629 0.000214 0.0009
-0.002657 0.000199 0.000929
-0.002683 0.000185 0.000958
-0.002705 0.000173 0.000986
-0.002732 0.00016 0.001013
-0.00292 0.00045 -0.000688
-0.0029 0.000689 -0.000718
-0.002527 0.000636 -0.001548
-0.002457 0.000637 -0.00141
-0.002508 0.000684 -0.001622
-0.002537 0.000746 -8.9e-05
-0.002827 0.000527 -0.000576
-0.0026 0.000691 -7.3e-05
-0.002922 0.000606 8.2e-05
-0.002888 0.000512 -0.00082
-0.002716 0.00072 -0.000486
-0.002975 7.9e-05 0.000156
-0.002977 7.6e-05 0.000181
-0.002976 7.5e-05 0.000206
-0.002974 7.4e-05 0.00023
-0.00297 7.4e-05 0.000254
-0.002965 7.5e-05 0.000279
-0.002958 7.6e-05 0.000302
-0.002945 8e-05 0.000326
-0.002918 9.2e-05 0.000346
-0.002878 0.000109 0.000365
-0.00284 0.000125 0.000384
-0.002796 0.000144 0.000403
-0.002367 0.000331 0.000562
-0.002362 0.000332 0.000586
-0.002359 0.000332 0.00061
-0.002359 0.00033 0.000635
-0.002364 0.000326 0.000661
-0.002374 0.000319 0.000688
-0.002395 0.000307 0.000716
-0.002488 0.00026 0.00078
-0.002531 0.000238 0.000811
-0.002569 0.000218 0.000842
-0.0026 0.000202 0.000871
-0.002629 0.000187 0.0009
-0.002657 0.000172 0.00093
-0.002683 0.000158 0.000958
-0.002704 0.000146 0.000987
-0.00273 0.000133 0.001014
-0.002494 0.000608 -0.00148
-0.002732 0.000675 -0.000885
-0.002884 0.00066 -0.000633
-0.002907 0.000648 -0.000661
-0.002884 0.000633 -0.000633
-0.002666 0.000663 -0.000455
-0.002953 0.000485 0.000103
-0.002488 0.000686 -0.000107
-0.002666 0.000636 -0.000455
-0.002889 0.000729 6.2e-05
-0.002884 0.000687 -0.000633
-0.002959 6.1e-05 0.000129
-0.002963 5.7e-05 0.000154
-0.002964 5.5e-05 0.000179
-0.002963 5.4e-05 0.000204
-0.002961 5.3e-05 0.000228
-0.002957 5.3e-05 0.000253
-0.002952 5.4e-05 0.000277
-0.002946 5.5e-05 0.000301
-0.002935 5.8e-05 0.000324
-0.002916 6.6e-05 0.000346
-0.002879 8.1e-05 0.000365
-0.00284 9.8e-05 0.000384
-0.002797 0.000116 0.000403
-0.002742 0.000141 0.000419
-0.002368 0.000304 0.000562
-0.002362 0.000305 0.000586
-0.002359 0.000304 0.00061
-0.002359 0.000303 0.000635
-0.002363 0.000299 0.000661
-0.002374 0.000292 0.000688
-0.002395 0.00028 0.000716
-0.002017 -2.6e-05 0.000584
-0.002569 0.000191 0.000842
-0.002601 0.000175 0.000871
-0.002629 0.00016 0.000901
-0.002657 0.000145 0.00093
-0.002682 0.000131 0.000958
-0.002704 0.000119 0.000987
-0.00273 0.000106 0.001014
-0.00234 0.000744 -0.00125
-0.002856 0.000593 -0.000604
-0.002762 0.000724 -0.000517
-0.002913 0.000643 -0.000687
-0.002908 0.00062 -0.000661
-0.002718 0.000637 -0.000486
-0.002704 0.000618 -3.7e-05
-0.002826 0.000446 -0.000575
-0.002846 0.000605 -0.000856
-0.002916 0.000586 -0.000712
-0.002858 0.000701 -0.000605
-0.002937 4.6e-05 0.000101
-0.002945 4.1e-05 0.000127
-0.002947 3.8e-05 0.000152
-0.002947 3.6e-05 0.000176
-0.002946 3.4e-05 0.000201
-0.002944 3.4e-05 0.000226
-0.002941 3.4e-05 0.00025
-0.002936 3.4e-05 0.000274
-0.00293 3.5e-05 0.000298
-0.002921 3.8e-05 0.000322
-0.002906 4.3e-05 0.000345
-0.002877 5.5e-05 0.000365
-0.00284 7.1e-05 0.000384
-0.002797 8.9e-05 0.000403
-0.002742 0.000113 0.000419
-0.002022 -2.6e-05 0.00056
-0.002362 0.000277 0.000586
-0.002359 0.000277 0.000611
-0.00236 0.000275 0.000635
-0.002365 0.000271 0.000661
-0.002376 0.000264 0.000686
-0.002396 0.000253 0.000716
-0.002027 -2.7e-05 0.000536
-0.002488 0.000206 0.00078
-0.002531 0.000184 0.000811
-0.002568 0.000164 0.000842
-0.0026 0.000148 0.000871
-0.00263 0.000132 0.000901
-0.002656 0.000118 0.00093
-0.002681 0.000104 0.000958
-0.002704 9.2e-05 0.000987
-0.002729 7.9e-05 0.001014
-0.002982 0.000446 0.000124
-0.002912 0.000559 -0.000736
-0.002495 0.000716 -0.001481
-0.002732 0.000729 -0.000885
-0.002916 0.000615 -0.000687
-0.002703 0.000673 -3.7e-05
-0.002796 0.000489 -0.000546
-0.002668 0.000554 -0.000455
-0.002857 0.000715 4.2e-05
-0.002853 0.000745 4.2e-05
-0.002919 2.8e-05 9.8e-05
-0.002925 2.3e-05 0.000123
-0.002926 2.1e-05 0.000148
-0.002925 1.9e-05 0.000173
-0.002924 1.8e-05 0.000198
-0.002922 1.7e-05 0.000222
-0.002918 1.7e-05 0.000247
-0.002914 1.7e-05 0.000271
-0.002909 1.8e-05 0.000295
-0.002901 2e-05 0.000319
-0.00289 2.4e-05 0.000342
-0.002869 3.2e-05 0.000364
-0.002837 4.5e-05 0.000384
-0.002795 6.3e-05 0.000402
-0.002742 8.6e-05 0.000419
-0.002031 -2.8e-05 0.000512
-0.002362 0.00025 0.000586
-0.002359 0.00025 0.000611
-0.002359 0.000248 0.000635
-0.002365 0.000244 0.000661
-0.002376 0.000237 0.000686
-0.002489 0.000178 0.00078
-0.002531 0.000157 0.000811
-0.002568 0.000137 0.000842
-0.002599 0.000121 0.000871
-0.002629 0.000105 0.000901
-0.002657 9e-05 0.00093
-0.002681 7.7e-05 0.000958
-0.002705 6.4e-05 0.000987
-0.002727 5.3e-05 0.001014
-0.002536 0.000598 -0.00158
-0.002615 0.000689 -0.000423
-0.002797 0.000679 -0.000547
-0.002875 0.000651 -0.00083
-0.002857 0.00062 -0.000605
-0.002655 0.000694 -5.5e-05
-0.002982 0.000473 0.000124
-0.002423 0.000705 -0.000272
-0.002616 0.000716 -0.000423
-0.002705 0.000753 -3.7e-05
-0.002892 1.3e-05 9.4e-05
-0.002895 1e-05 0.000119
-0.002894 8e-06 0.000143
-0.002891 8e-06 0.000168
-0.002887 8e-06 0.000192
-0.002885 7e-06 0.000217
-0.002882 7e-06 0.000241
-0.002878 7e-06 0.000266
-0.002874 7e-06 0.00029
-0.002869 8e-06 0.000314
-0.002862 9e-06 0.000338
-0.00285 1.3e-05 0.000361
-0.002827 2.2e-05 0.000382
-0.002789 3.9e-05 0.000402
-0.002741 5.9e-05 0.000419
-0.002681 8.6e-05 0.000435
-0.002611 0.000118 0.000449
-0.002362 0.000223 0.000586
-0.002359 0.000223 0.000611
-0.002359 0.000221 0.000635
-0.002363 0.000217 0.000661
-0.002374 0.00021 0.000688
-0.002396 0.000198 0.000716
-0.002037 -2.8e-05 0.000487
-0.002489 0.000151 0.00078
-0.002531 0.000129 0.000811
-0.002569 0.00011 0.000842
-0.0026 9.4e-05 0.000871
-0.002628 7.8e-05 0.000901
-0.002656 6.4e-05 0.00093
-0.00268 5.1e-05 0.000958
-0.002703 3.8e-05 0.000986
-0.002719 2.9e-05 0.001013
-0.002551 0.000719 -0.000913
-0.002599 0.000719 -7.2e-05
-0.002856 0.000661 4.2e-05
-0.002827 0.000636 -0.000576
-0.002797 0.000651 -0.000547
-0.002908 0.000539 -0.000661
-0.002998 0.000494 0.000147
-0.002599 0.000664 -7.3e-05
-0.00292 0.000477 -0.000688
-0.0026 0.000726 -0.000907
-0.002853 2e-06 0.000112
-0.002849 2e-06 0.000137
-0.002847 1e-06 0.000161
-0.002843 1e-06 0.000186
-0.002841 1e-06 0.00021
-0.002837 1e-06 0.000234
-0.002833 1e-06 0.000259
-0.002828 2e-06 0.000283
-0.002819 2e-06 0.000331
-0.002813 4e-06 0.000355
-0.002802 7e-06 0.000379
-0.002778 1.7e-05 0.0004
-0.002738 3.4e-05 0.000419
-0.002684 5.8e-05 0.000436
-0.00204 -2.8e-05 0.000463
-0.002367 0.000195 0.000562
-0.002362 0.000196 0.000586
-0.002358 0.000196 0.000611
-0.002359 0.000194 0.000635
-0.002363 0.00019 0.000661
-0.002374 0.000183 0.000688
-0.002396 0.000171 0.000716
-0.00249 0.000123 0.00078
-0.00253 0.000103 0.000811
-0.002569 8.3e-05 0.000842
-0.0026 6.6e-05 0.000871
-0.002627 5.2e-05 0.0009
-0.002655 3.7e-05 0.000929
-0.002676 2.5e-05 0.000958
-0.002692 1.5e-05 0.000985
-0.002746 0.000545 -1.8e-05
-0.002997 0.000549 0.000147
-0.002827 0.000609 -0.000576
-0.002875 0.000682 -0.000814
-0.002716 0.000692 -0.000486
-0.002919 0.000532 -0.000688
-0.002447 0.000691 -0.000325
-0.002903 0.00046 -0.000772
-0.002802 4e-06 3e-05
-0.002732 0.000702 -0.000885
-0.002457 0.000529 -0.00141
-0.00279 3e-06 0.000128
-0.002786 3e-06 0.000152
-0.002782 3e-06 0.000176
-0.002537 0.000692 -8.9e-05
-0.002775 3e-06 0.000225
-0.002771 3e-06 0.000249
-0.002766 4e-06 0.000274
-0.002045 -2.9e-05 0.000439
-0.002762 2e-06 0.000323
-0.002754 4e-06 0.000347
-0.002752 4e-06 0.000371
-0.002744 5e-06 0.000395
-0.002723 1.4e-05 0.000417
-0.002679 3.3e-05 0.000435
-0.002367 0.000168 0.000562
-0.002362 0.000169 0.000586
-0.002358 0.000169 0.000611
-0.002359 0.000167 0.000635
-0.002363 0.000163 0.000661
-0.002374 0.000156 0.000688
-0.002397 0.000144 0.000716
-0.002489 9.7e-05 0.00078
-0.002532 7.5e-05 0.000811
-0.002569 5.6e-05 0.000842
-0.002598 4e-05 0.000871
-0.002626 2.5e-05 0.000899
-0.002646 1.4e-05 0.000928
-0.002657 7e-06 0.000955
-0.002902 0.000515 -0.000772
-0.002856 0.000539 -0.000604
-0.002981 0.000582 0.000124
-0.002886 0.000719 -0.000738
-0.002434 0.000619 -0.00173
-0.002827 0.000581 -0.000576
-0.002896 0.000458 -0.000796
-0.002551 0.000665 -0.000912
-0.002746 5e-06 -3e-06
-0.002746 3e-06 2.1e-05
-0.002738 5e-06 4.5e-05
-0.002735 5e-06 7e-05
-0.002726 6e-06 0.000118
-0.002724 5e-06 0.000143
-0.002719 5e-06 0.000167
-0.002711 6e-06 0.000215
-0.002707 5e-06 0.00024
-0.002691 7e-06 0.000337
-0.002688 6e-06 0.000362
-0.002686 6e-06 0.000386
-0.002682 6e-06 0.00041
-0.002664 1.3e-05 0.000433
-0.002367 0.000141 0.000562
-0.002361 0.000142 0.000586
-0.002357 0.000142 0.00061
-0.002358 0.00014 0.000635
-0.002362 0.000136 0.000661
-0.002374 0.000129 0.000688
-0.002395 0.000117 0.000716
-0.002531 4.8e-05 0.000811
-0.002567 2.9e-05 0.000842
-0.002604 3e-06 0.000972
-0.002598 4e-06 0.000996
-0.002746 0.000572 -1.8e-05
-0.002918 0.000504 -0.000712
-0.002703 0.0007 -3.7e-05
-0.002908 0.000593 -0.000661
-0.002918 0.000587 -0.000687
-0.002761 0.000615 -0.000517
-0.002981 0.0005 0.000124
-0.002845 0.000578 -0.000855
-0.002695 2e-06 -1.1e-05
-0.002687 4e-06 1.3e-05
-0.002684 3e-06 3.7e-05
-0.00268 3e-06 6.1e-05
-0.002678 3e-06 8.6e-05
-0.002675 2e-06 0.00011
-0.002672 2e-06 0.000135
-0.002669 2e-06 0.000159
-0.002666 1e-06 0.000184
-0.002663 1e-06 0.000208
-0.002518 0.000684 -0.001599
-0.002657 1e-06 0.000257
-0.002654 1e-06 0.000282
-0.00265 0.0 0.000306
-0.002648 -0.0 0.000331
-0.002643 0.0 0.000355
-0.002641 -0.0 0.000379
-0.002638 -0.0 0.000404
-0.002631 1e-06 0.000428
-0.002609 1e-05 0.000449
-0.002367 0.000114 0.000562
-0.002361 0.000114 0.000586
-0.002357 0.000115 0.00061
-0.002358 0.000113 0.000635
-0.002362 0.000109 0.000661
-0.002374 0.000102 0.000688
-0.002396 9e-05 0.000716
-0.002049 -2.9e-05 0.000415
-0.002539 7e-06 0.000962
-0.002537 6e-06 0.000986
-0.002556 0.000582 -0.00039
-0.002912 0.000505 -0.000736
-0.002716 0.000665 -0.000486
-0.002827 0.000663 -0.000576
-0.002857 0.000647 -0.000605
-0.002602 0.000744 -7.3e-05
-0.002533 0.00072 -8.9e-05
-0.002632 7e-06 -7e-05
-0.002648 -2e-06 -4.3e-05
-0.002648 -4e-06 -1.8e-05
-0.002639 -3e-06 3e-05
-0.002634 -2e-06 5.4e-05
-0.002634 -4e-06 7.9e-05
-0.002629 -3e-06 0.000104
-0.002627 -4e-06 0.000128
-0.002621 -3e-06 0.000152
-0.002621 -4e-06 0.000177
-0.002616 -4e-06 0.000201
-0.002906 0.000397 -0.00076
-0.002761 0.000534 -0.000517
-0.002603 -3e-06 0.000274
-0.002601 -3e-06 0.000299
-0.002053 -2.9e-05 0.00039
-0.002582 -3e-06 0.00042
-0.002574 -1e-06 0.000444
-0.002366 8.7e-05 0.000562
-0.002361 8.8e-05 0.000586
-0.002357 8.8e-05 0.00061
-0.002357 8.6e-05 0.000635
-0.002362 8.2e-05 0.000661
-0.002373 7.5e-05 0.000688
-0.002396 6.2e-05 0.000716
-0.002439 4e-05 0.000747
-0.002058 -3e-05 0.000366
-0.002784 0.000529 2e-06
-0.002434 0.000708 -0.001373
-0.002809 0.00051 -0.000865
-0.002906 0.000672 -0.000711
-0.002796 0.000733 -0.000547
-0.002253 0.000731 -0.000942
-0.002855 0.000485 -0.000604
-0.002591 -1e-06 -7.7e-05
-0.002589 -1e-06 -5.2e-05
-0.002584 -1e-06 -2.8e-05
-0.00258 -1e-06 -4e-06
-0.002576 -2e-06 4.6e-05
-0.002569 0.0 7e-05
-0.002564 0.0 9.4e-05
-0.002556 1e-06 0.000142
-0.00255 2e-06 0.000166
-0.002551 -0.0 0.000191
-0.002891 0.000565 6.2e-05
-0.002538 1e-06 0.000264
-0.002534 1e-06 0.000288
-0.002062 -3e-05 0.000342
-0.002065 -3e-05 0.000317
-0.002365 6e-05 0.000562
-0.00236 6.1e-05 0.000586
-0.002356 6.1e-05 0.00061
-0.002356 5.9e-05 0.000635
-0.002361 5.5e-05 0.000661
-0.002373 4.8e-05 0.000688
-0.002395 3.5e-05 0.000716
-0.002442 1.2e-05 0.000748
-0.002069 -3e-05 0.000293
-0.002666 0.000528 -0.000454
-0.002526 0.000653 -0.001602
-0.002922 0.000715 8.3e-05
-0.00242 6.1e-05 -0.000227
-0.002424 5.8e-05 -0.000201
-0.002431 5.2e-05 -0.000175
-0.00282 0.000514 2.2e-05
-0.00254 -4e-06 -8.4e-05
-0.002523 3e-06 -6.2e-05
-0.002518 3e-06 -3.8e-05
-0.002515 3e-06 -1.3e-05
-0.002508 5e-06 1e-05
-0.002072 -3e-05 0.000269
-0.002491 2e-06 0.000157
-0.002487 3e-06 0.000182
-0.002479 3e-06 0.00023
-0.002475 3e-06 0.000255
-0.002473 3e-06 0.000279
-0.002467 4e-06 0.000303
-0.00246 5e-06 0.000327
-0.002454 5e-06 0.000376
-0.002451 4e-06 0.0004
-0.00236 3.4e-05 0.000586
-0.002355 3.4e-05 0.00061
-0.002356 3.2e-05 0.000635
-0.00236 2.8e-05 0.000661
-0.002372 2.1e-05 0.000687
-0.002393 9e-06 0.000716
-0.00241 -1e-06 0.000743
-0.002076 -3e-05 0.000244
-0.002373 2e-06 0.000962
-0.00237 1e-06 0.000986
-0.002913 0.000477 -0.000736
-0.002511 0.000649 -0.001514
-0.002418 3.7e-05 -0.000252
-0.00242 3.4e-05 -0.000227
-0.002423 3.1e-05 -0.000202
-0.002432 2.5e-05 -0.000175
-0.002447 1.7e-05 -0.000147
-0.002471 4e-06 -0.00012
-0.002466 2e-06 -7.1e-05
-0.00246 3e-06 -4.7e-05
-0.002459 2e-06 -2.2e-05
-0.002457 1e-06 3e-06
-0.002454 1e-06 2.7e-05
-0.002534 0.000459 -0.001606
-0.002855 0.000431 -0.000604
-0.002856 0.000458 -0.000604
-0.002079 -2.9e-05 0.00022
-0.002821 0.00054 2.2e-05
-0.002421 0.000681 -0.000247
-0.002433 -1e-06 0.000198
-0.002429 -1e-06 0.000223
-0.002426 -1e-06 0.000247
-0.002423 -1e-06 0.000272
-0.002419 -1e-06 0.000296
-0.002417 -2e-06 0.000321
-0.002413 -2e-06 0.000345
-0.002409 -1e-06 0.000369
-0.002353 8e-06 0.00061
-0.002353 6e-06 0.000635
-0.002355 3e-06 0.00066
-0.002355 2e-06 0.000685
-0.002317 4e-06 0.000903
-0.002313 4e-06 0.000928
-0.00231 4e-06 0.000952
-0.002307 4e-06 0.000977
-0.002488 0.000659 -0.000107
-0.00242 1.1e-05 -0.000277
-0.002418 1e-05 -0.000252
-0.002419 7e-06 -0.000227
-0.002422 4e-06 -0.000202
-0.002427 1e-06 -0.000176
-0.002428 -2e-06 -0.000151
-0.002427 -3e-06 -0.000126
-0.002424 -3e-06 -0.000102
-0.002423 -4e-06 -7.7e-05
-0.002421 -6e-06 -5.3e-05
-0.002419 -6e-06 -2.8e-05
-0.002416 -6e-06 -3e-06
-0.002414 -7e-06 2.1e-05
-0.002671 0.000743 -0.000455
-0.002826 0.000473 -0.000575
-0.002882 0.000444 -0.000633
-0.002857 0.000525 4.2e-05
-0.002784 0.000556 2e-06
-0.002391 -8e-06 0.000192
-0.002387 -8e-06 0.000216
-0.002385 -9e-06 0.000241
-0.00238 -8e-06 0.000265
-0.002377 -8e-06 0.00029
-0.002372 -8e-06 0.000314
-0.002369 -8e-06 0.000338
-0.002082 -2.9e-05 0.000195
-0.002325 -7e-06 0.000631
-0.002322 -8e-06 0.000655
-0.002316 -7e-06 0.000679
-0.002085 -2.9e-05 0.000171
-0.002269 -1e-06 0.000896
-0.002264 0.0 0.00092
-0.002258 1e-06 0.000944
-0.002538 0.000637 -8.9e-05
-0.0024 -7e-06 -0.00028
-0.002397 -8e-06 -0.000255
-0.002396 -9e-06 -0.000231
-0.002394 -9e-06 -0.000206
-0.002388 -8e-06 -0.000182
-0.002382 -7e-06 -0.000158
-0.002382 -9e-06 -0.000133
-0.002378 -9e-06 -0.000109
-0.002371 -9e-06 -6e-05
-0.002366 -8e-06 -3.6e-05
-0.002361 -8e-06 -1.2e-05
-0.002358 -8e-06 1.3e-05
-0.002355 -8e-06 3.7e-05
-0.00276 0.000562 -0.000517
-0.002088 -2.9e-05 0.000146
-0.002321 -6e-06 0.000231
-0.002315 -5e-06 0.000255
-0.002311 -5e-06 0.00028
-0.00245 0.000635 -0.000326
-0.00209 -2.8e-05 0.000122
-0.002093 -2.7e-05 9.7e-05
-0.002095 -2.7e-05 7.3e-05
-0.002097 -2.6e-05 4.8e-05
-0.0021 -2.6e-05 2.4e-05
-0.002304 0.000689 -0.00091
-0.002236 -9e-06 0.000841
-0.002231 -8e-06 0.000866
-0.002228 -8e-06 0.00089
-0.002226 -9e-06 0.000915
-0.002223 -7e-06 0.000939
-0.002345 -8e-06 -0.000288
-0.002341 -8e-06 -0.000264
-0.002333 -6e-06 -0.00024
-0.002329 -6e-06 -0.000216
-0.002322 -4e-06 -0.000192
-0.00232 -5e-06 -0.000167
-0.002308 -3e-06 -0.000119
-0.002306 -4e-06 -9.5e-05
-0.002296 -3e-06 -4.6e-05
-0.002293 -3e-06 -2.2e-05
-0.00229 -3e-06 3e-06
-0.002285 -2e-06 2.7e-05
-0.002655 0.000667 -5.5e-05
-0.002918 0.000449 -0.000712
-0.002922 0.000552 8.3e-05
-0.002918 0.000476 -0.000712
-0.002924 0.00047 8.2e-05
-0.00226 -3e-06 0.000197
-0.002254 -2e-06 0.000221
-0.002251 -2e-06 0.000246
-0.002423 0.000651 -0.000272
-0.00292 0.000395 -0.000688
-0.002912 0.000396 -0.000736
-0.002462 0.000751 -0.000129
-0.002191 -3e-06 0.00066
-0.002187 -3e-06 0.000685
-0.00218 -4e-06 0.000758
-0.002174 -3e-06 0.000782
-0.00217 -3e-06 0.000807
-0.002171 -5e-06 0.000832
-0.002169 -6e-06 0.000856
-0.002166 -6e-06 0.000881
-0.002796 0.000462 -0.000546
-0.002883 0.00047 -0.000633
-0.002273 -3e-06 -0.000274
-0.002269 -2e-06 -0.00025
-0.002832 0.000725 -0.00085
-0.002703 0.000645 -3.7e-05
