0.001395 7e-06 -0.00205
0.001375 7e-06 -0.002063
0.001355 6e-06 -0.002078
0.001335 5e-06 -0.002093
0.001315 4e-06 -0.002108
0.001292 6e-06 -0.002118
0.001262 1.4e-05 -0.002115
0.001231 2.2e-05 -0.002113
0.001205 2.7e-05 -0.002117
0.001182 3e-05 -0.002126
0.00116 3e-05 -0.002138
0.001139 3e-05 -0.002151
0.001121 2.8e-05 -0.002168
0.001104 2.4e-05 -0.002188
0.001092 1.6e-05 -0.002215
0.001082 6e-06 -0.002246
0.000974 9e-06 -0.002305
0.000953 9e-06 -0.002318
0.000932 9e-06 -0.002332
0.000911 9e-06 -0.002345
0.000889 1.1e-05 -0.002355
0.000869 9e-06 -0.002371
0.000849 9e-06 -0.002384
0.000829 9e-06 -0.002398
0.001772 0.00073 -0.00168
0.001919 0.000575 -0.002277
0.002162 0.000599 -0.001667
0.002828 0.000675 -0.000831
0.002531 0.00056 -0.001617
0.001882 0.000595 -0.002078
0.002541 0.000712 -0.001512
0.002382 0.00073 -0.001699
0.001997 0.000699 -0.001617
0.00104 -2.5e-05 -0.001803
0.0016 2e-06 -0.001867
0.002387 0.000537 -0.001703
0.002264 0.000583 -0.001692
0.001879 0.000515 -0.002341
0.002898 0.000462 -0.000595
0.001919 0.000548 -0.002277
0.001883 0.000622 -0.002079
0.002109 0.000676 -0.001652
0.001438 -2e-06 -0.001978
0.001417 -2e-06 -0.001992
0.001396 -3e-06 -0.002005
0.001376 -3e-06 -0.002018
0.001355 -2e-06 -0.002032
0.001336 -4e-06 -0.002049
0.001315 -5e-06 -0.002061
0.001295 -6e-06 -0.002076
0.001274 -6e-06 -0.002088
0.00125 -3e-06 -0.002097
0.001227 -1e-06 -0.002106
0.001204 2e-06 -0.002115
0.001181 3e-06 -0.002125
0.00116 3e-06 -0.002137
0.001139 3e-06 -0.002151
0.001119 2e-06 -0.002166
0.0011 1e-06 -0.002181
0.001081 -1e-06 -0.002197
0.00106 -1e-06 -0.002211
0.000931 2e-06 -0.002282
0.000909 3e-06 -0.002294
0.000887 4e-06 -0.002305
0.000866 4e-06 -0.002318
0.000844 5e-06 -0.002329
0.000821 6e-06 -0.00234
0.000799 8e-06 -0.00235
0.000777 8e-06 -0.002362
0.001762 0.000726 -0.001704
0.001914 0.000568 -0.002305
0.001915 0.000588 -0.00224
0.001997 0.000671 -0.001618
0.002562 0.000587 -0.001549
0.002511 0.000483 -0.00165
0.002416 0.000719 -0.001696
0.00166 -3e-06 -0.001775
0.001638 -2e-06 -0.001786
0.001617 -3e-06 -0.001799
0.00192 0.000466 -0.002278
0.001871 0.000558 -0.002035
0.001061 -2.6e-05 -0.00179
0.001407 -2e-06 -0.001928
0.001385 -1e-06 -0.00194
0.001365 -2e-06 -0.001954
0.001345 -3e-06 -0.001969
0.001324 -2e-06 -0.001981
0.001218 -2e-06 -0.002045
0.001199 -3e-06 -0.00206
0.001178 -3e-06 -0.002073
0.001157 -3e-06 -0.002086
0.001135 -2e-06 -0.002097
0.001114 -2e-06 -0.002111
0.001093 -2e-06 -0.002124
0.001072 -2e-06 -0.002136
0.001053 -3e-06 -0.002152
0.001033 -4e-06 -0.002167
0.000908 -5e-06 -0.002245
0.000887 -5e-06 -0.002259
0.000867 -6e-06 -0.002273
0.000846 -6e-06 -0.002286
0.000825 -5e-06 -0.002298
0.000801 -3e-06 -0.002307
0.000779 -2e-06 -0.002318
0.000756 -1e-06 -0.002329
0.001996 0.000645 -0.001617
0.002513 0.000575 -0.001444
0.001909 0.000521 -0.002201
0.002056 0.000645 -0.001638
0.001863 0.000725 -0.001596
0.001648 -2e-06 -0.00171
0.001628 -2e-06 -0.001723
0.001606 -2e-06 -0.001735
0.001583 0.0 -0.001744
0.001561 1e-06 -0.001757
0.001541 0.0 -0.00177
0.001082 -2.6e-05 -0.001778
0.001415 1e-06 -0.001847
0.001392 2e-06 -0.001858
0.001372 2e-06 -0.001872
0.001351 2e-06 -0.001884
0.001329 3e-06 -0.001896
0.001287 3e-06 -0.001921
0.001266 3e-06 -0.001935
0.001245 3e-06 -0.001947
0.001224 3e-06 -0.00196
0.001203 2e-06 -0.001973
0.001099 2e-06 -0.00204
0.001078 3e-06 -0.002052
0.001059 1e-06 -0.002069
0.001042 -1e-06 -0.002087
0.001021 -2e-06 -0.0021
0.000998 -0.0 -0.002109
0.000976 0.0 -0.002122
0.000957 -2e-06 -0.002138
0.000936 -2e-06 -0.002151
0.001103 -2.6e-05 -0.001765
0.000797 -8e-06 -0.002253
0.000728 -2e-06 -0.002282
0.000707 -3e-06 -0.002296
0.002531 0.000587 -0.001617
0.002518 0.000561 -0.001638
0.001611 3e-06 -0.00165
0.001591 3e-06 -0.001664
0.00157 3e-06 -0.001676
0.001548 3e-06 -0.001689
0.001527 4e-06 -0.001701
0.001506 4e-06 -0.001714
0.001485 4e-06 -0.001727
0.001464 4e-06 -0.001739
0.002055 0.000699 -0.001637
0.002494 0.000711 -0.001634
0.001401 4e-06 -0.001778
0.001379 5e-06 -0.00179
0.001357 6e-06 -0.001801
0.001337 6e-06 -0.001815
0.001316 6e-06 -0.001828
0.001296 5e-06 -0.001842
0.002423 0.000443 -0.001703
0.001254 5e-06 -0.001868
0.001233 5e-06 -0.001881
0.001211 6e-06 -0.001893
0.00119 6e-06 -0.001905
0.001169 6e-06 -0.001919
0.001148 5e-06 -0.001932
0.001065 5e-06 -0.001984
0.001045 5e-06 -0.001999
0.00098 6e-06 -0.002035
0.00096 6e-06 -0.002049
0.00094 5e-06 -0.002063
0.000918 5e-06 -0.002075
0.000899 5e-06 -0.00209
0.000878 4e-06 -0.002104
0.000857 4e-06 -0.002117
0.000836 4e-06 -0.00213
0.000694 0.0 -0.002228
0.000673 1e-06 -0.00224
0.000652 1e-06 -0.002253
0.001863 0.000697 -0.001596
0.001939 0.000671 -0.001598
0.001662 4e-06 -0.001545
0.001641 5e-06 -0.001558
0.001619 6e-06 -0.001569
0.001598 6e-06 -0.001582
0.00231 0.00051 -0.0017
0.001557 6e-06 -0.001608
0.001535 6e-06 -0.001621
0.001515 6e-06 -0.001634
0.001495 5e-06 -0.001649
0.001474 5e-06 -0.001662
0.001453 5e-06 -0.001675
0.001433 4e-06 -0.001689
0.001876 0.000717 -0.002304
0.002527 0.000721 -0.001564
0.00137 4e-06 -0.001728
0.001349 4e-06 -0.001741
0.001329 3e-06 -0.001756
0.001308 4e-06 -0.001768
0.001287 4e-06 -0.001781
0.001266 4e-06 -0.001795
0.001245 4e-06 -0.001807
0.001225 4e-06 -0.001821
0.001204 4e-06 -0.001834
0.001183 4e-06 -0.001847
0.001161 4e-06 -0.001859
0.001141 3e-06 -0.001873
0.00112 3e-06 -0.001886
0.00093 5e-06 -0.002001
0.000909 5e-06 -0.002014
0.000888 5e-06 -0.002026
0.000867 5e-06 -0.002039
0.000846 5e-06 -0.002052
0.000825 5e-06 -0.002065
0.000804 5e-06 -0.002078
0.000782 6e-06 -0.00209
0.000762 6e-06 -0.002103
0.000637 5e-06 -0.002182
0.000617 4e-06 -0.002197
0.001893 0.000689 -0.00159
0.001653 4e-06 -0.001484
0.001632 5e-06 -0.001496
0.001611 4e-06 -0.001509
0.001592 4e-06 -0.001525
0.001571 3e-06 -0.001538
0.001857 0.000719 -0.00232
0.00153 2e-06 -0.001566
0.00151 2e-06 -0.00158
0.001489 1e-06 -0.001593
0.001469 1e-06 -0.001608
0.001449 0.0 -0.001621
0.001428 -0.0 -0.001635
0.001408 -1e-06 -0.001649
0.001908 0.000728 -0.002233
0.001367 -1e-06 -0.001676
0.001346 -2e-06 -0.00169
0.001326 -2e-06 -0.001703
0.001305 -2e-06 -0.001717
0.001284 -2e-06 -0.00173
0.001264 -3e-06 -0.001744
0.001243 -3e-06 -0.001757
0.001222 -3e-06 -0.001771
0.001202 -3e-06 -0.001784
0.00118 -3e-06 -0.001796
0.00116 -3e-06 -0.00181
0.001139 -3e-06 -0.001822
0.001118 -3e-06 -0.001836
0.001097 -3e-06 -0.001849
0.001076 -3e-06 -0.001862
0.001055 -3e-06 -0.001875
0.001033 -2e-06 -0.001886
0.001012 -2e-06 -0.001898
0.000928 -1e-06 -0.00195
0.000906 -1e-06 -0.001962
0.000885 -1e-06 -0.001975
0.000864 -0.0 -0.001987
0.000842 0.0 -0.001999
0.00082 1e-06 -0.00201
0.000799 1e-06 -0.002022
0.000777 2e-06 -0.002034
0.000756 2e-06 -0.002047
0.000734 3e-06 -0.002059
0.00067 5e-06 -0.002095
0.000649 4e-06 -0.002108
0.000627 5e-06 -0.002119
0.001838 0.000675 -0.001607
0.001627 0.0 -0.001442
0.001607 -1e-06 -0.001456
0.002253 0.000732 -0.000936
0.001831 0.000687 -0.002363
0.002508 0.000648 -0.001647
0.002522 0.00065 -0.001626
0.002349 0.000686 -0.001703
0.001893 0.000714 -0.002121
0.001894 0.000652 -0.002321
0.001911 0.000683 -0.002201
0.001882 0.000731 -0.002077
0.002675 0.00065 -0.000866
0.002319 0.000714 -0.000886
0.002558 0.000644 -0.001547
0.001346 -1e-05 -0.001643
0.001326 -1.1e-05 -0.001657
0.001305 -1.1e-05 -0.001671
0.001285 -1.2e-05 -0.001684
0.001264 -1.2e-05 -0.001698
0.001244 -1.2e-05 -0.001712
0.001223 -1.2e-05 -0.001725
0.001203 -1.3e-05 -0.001739
0.001182 -1.3e-05 -0.001753
0.001161 -1.3e-05 -0.001766
0.00114 -1.3e-05 -0.001778
0.00112 -1.3e-05 -0.001792
0.001099 -1.3e-05 -0.001805
0.001078 -1.3e-05 -0.001817
0.001056 -1.3e-05 -0.00183
0.001035 -1.3e-05 -0.001843
0.001014 -1.3e-05 -0.001855
0.000993 -1.2e-05 -0.001868
0.000971 -1.2e-05 -0.00188
0.00095 -1.2e-05 -0.001892
0.000929 -1.1e-05 -0.001905
0.000907 -1.1e-05 -0.001917
0.000886 -1e-05 -0.001929
0.000864 -9e-06 -0.001941
0.000842 -9e-06 -0.001952
0.000777 -7e-06 -0.001987
0.000756 -6e-06 -0.001999
0.000733 -5e-06 -0.00201
0.000646 -2e-06 -0.002056
0.000625 -1e-06 -0.002068
0.000602 -0.0 -0.00208
0.001818 0.000678 -0.001622
0.002163 0.000544 -0.001668
0.002214 0.000522 -0.00168
0.001909 0.000493 -0.002201
0.002055 0.000591 -0.001637
0.00211 0.000594 -0.001653
0.002264 0.000528 -0.001692
0.002496 0.000536 -0.001669
0.00188 0.000569 -0.002341
0.00188 0.000487 -0.002341
0.002536 0.000668 -6e-05
0.001861 0.000462 -0.002357
0.002457 0.000513 -0.001701
0.001844 0.000791 -0.001579
0.002311 0.000618 -0.001701
0.001329 -2.2e-05 -0.001615
0.001309 -2.3e-05 -0.001629
0.001289 -2.3e-05 -0.001643
0.001268 -2.4e-05 -0.001657
0.001247 -2.4e-05 -0.00167
0.001227 -2.4e-05 -0.001684
0.001207 -2.5e-05 -0.001698
0.001186 -2.5e-05 -0.001712
0.001165 -2.5e-05 -0.001725
0.001145 -2.6e-05 -0.001738
0.001124 -2.6e-05 -0.001752
0.001772 0.000676 -0.00168
0.001761 0.000672 -0.001704
0.001756 0.000665 -0.001732
0.001759 0.000653 -0.001768
0.00182 0.000594 -0.00189
0.001844 0.000569 -0.001944
0.001858 0.00055 -0.00199
0.001871 0.000531 -0.002035
0.001883 0.000513 -0.002079
0.001893 0.000497 -0.002121
0.001902 0.000481 -0.002162
0.001909 0.000466 -0.002201
0.001915 0.000452 -0.00224
0.00192 0.000439 -0.002278
0.001915 0.000432 -0.002306
0.001899 0.000431 -0.002325
0.00188 0.000433 -0.002341
0.001861 0.000435 -0.002357
0.002557 0.000503 -0.001574
0.002491 0.000592 -0.001406
0.00291 0.000553 -0.000746
0.002552 0.000598 -0.001517
0.00276 0.000698 -0.000852
0.002511 0.000401 -0.00165
0.002497 0.0004 -0.00167
0.002481 0.0004 -0.001689
0.002457 0.000404 -0.001701
0.002423 0.000416 -0.001703
0.002387 0.000428 -0.001703
0.002348 0.000442 -0.001702
0.00231 0.000456 -0.0017
0.002263 0.000475 -0.001692
0.002214 0.000495 -0.001681
0.002162 0.000518 -0.001666
0.00211 0.00054 -0.001653
0.002055 0.000564 -0.001636
0.001997 0.00059 -0.001617
0.001939 0.000616 -0.001598
0.001892 0.000635 -0.00159
0.001862 0.000644 -0.001596
0.001838 0.000648 -0.001607
0.001817 0.000651 -0.001622
0.0018 0.000651 -0.001639
0.001785 0.000651 -0.001659
0.001772 0.000649 -0.00168
0.001761 0.000645 -0.001704
0.001756 0.000638 -0.001732
0.001759 0.000625 -0.001768
0.001844 0.000542 -0.001944
0.001857 0.000523 -0.001989
0.001871 0.000504 -0.002035
0.001883 0.000486 -0.002079
0.001893 0.000469 -0.002121
0.001902 0.000454 -0.002162
0.001909 0.000439 -0.002201
0.001916 0.000424 -0.002241
0.00192 0.000412 -0.002277
0.001915 0.000404 -0.002306
0.001899 0.000404 -0.002325
0.00188 0.000406 -0.002341
0.001861 0.000408 -0.002357
0.002545 0.000504 -0.001596
0.002477 0.000703 -0.00088
0.002532 0.000586 -0.001481
0.002554 0.000613 -0.001573
0.002525 0.000376 -0.001629
0.002511 0.000374 -0.00165
0.002497 0.000373 -0.00167
0.002481 0.000373 -0.001689
0.002457 0.000377 -0.001701
0.002422 0.000389 -0.001703
0.002387 0.000401 -0.001703
0.002349 0.000414 -0.001703
0.00231 0.000428 -0.001701
0.002263 0.000448 -0.001691
0.002213 0.000468 -0.00168
0.002161 0.000491 -0.001666
0.00211 0.000512 -0.001653
0.002054 0.000537 -0.001636
0.001939 0.000589 -0.001599
0.001892 0.000608 -0.00159
0.001862 0.000616 -0.001596
0.001838 0.000621 -0.001607
0.001817 0.000624 -0.001622
0.0018 0.000624 -0.001639
0.001784 0.000624 -0.001658
0.001772 0.000622 -0.00168
0.001761 0.000618 -0.001704
0.001756 0.000611 -0.001732
0.001759 0.000599 -0.001768
0.001822 0.000539 -0.001891
0.001843 0.000515 -0.001943
0.001857 0.000496 -0.001989
0.001871 0.000477 -0.002035
0.001883 0.000459 -0.002078
0.001893 0.000442 -0.002121
0.001901 0.000427 -0.002162
0.001909 0.000412 -0.002202
0.001916 0.000397 -0.002241
0.00192 0.000384 -0.002278
0.001915 0.000377 -0.002306
0.001899 0.000377 -0.002325
0.00188 0.000379 -0.002341
0.00186 0.000381 -0.002357
0.002519 0.000479 -0.001638
0.002579 0.000661 -0.000874
0.002413 0.000675 -0.001287
0.002905 0.000701 0.000103
0.002525 0.000349 -0.001629
0.002511 0.000347 -0.00165
0.002497 0.000346 -0.00167
0.002481 0.000345 -0.001689
0.002457 0.00035 -0.001701
0.002423 0.000361 -0.001703
0.002386 0.000374 -0.001703
0.002349 0.000387 -0.001702
0.00231 0.000401 -0.0017
0.002264 0.00042 -0.001693
0.002213 0.000441 -0.00168
0.002161 0.000463 -0.001666
0.00211 0.000485 -0.001653
0.002054 0.00051 -0.001636
0.001939 0.000562 -0.001598
0.001892 0.00058 -0.00159
0.001862 0.000589 -0.001595
0.001838 0.000594 -0.001607
0.001817 0.000597 -0.001622
0.0018 0.000597 -0.001639
0.001785 0.000597 -0.001658
0.001772 0.000594 -0.00168
0.001762 0.00059 -0.001704
0.001756 0.000583 -0.001733
0.00176 0.000571 -0.001769
0.001821 0.000512 -0.00189
0.001843 0.000488 -0.001943
0.001857 0.000469 -0.001989
0.001872 0.000449 -0.002035
0.001883 0.000432 -0.002078
0.001893 0.000415 -0.002121
0.001902 0.000399 -0.002162
0.001909 0.000384 -0.002202
0.001915 0.00037 -0.00224
0.00192 0.000357 -0.002278
0.001915 0.00035 -0.002306
0.001898 0.00035 -0.002325
0.00188 0.000352 -0.002341
0.00186 0.000353 -0.002357
0.002269 0.000729 -0.000917
0.002675 0.000623 -0.000866
0.002759 0.000617 -0.000852
0.00286 0.000636 -0.000819
0.002525 0.000322 -0.001629
0.002511 0.00032 -0.00165
0.002497 0.000319 -0.00167
0.002481 0.000318 -0.001689
0.002457 0.000323 -0.0017
0.002422 0.000334 -0.001703
0.002386 0.000347 -0.001703
0.002348 0.00036 -0.001702
0.00231 0.000374 -0.001701
0.002264 0.000392 -0.001693
0.002214 0.000414 -0.00168
0.002161 0.000437 -0.001666
0.002109 0.000459 -0.001652
0.002054 0.000483 -0.001636
0.001939 0.000534 -0.001599
0.001893 0.000553 -0.00159
0.001862 0.000562 -0.001596
0.001838 0.000567 -0.001607
0.001817 0.000569 -0.001622
0.0018 0.00057 -0.00164
0.001785 0.000569 -0.001659
0.001772 0.000567 -0.00168
0.001762 0.000563 -0.001704
0.001756 0.000556 -0.001733
0.001758 0.000545 -0.001767
0.001823 0.000484 -0.001892
0.001844 0.00046 -0.001944
0.001857 0.000441 -0.001989
0.001871 0.000422 -0.002035
0.001884 0.000404 -0.002079
0.001894 0.000388 -0.002121
0.001902 0.000372 -0.002162
0.00191 0.000357 -0.002202
0.001915 0.000343 -0.00224
0.00192 0.00033 -0.002278
0.001915 0.000323 -0.002306
0.001898 0.000323 -0.002325
0.002491 0.000564 -0.001406
0.002381 0.000643 -0.001244
0.00272 0.000605 -0.00086
0.00286 0.000582 -0.000819
0.002924 0.000475 -0.000624
0.002523 0.000295 -0.001628
0.00251 0.000293 -0.001649
0.002496 0.000292 -0.00167
0.002481 0.000291 -0.001689
0.002457 0.000296 -0.0017
0.002422 0.000308 -0.001702
0.002385 0.00032 -0.001702
0.002348 0.000333 -0.001702
0.002309 0.000347 -0.0017
0.002263 0.000366 -0.001691
0.002214 0.000386 -0.001681
0.00216 0.00041 -0.001665
0.002109 0.000432 -0.001652
0.002054 0.000456 -0.001636
0.001893 0.000526 -0.001591
0.001862 0.000535 -0.001596
0.001838 0.00054 -0.001607
0.001817 0.000542 -0.001622
0.0018 0.000543 -0.001639
0.001784 0.000542 -0.001658
0.001772 0.00054 -0.00168
0.001762 0.000536 -0.001704
0.001757 0.000529 -0.001733
0.001759 0.000517 -0.001768
0.001843 0.000433 -0.001944
0.001858 0.000414 -0.00199
0.001871 0.000395 -0.002035
0.001883 0.000377 -0.002079
0.001894 0.00036 -0.002121
0.001902 0.000345 -0.002162
0.00191 0.00033 -0.002202
0.001916 0.000316 -0.00224
0.001921 0.000303 -0.002278
0.001914 0.000296 -0.002306
0.001897 0.000296 -0.002324
0.002439 0.000602 -0.001327
0.002421 0.000726 -0.00088
0.002721 0.000632 -0.00086
0.002513 0.000629 -0.001444
0.002546 0.000672 -0.001569
0.002523 0.000268 -0.001628
0.00251 0.000266 -0.001649
0.002496 0.000265 -0.00167
0.00248 0.000264 -0.001689
0.002456 0.000269 -0.0017
0.002422 0.00028 -0.001702
0.002386 0.000293 -0.001703
0.002348 0.000306 -0.001702
0.002309 0.00032 -0.0017
0.002263 0.000338 -0.001692
0.002214 0.000359 -0.001681
0.00216 0.000383 -0.001665
0.002108 0.000405 -0.001651
0.002054 0.000429 -0.001636
0.001939 0.00048 -0.001599
0.001893 0.000498 -0.001591
0.001862 0.000507 -0.001596
0.001838 0.000513 -0.001607
0.001817 0.000515 -0.001622
0.0018 0.000516 -0.001639
0.001784 0.000515 -0.001658
0.001772 0.000513 -0.00168
0.001762 0.000509 -0.001704
0.001756 0.000502 -0.001733
0.00176 0.000489 -0.001769
0.001786 0.000462 -0.001826
0.001822 0.00043 -0.001891
0.001843 0.000406 -0.001943
0.001858 0.000387 -0.00199
0.001871 0.000368 -0.002035
0.001883 0.00035 -0.002079
0.001894 0.000333 -0.002122
0.001903 0.000317 -0.002163
0.00191 0.000302 -0.002202
0.001916 0.000289 -0.00224
0.00192 0.000276 -0.002277
0.001914 0.000269 -0.002306
0.001897 0.000269 -0.002324
0.002563 0.00045 -0.00155
0.002553 0.000461 -0.001518
0.002382 0.000697 -0.001244
0.002676 0.000608 -8e-06
0.002676 0.000731 -0.000866
0.002534 0.000694 -0.001481
0.002524 0.000241 -0.001628
0.00251 0.000239 -0.001649
0.002496 0.000237 -0.00167
0.00248 0.000237 -0.001688
0.002456 0.000242 -0.0017
0.002422 0.000253 -0.001702
0.002385 0.000266 -0.001702
0.002349 0.000278 -0.001702
0.002309 0.000293 -0.0017
0.002263 0.000312 -0.001692
0.002213 0.000332 -0.00168
0.00216 0.000356 -0.001665
0.002108 0.000378 -0.001652
0.002053 0.000402 -0.001635
0.001997 0.000427 -0.001617
0.001939 0.000453 -0.001599
0.001893 0.000471 -0.001591
0.001862 0.00048 -0.001596
0.001838 0.000485 -0.001607
0.001817 0.000488 -0.001622
0.0018 0.000488 -0.001639
0.001784 0.000488 -0.001659
0.001772 0.000486 -0.00168
0.001762 0.000482 -0.001704
0.001756 0.000475 -0.001733
0.00176 0.000462 -0.001769
0.001785 0.000436 -0.001825
0.001821 0.000403 -0.00189
0.001843 0.000379 -0.001943
0.001857 0.00036 -0.001989
0.001871 0.000341 -0.002035
0.001884 0.000323 -0.002079
0.001893 0.000306 -0.002121
0.001903 0.00029 -0.002163
0.00191 0.000275 -0.002202
0.001916 0.000262 -0.00224
0.001921 0.000248 -0.002278
0.001914 0.000242 -0.002306
0.001898 0.000242 -0.002324
0.001879 0.000243 -0.002341
0.002633 0.000735 -2.6e-05
0.002466 0.000637 -0.001367
0.002794 0.000605 -0.000842
0.002466 0.000691 -0.001367
0.002513 0.00071 -0.001444
0.002524 0.000213 -0.001629
0.00251 0.000212 -0.001649
0.002496 0.00021 -0.00167
0.002479 0.000211 -0.001688
0.002456 0.000215 -0.0017
0.002422 0.000226 -0.001703
0.002385 0.000239 -0.001703
0.002348 0.000251 -0.001702
0.002309 0.000266 -0.0017
0.002263 0.000284 -0.001692
0.002213 0.000306 -0.001679
0.00216 0.000328 -0.001666
0.002108 0.000351 -0.001651
0.002054 0.000374 -0.001636
0.001996 0.0004 -0.001617
0.001938 0.000426 -0.001598
0.001893 0.000444 -0.001591
0.001863 0.000453 -0.001596
0.001838 0.000458 -0.001607
0.001817 0.000461 -0.001622
0.0018 0.000461 -0.001639
0.001784 0.000461 -0.001659
0.001772 0.000459 -0.00168
0.001762 0.000454 -0.001704
0.001756 0.000447 -0.001733
0.00176 0.000435 -0.001769
0.001822 0.000375 -0.001892
0.001843 0.000352 -0.001943
0.001858 0.000332 -0.00199
0.001871 0.000314 -0.002035
0.001883 0.000296 -0.002079
0.001894 0.000278 -0.002122
0.001903 0.000263 -0.002163
0.00191 0.000248 -0.002203
0.001916 0.000234 -0.002241
0.001921 0.00022 -0.002279
0.001914 0.000215 -0.002305
0.001898 0.000215 -0.002324
0.001879 0.000216 -0.00234
0.001859 0.000218 -0.002356
0.002439 0.000575 -0.001327
0.002628 0.000641 -0.000871
0.002491 0.000619 -0.001406
0.002441 0.000683 -0.001327
0.002905 0.000647 0.000104
0.002524 0.000186 -0.001628
0.00251 0.000185 -0.001649
0.002495 0.000183 -0.001669
0.002479 0.000184 -0.001687
0.002455 0.000188 -0.001699
0.002422 0.000199 -0.001703
0.002385 0.000212 -0.001703
0.002349 0.000224 -0.001703
0.002308 0.000239 -0.0017
0.002262 0.000258 -0.001691
0.002213 0.000278 -0.00168
0.00216 0.000301 -0.001666
0.002107 0.000324 -0.001651
0.002053 0.000347 -0.001636
0.001996 0.000373 -0.001617
0.001937 0.000399 -0.001597
0.001893 0.000417 -0.001591
0.001863 0.000426 -0.001596
0.001838 0.000431 -0.001607
0.001818 0.000433 -0.001622
0.0018 0.000434 -0.00164
0.001784 0.000433 -0.001659
0.001772 0.000431 -0.00168
0.001762 0.000427 -0.001704
0.001757 0.00042 -0.001733
0.001759 0.000408 -0.001769
0.001822 0.000348 -0.001891
0.001843 0.000325 -0.001943
0.001858 0.000305 -0.00199
0.001871 0.000287 -0.002035
0.001884 0.000268 -0.00208
0.001895 0.000251 -0.002123
0.001903 0.000236 -0.002163
0.00191 0.000221 -0.002203
0.001916 0.000207 -0.002241
0.001921 0.000193 -0.002279
0.001913 0.000188 -0.002305
0.001897 0.000188 -0.002324
0.001878 0.000189 -0.00234
0.001859 0.000191 -0.002356
0.002222 0.000725 -0.001031
0.002382 0.000669 -0.001244
0.002551 0.000571 -0.001517
0.002721 0.000659 -0.000861
0.002552 0.000674 -0.001545
0.002509 0.000158 -0.001648
0.002494 0.000157 -0.001668
0.002477 0.000158 -0.001685
0.002454 0.000162 -0.001698
0.002422 0.000172 -0.001702
0.002385 0.000185 -0.001702
0.002348 0.000197 -0.001703
0.002309 0.000212 -0.0017
0.002263 0.00023 -0.001692
0.002214 0.000251 -0.00168
0.002161 0.000274 -0.001666
0.002108 0.000296 -0.001652
0.002053 0.00032 -0.001635
0.001938 0.000372 -0.001598
0.001893 0.00039 -0.001591
0.001862 0.000399 -0.001596
0.001838 0.000404 -0.001607
0.001818 0.000406 -0.001622
0.0018 0.000407 -0.00164
0.001784 0.000406 -0.001659
0.001772 0.000404 -0.001681
0.001762 0.0004 -0.001705
0.001757 0.000393 -0.001733
0.00176 0.00038 -0.00177
0.001821 0.000321 -0.001891
0.001842 0.000298 -0.001943
0.001858 0.000278 -0.00199
0.001872 0.000259 -0.002036
0.001886 0.00024 -0.002081
0.001894 0.000224 -0.002122
0.001902 0.000209 -0.002163
0.00191 0.000194 -0.002202
0.001915 0.00018 -0.002241
0.00192 0.000167 -0.002278
0.001911 0.000162 -0.002303
0.001896 0.000161 -0.002322
0.001878 0.000162 -0.00234
0.001859 0.000164 -0.002355
0.002794 0.000523 -0.000842
0.002413 0.000648 -0.001287
0.002562 0.00056 -0.00155
0.002629 0.000695 -0.000871
0.002455 0.000685 -0.001689
0.002507 0.000132 -0.001646
0.002491 0.000132 -0.001665
0.002474 0.000132 -0.001683
0.002453 0.000135 -0.001697
0.002421 0.000145 -0.001702
0.002385 0.000157 -0.001702
0.002348 0.00017 -0.001702
0.002309 0.000184 -0.001701
0.002263 0.000203 -0.001691
0.002212 0.000224 -0.001679
0.00216 0.000246 -0.001666
0.002108 0.000269 -0.001651
0.002053 0.000293 -0.001635
0.001995 0.000319 -0.001616
0.001938 0.000345 -0.001598
0.001893 0.000363 -0.00159
0.001862 0.000372 -0.001596
0.001838 0.000376 -0.001607
0.001818 0.000379 -0.001622
0.0018 0.00038 -0.00164
0.001784 0.000379 -0.001659
0.001772 0.000377 -0.001681
0.001762 0.000373 -0.001704
0.001757 0.000365 -0.001733
0.001761 0.000353 -0.00177
0.001822 0.000294 -0.001891
0.001843 0.00027 -0.001944
0.001859 0.00025 -0.001991
0.001873 0.000231 -0.002037
0.001886 0.000213 -0.002081
0.001894 0.000197 -0.002122
0.001902 0.000182 -0.002162
0.00191 0.000167 -0.002202
0.001915 0.000153 -0.002241
0.001918 0.000141 -0.002276
0.001908 0.000136 -0.002301
0.001893 0.000136 -0.00232
0.001876 0.000136 -0.002338
0.001857 0.000138 -0.002354
0.00276 0.000535 -0.000852
0.00244 0.000629 -0.001327
0.002513 0.000602 -0.001444
0.002533 0.000613 -0.001481
0.00249 0.0007 -0.001406
0.002516 0.000109 -0.001622
0.002502 0.000108 -0.001642
0.002487 0.000107 -0.001661
0.00247 0.000108 -0.001679
0.00245 0.00011 -0.001694
0.002421 0.000118 -0.001701
0.002385 0.00013 -0.001702
0.002348 0.000143 -0.001702
0.002309 0.000157 -0.0017
0.002262 0.000176 -0.001691
0.002212 0.000198 -0.001679
0.002108 0.000242 -0.001651
0.002054 0.000265 -0.001636
0.001995 0.000292 -0.001616
0.001937 0.000318 -0.001597
0.001892 0.000336 -0.00159
0.001862 0.000345 -0.001596
0.001838 0.000349 -0.001607
0.001817 0.000352 -0.001622
0.0018 0.000352 -0.00164
0.001784 0.000352 -0.001659
0.001772 0.00035 -0.00168
0.001762 0.000346 -0.001705
0.001757 0.000338 -0.001733
0.001761 0.000325 -0.00177
0.001823 0.000266 -0.001892
0.001844 0.000242 -0.001944
0.001861 0.000222 -0.001993
0.001873 0.000204 -0.002036
0.001885 0.000186 -0.00208
0.001894 0.00017 -0.002122
0.001902 0.000155 -0.002162
0.00191 0.000139 -0.002202
0.001915 0.000126 -0.002241
0.001916 0.000115 -0.002274
0.001904 0.000112 -0.002297
0.001889 0.000111 -0.002316
0.001872 0.000112 -0.002334
0.001853 0.000113 -0.002351
0.002911 0.000608 -0.000746
0.002545 0.000476 -0.001596
0.002579 0.000688 -0.000874
0.002709 0.000642 -0.000438
0.002513 0.000683 -0.001444
0.002668 0.000745 -0.000406
0.00251 8.6e-05 -0.001616
0.002495 8.5e-05 -0.001636
0.00248 8.4e-05 -0.001655
0.002463 8.5e-05 -0.001673
0.002444 8.6e-05 -0.001689
0.002419 9.2e-05 -0.0017
0.002385 0.000103 -0.001702
0.002347 0.000116 -0.001702
0.00231 0.00013 -0.001701
0.002262 0.000149 -0.001691
0.002213 0.000169 -0.00168
0.002106 0.000216 -0.00165
0.002054 0.000238 -0.001637
0.001996 0.000264 -0.001617
0.001937 0.000291 -0.001597
0.001892 0.000309 -0.00159
0.001862 0.000317 -0.001596
0.001838 0.000322 -0.001607
0.001817 0.000325 -0.001622
0.0018 0.000325 -0.00164
0.001785 0.000325 -0.001659
0.001772 0.000323 -0.00168
0.001762 0.000318 -0.001704
0.001757 0.000311 -0.001733
0.00176 0.000299 -0.001769
0.001787 0.000272 -0.001827
0.001823 0.000239 -0.001893
0.001845 0.000215 -0.001945
0.001859 0.000195 -0.001991
0.001872 0.000177 -0.002036
0.001883 0.00016 -0.002079
0.001894 0.000143 -0.002122
0.001901 0.000128 -0.002162
0.00191 0.000112 -0.002202
0.001914 9.9e-05 -0.00224
0.001911 9.1e-05 -0.00227
0.001898 8.9e-05 -0.002291
0.001883 8.8e-05 -0.002311
0.001865 8.9e-05 -0.002328
0.002224 0.000719 -0.001059
0.002628 0.000668 -0.000871
0.002513 0.000656 -0.001444
0.002877 0.000713 8.3e-05
0.00272 0.000714 -0.00086
0.002549 0.000681 -0.001516
0.002486 6.4e-05 -0.001628
0.002471 6.3e-05 -0.001647
0.002454 6.3e-05 -0.001665
0.002436 6.4e-05 -0.001682
0.002414 6.8e-05 -0.001695
0.002384 7.6e-05 -0.001701
0.002347 8.9e-05 -0.001702
0.002309 0.000103 -0.0017
0.002262 0.000122 -0.001691
0.002212 0.000143 -0.001679
0.002161 0.000165 -0.001666
0.002106 0.000189 -0.00165
0.002053 0.000212 -0.001636
0.001995 0.000238 -0.001616
0.001937 0.000264 -0.001597
0.001892 0.000281 -0.00159
0.001862 0.00029 -0.001596
0.001837 0.000295 -0.001607
0.001817 0.000298 -0.001622
0.0018 0.000298 -0.00164
0.001784 0.000298 -0.001659
0.001772 0.000295 -0.00168
0.001762 0.000291 -0.001705
0.001757 0.000284 -0.001734
0.001759 0.000272 -0.001769
0.001787 0.000244 -0.001827
0.001824 0.000211 -0.001893
0.001846 0.000187 -0.001946
0.001859 0.000168 -0.001991
0.001873 0.000149 -0.002037
0.001883 0.000133 -0.002079
0.001894 0.000116 -0.002122
0.001902 0.0001 -0.002162
0.001909 8.6e-05 -0.002202
0.001912 7.3e-05 -0.002238
0.001904 6.8e-05 -0.002263
0.00189 6.6e-05 -0.002284
0.001874 6.6e-05 -0.002303
0.002531 0.000505 -0.001617
0.002555 0.000585 -0.001574
0.002533 0.00064 -0.001481
0.002676 0.000677 -0.000866
0.002552 0.000625 -0.001517
0.002541 0.000641 -0.001594
0.002467 0.000718 -0.001367
0.002441 0.000737 -0.001327
0.002536 0.000589 0.000863
0.002425 4.4e-05 -0.001672
0.002405 4.6e-05 -0.001687
0.002379 5.2e-05 -0.001698
0.002346 6.3e-05 -0.001701
0.002309 7.6e-05 -0.0017
0.002262 9.5e-05 -0.001691
0.002212 0.000116 -0.001679
0.00216 0.000138 -0.001666
0.002106 0.000162 -0.00165
0.002053 0.000184 -0.001636
0.001995 0.00021 -0.001617
0.001936 0.000237 -0.001596
0.001893 0.000254 -0.001591
0.001862 0.000263 -0.001596
0.001838 0.000268 -0.001607
0.001817 0.00027 -0.001622
0.0018 0.000271 -0.00164
0.001784 0.00027 -0.001659
0.001772 0.000268 -0.00168
0.001762 0.000264 -0.001705
0.001757 0.000257 -0.001734
0.00176 0.000245 -0.001769
0.001846 0.00016 -0.001946
0.00186 0.00014 -0.001992
0.001872 0.000123 -0.002036
0.001884 0.000105 -0.00208
0.001894 8.8e-05 -0.002122
0.001902 7.3e-05 -0.002162
0.001906 6e-05 -0.002199
0.001904 5.1e-05 -0.002231
0.001894 4.7e-05 -0.002254
0.002466 0.000582 -0.001367
0.002544 0.000586 -0.001596
0.002927 0.000442 -0.000674
0.002953 0.000709 0.000146
0.00271 0.000723 -0.000438
0.00253 0.000614 -0.001617
0.002795 0.000652 -0.000503
0.002982 0.000412 0.000346
0.002412 0.000703 -0.001286
0.00241 2.6e-05 -0.001659
0.002391 2.8e-05 -0.001675
0.002369 3.1e-05 -0.001688
0.002341 3.8e-05 -0.001696
0.002306 5e-05 -0.001698
0.002262 6.7e-05 -0.001691
0.002212 8.9e-05 -0.001679
0.00216 0.000111 -0.001665
0.002106 0.000134 -0.00165
0.002054 0.000157 -0.001636
0.001994 0.000184 -0.001616
0.001936 0.00021 -0.001597
0.001892 0.000227 -0.00159
0.001862 0.000236 -0.001596
0.001838 0.000241 -0.001607
0.001817 0.000243 -0.001622
0.0018 0.000244 -0.00164
0.001784 0.000243 -0.001659
0.001772 0.000241 -0.00168
0.001762 0.000237 -0.001705
0.001757 0.000229 -0.001734
0.001761 0.000217 -0.00177
0.001786 0.000191 -0.001826
0.001846 0.000133 -0.001946
0.00186 0.000113 -0.001992
0.001872 9.5e-05 -0.002037
0.001883 7.8e-05 -0.002079
0.001894 6.1e-05 -0.002122
0.0019 4.7e-05 -0.00216
0.0019 3.7e-05 -0.002194
0.001892 3.1e-05 -0.00222
0.00188 2.9e-05 -0.002242
0.002578 0.000634 -0.000874
0.002828 0.000539 -0.000831
0.002675 0.000596 -0.000866
0.002628 0.000614 -0.000871
0.002544 0.000558 -0.001596
0.002866 0.000669 -0.000564
0.002517 0.000588 -0.001638
0.002632 0.000654 -2.6e-05
0.002563 0.000532 -0.00155
0.002541 0.000706 -0.00154
0.002372 1.3e-05 -0.001657
0.002351 1.5e-05 -0.001672
0.002327 2e-05 -0.001684
0.002298 2.8e-05 -0.001691
0.002261 4.1e-05 -0.00169
0.00221 6.2e-05 -0.001678
0.00216 8.4e-05 -0.001665
0.002106 0.000107 -0.00165
0.002052 0.000131 -0.001634
0.001994 0.000157 -0.001616
0.001936 0.000183 -0.001597
0.001892 0.0002 -0.00159
0.001862 0.000209 -0.001596
0.001838 0.000214 -0.001607
0.001817 0.000216 -0.001622
0.0018 0.000217 -0.00164
0.001784 0.000216 -0.001659
0.001772 0.000214 -0.001681
0.001762 0.00021 -0.001705
0.001757 0.000202 -0.001734
0.001761 0.00019 -0.00177
0.001787 0.000163 -0.001827
0.001823 0.00013 -0.001892
0.001845 0.000106 -0.001946
0.00186 8.6e-05 -0.001992
0.001873 6.8e-05 -0.002037
0.001882 5.2e-05 -0.002078
0.001891 3.6e-05 -0.00212
0.001891 2.5e-05 -0.002153
0.001885 1.9e-05 -0.00218
0.001874 1.6e-05 -0.002204
0.002584 0.000702 -4.3e-05
0.00249 1.5e-05 -0.001432
0.002481 1e-05 -0.001457
0.002224 0.000692 -0.001059
0.00286 0.000609 -0.000819
0.002921 0.000664 -0.000648
0.002828 0.00062 -0.000831
0.002916 0.000634 -0.000722
0.002988 0.000574 0.000322
0.002337 8e-06 -0.001626
0.002319 8e-06 -0.001643
0.0023 1e-05 -0.001659
0.002279 1.4e-05 -0.001673
0.00225 2.1e-05 -0.00168
0.002208 3.6e-05 -0.001676
0.00216 5.7e-05 -0.001665
0.002105 8.1e-05 -0.001649
0.002051 0.000104 -0.001633
0.001935 0.000156 -0.001596
0.001892 0.000173 -0.00159
0.001862 0.000182 -0.001596
0.001838 0.000186 -0.001607
0.001817 0.000189 -0.001622
0.0018 0.000189 -0.00164
0.001785 0.000189 -0.001659
0.001772 0.000186 -0.001681
0.001762 0.000182 -0.001705
0.001757 0.000175 -0.001734
0.00176 0.000163 -0.001769
0.001824 0.000102 -0.001893
0.001845 7.8e-05 -0.001946
0.00186 5.9e-05 -0.001992
0.00187 4.2e-05 -0.002034
0.001878 2.7e-05 -0.002075
0.001878 1.7e-05 -0.002108
0.001871 1.1e-05 -0.002135
0.001854 1.1e-05 -0.002152
0.001759 1e-05 -0.002266
0.002532 0.000477 -0.001617
0.002457 8e-06 -0.001403
0.002439 9e-06 -0.001419
0.002422 1e-05 -0.001437
0.002553 0.000489 -0.001518
0.002794 0.000632 -0.000841
0.00272 0.000686 -0.00086
0.00276 0.000671 -0.000852
0.002527 0.00071 -0.000877
0.002563 0.000478 -0.00155
0.002557 0.000475 -0.001575
0.002272 1.1e-05 -0.001601
0.002257 1e-05 -0.00162
0.002466 0.000555 -0.001367
0.002197 1.6e-05 -0.001666
0.002159 3e-05 -0.001665
0.000533 -2.9e-05 0.002014
0.001933 0.00013 -0.001594
0.001892 0.000146 -0.00159
0.001862 0.000154 -0.001596
0.001838 0.000159 -0.001607
0.001817 0.000162 -0.001622
0.0018 0.000162 -0.00164
0.001784 0.000162 -0.001659
0.001772 0.000159 -0.001681
0.001762 0.000155 -0.001705
0.001757 0.000148 -0.001734
0.001761 0.000135 -0.00177
0.001845 5.1e-05 -0.001946
0.001859 3.3e-05 -0.001991
0.001864 1.9e-05 -0.002029
0.001858 1.2e-05 -0.002056
0.001732 9e-06 -0.002208
0.001715 9e-06 -0.002227
0.001699 9e-06 -0.002245
0.002828 0.000484 -0.000831
0.002491 0.000537 -0.001406
0.002412 9e-06 -0.001362
0.002395 1e-05 -0.00138
0.00238 9e-06 -0.001399
0.002527 0.000628 -0.000877
0.002628 0.000723 -0.000871
0.002794 0.000659 -0.000841
0.002676 0.000704 -0.000866
0.002476 0.000731 -0.000879
0.00286 0.000501 -0.000819
0.002341 0.000642 -0.001197
0.002252 6e-06 -0.001549
0.002235 6e-06 -0.001568
0.00222 6e-06 -0.001587
0.002204 5e-06 -0.001606
0.002188 4e-06 -0.001625
0.002171 6e-06 -0.001642
0.002144 1.2e-05 -0.001651
0.00051 -2.8e-05 0.002021
0.000486 -2.8e-05 0.002027
0.001934 0.000102 -0.001595
0.001891 0.000119 -0.001589
0.001861 0.000128 -0.001596
0.001837 0.000132 -0.001607
0.001817 0.000135 -0.001622
0.001799 0.000135 -0.001639
0.001784 0.000135 -0.001659
0.001772 0.000132 -0.00168
0.001761 0.000128 -0.001705
0.001757 0.000121 -0.001734
0.00176 0.000109 -0.001769
0.001841 6e-06 -0.002009
0.001825 6e-06 -0.002027
0.001722 8e-06 -0.002133
0.001705 9e-06 -0.002151
0.001688 9e-06 -0.002169
0.00167 1e-05 -0.002186
0.001653 1e-05 -0.002204
0.002905 0.000665 -0.000745
0.002543 0.000613 -0.001595
0.002376 4e-06 -0.00133
0.002361 3e-06 -0.001349
0.002532 0.00045 -0.001617
0.002477 0.000648 -0.00088
0.002579 0.000607 -0.000874
0.002627 0.000587 -0.00087
0.002721 0.00055 -0.000861
0.002865 0.000677 -0.000813
0.002533 0.000532 -0.001481
0.002794 0.000714 -0.000841
0.002214 3e-06 -0.001516
0.002199 2e-06 -0.001535
0.002182 2e-06 -0.001553
0.002165 2e-06 -0.001571
0.002149 3e-06 -0.001589
0.002131 4e-06 -0.001606
0.002113 4e-06 -0.001623
0.002089 9e-06 -0.001635
0.000462 -2.8e-05 0.002034
0.00189 9.3e-05 -0.001588
0.001861 0.0001 -0.001595
0.001837 0.000105 -0.001607
0.001817 0.000108 -0.001622
0.001799 0.000108 -0.001639
0.001784 0.000108 -0.001658
0.001771 0.000105 -0.00168
0.001762 0.000101 -0.001705
0.001756 9.4e-05 -0.001733
0.001759 8.2e-05 -0.001769
0.001804 2e-06 -0.001975
0.001789 2e-06 -0.001994
0.001772 2e-06 -0.002012
0.001754 3e-06 -0.002029
0.001736 3e-06 -0.002047
0.00172 3e-06 -0.002065
0.001706 3e-06 -0.002085
0.001688 3e-06 -0.002103
0.001673 2e-06 -0.002122
0.001656 2e-06 -0.00214
0.001638 3e-06 -0.002157
0.00162 5e-06 -0.002174
0.001604 4e-06 -0.002192
0.001585 5e-06 -0.002209
0.002859 0.000474 -0.000819
0.002959 0.000625 0.000143
0.002334 3e-06 -0.001292
0.002317 4e-06 -0.00131
0.002773 0.000694 0.000445
0.002267 4e-06 -0.001364
0.002518 0.000506 -0.001638
0.002828 0.000511 -0.000831
0.002552 0.000516 -0.001518
0.002513 0.000547 -0.001444
0.002172 2e-06 -0.001478
0.00215 5e-06 -0.001491
0.002134 6e-06 -0.001509
0.002116 6e-06 -0.001527
0.0021 6e-06 -0.001546
0.002083 6e-06 -0.001563
0.002065 7e-06 -0.00158
0.002048 7e-06 -0.001598
0.002029 9e-06 -0.001614
0.001349 -2.2e-05 -0.001599
0.001861 7.4e-05 -0.001595
0.001836 7.8e-05 -0.001606
0.001816 8.1e-05 -0.001621
0.001799 8.1e-05 -0.001639
0.001784 8.1e-05 -0.001658
0.001771 7.8e-05 -0.00168
0.001761 7.4e-05 -0.001705
0.001756 6.7e-05 -0.001733
0.001759 5.5e-05 -0.001769
0.001801 7e-06 -0.001873
0.001789 5e-06 -0.001895
0.001773 5e-06 -0.001914
0.001756 5e-06 -0.001932
0.001738 6e-06 -0.001949
0.001723 5e-06 -0.001968
0.001706 6e-06 -0.001986
0.00169 5e-06 -0.002005
0.001674 5e-06 -0.002024
0.001659 4e-06 -0.002043
0.001644 3e-06 -0.002063
0.001627 3e-06 -0.002081
0.001612 3e-06 -0.0021
0.001593 4e-06 -0.002117
0.001577 4e-06 -0.002136
0.001562 3e-06 -0.002155
0.001546 3e-06 -0.002174
0.001366 -2.3e-05 -0.001581
0.002844 0.000563 6.4e-05
0.002286 6e-06 -0.001249
0.002268 7e-06 -0.001266
0.002251 8e-06 -0.001284
0.002235 7e-06 -0.001303
0.00222 7e-06 -0.001322
0.002201 8e-06 -0.001338
0.002185 8e-06 -0.001357
0.002102 9e-06 -0.001448
0.002085 9e-06 -0.001465
0.001384 -2.3e-05 -0.001564
0.002019 9e-06 -0.001539
0.002002 9e-06 -0.001557
0.001989 7e-06 -0.001578
0.001402 -2.4e-05 -0.001547
0.001938 1.9e-05 -0.001598
0.001891 3.7e-05 -0.00159
0.00186 4.7e-05 -0.001594
0.001836 5.1e-05 -0.001606
0.001816 5.4e-05 -0.001621
0.001799 5.4e-05 -0.001639
0.001783 5.4e-05 -0.001658
0.001771 5.1e-05 -0.00168
0.00176 4.7e-05 -0.001704
0.001755 4e-05 -0.001732
0.00176 2.7e-05 -0.001769
0.001761 6e-06 -0.001836
0.001737 1e-05 -0.001849
0.001722 9e-06 -0.001868
0.001707 8e-06 -0.001888
0.001692 8e-06 -0.001907
0.001676 8e-06 -0.001926
0.001658 8e-06 -0.001943
0.001641 9e-06 -0.001961
0.001626 8e-06 -0.001981
0.001609 8e-06 -0.001998
0.001593 8e-06 -0.002017
0.001579 6e-06 -0.002038
0.001563 6e-06 -0.002056
0.001544 8e-06 -0.002073
0.001528 7e-06 -0.002092
0.001515 6e-06 -0.002112
0.002273 8e-06 -0.001171
0.002253 1e-05 -0.001186
0.002236 1e-05 -0.001204
0.002222 9e-06 -0.001224
0.002185 1.2e-05 -0.001257
0.00217 1e-05 -0.001277
0.002155 1e-05 -0.001297
0.002139 1e-05 -0.001315
0.002123 1e-05 -0.001334
0.002107 9e-06 -0.001353
0.002091 9e-06 -0.001372
0.002074 9e-06 -0.001389
0.002272 0.000754 -0.000918
0.002292 0.000749 -0.0009
0.002877 0.000549 8.3e-05
0.002009 8e-06 -0.001464
0.001994 8e-06 -0.001483
0.001978 7e-06 -0.001502
0.001962 7e-06 -0.001521
0.001946 7e-06 -0.001539
0.001914 6e-06 -0.001577
0.001888 1.2e-05 -0.001587
0.00186 1.9e-05 -0.001595
0.001836 2.4e-05 -0.001606
0.001816 2.7e-05 -0.001621
0.001798 2.7e-05 -0.001639
0.001783 2.6e-05 -0.001658
0.00177 2.4e-05 -0.00168
0.00176 2e-05 -0.001703
0.001755 1.3e-05 -0.001732
0.001751 5e-06 -0.001762
0.001736 4e-06 -0.001782
0.001716 7e-06 -0.001796
0.001698 8e-06 -0.001813
0.001681 8e-06 -0.001831
0.001664 9e-06 -0.001849
0.001646 9e-06 -0.001866
0.001596 9e-06 -0.001921
0.001581 9e-06 -0.00194
0.001564 1e-05 -0.001958
0.001546 1e-05 -0.001975
0.00153 1e-05 -0.001994
0.001498 9e-06 -0.002031
0.001483 9e-06 -0.00205
0.002232 7e-06 -0.001134
0.002213 8e-06 -0.00115
0.002197 8e-06 -0.001168
0.002181 8e-06 -0.001187
0.002165 7e-06 -0.001206
0.00215 6e-06 -0.001225
0.002136 5e-06 -0.001246
0.00212 4e-06 -0.001266
0.002105 3e-06 -0.001285
0.00209 3e-06 -0.001304
0.002074 2e-06 -0.001324
0.002059 1e-06 -0.001343
0.002043 1e-06 -0.001362
0.002826 0.000702 -0.000829
0.002365 0.000723 -0.000881
0.002928 0.000496 -0.000674
0.001981 -1e-06 -0.001439
0.001966 -2e-06 -0.001458
0.00195 -2e-06 -0.001477
0.001934 -2e-06 -0.001495
0.002464 0.000713 -0.001667
0.002442 0.000719 -0.001683
0.00237 0.000763 0.000595
0.001869 -2e-06 -0.00157
0.00185 -0.0 -0.001586
0.001832 -0.0 -0.001603
0.001813 1e-06 -0.001619
0.001797 1e-06 -0.001637
0.001781 1e-06 -0.001656
0.001766 -0.0 -0.001676
0.001752 -2e-06 -0.001696
0.001738 -3e-06 -0.001717
0.001722 -4e-06 -0.001736
0.001705 -3e-06 -0.001753
0.001687 -2e-06 -0.00177
0.001637 -0.0 -0.001825
0.001619 -1e-06 -0.001842
0.001601 -0.0 -0.001859
0.001584 1e-06 -0.001876
0.001566 2e-06 -0.001893
0.001549 2e-06 -0.001911
0.001531 3e-06 -0.001928
0.001513 4e-06 -0.001945
0.001497 4e-06 -0.001964
0.001479 4e-06 -0.001981
0.002531 0.000533 -0.001617
0.002182 0.0 -0.001122
0.002167 -1e-06 -0.001142
0.002153 -2e-06 -0.001162
0.002138 -3e-06 -0.001182
0.002122 -3e-06 -0.001201
0.002106 -3e-06 -0.001219
0.00209 -3e-06 -0.001238
0.002072 -3e-06 -0.001256
0.002056 -3e-06 -0.001274
0.00204 -3e-06 -0.001292
0.002007 -3e-06 -0.001329
0.00199 -3e-06 -0.001347
0.00224 0.000705 -0.000957
0.001938 -1e-06 -0.0014
0.001923 -2e-06 -0.001419
0.002527 0.000601 -0.000877
0.002477 0.000622 -0.00088
0.002959 0.00068 0.000143
0.001859 -3e-06 -0.001494
0.001841 -3e-06 -0.001512
0.001809 -2e-06 -0.001548
0.001792 -3e-06 -0.001567
0.001775 -2e-06 -0.001585
0.00176 -3e-06 -0.001604
0.001744 -3e-06 -0.001623
0.001732 -6e-06 -0.001645
0.001715 -6e-06 -0.001663
0.001697 -5e-06 -0.00168
0.001677 -3e-06 -0.001695
0.001661 -3e-06 -0.001714
0.001548 -4e-06 -0.001844
0.001535 -6e-06 -0.001865
0.001515 -4e-06 -0.001881
0.001499 -4e-06 -0.001899
0.001481 -3e-06 -0.001916
0.001465 -4e-06 -0.001936
0.001448 -4e-06 -0.001953
0.00296 0.000653 0.000143
0.002428 0.00075 -0.000883
0.002127 -3e-06 -0.001106
0.002552 0.000652 -0.001517
0.002421 0.000699 -0.00088
0.002076 -2e-06 -0.001159
0.00206 -2e-06 -0.001178
0.002043 -1e-06 -0.001196
0.002026 -1e-06 -0.001213
0.002009 -1e-06 -0.001232
0.002225 0.000729 -0.001005
0.002439 0.000706 -0.000144
0.002236 0.000764 -0.000984
0.002224 0.000752 -0.001032
0.002754 0.000619 -0.000471
0.002544 0.000531 -0.001596
0.002556 0.00053 -0.001574
0.00242 0.000646 -0.00088
0.002917 0.000525 -0.000723
0.002557 0.000448 -0.001575
0.001791 2e-06 -0.001466
0.00271 0.000532 -0.000439
0.001757 3e-06 -0.001502
0.001723 3e-06 -0.001538
0.001707 3e-06 -0.001557
0.001692 2e-06 -0.001576
0.001419 -2.5e-05 -0.001529
0.001436 -2.5e-05 -0.001511
0.001482 0.0 -0.001817
0.001471 -4e-06 -0.001841
0.001459 -6e-06 -0.001863
0.001439 -4e-06 -0.001879
0.001419 -2e-06 -0.001894
0.001403 -2e-06 -0.001912
0.002278 0.000653 -0.00114
0.00232 0.000741 -0.000886
0.002721 0.000577 -0.000861
0.002794 0.00055 -0.000842
0.002759 0.000563 -0.000852
0.002009 3e-06 -0.001132
0.001992 3e-06 -0.00115
0.001976 3e-06 -0.001169
0.002531 0.000723 -0.00148
0.002381 0.000616 -0.001244
0.002231 0.000732 -0.00098
0.002996 0.000493 0.000248
0.002227 0.000756 -0.001005
0.002759 0.00059 -0.000852
0.002795 0.000577 -0.000842
0.002545 0.000449 -0.001596
0.002533 0.000477 -0.001481
0.002513 0.000493 -0.001444
0.001743 5e-06 -0.001423
0.001727 4e-06 -0.001442
0.00166 5e-06 -0.001514
0.001593 6e-06 -0.001586
0.001578 6e-06 -0.001606
0.001446 5e-06 -0.001753
0.001431 5e-06 -0.001772
0.001416 4e-06 -0.001791
0.001319 3e-06 -0.001903
0.001305 1e-06 -0.001923
0.002222 0.000698 -0.001031
0.002225 0.000702 -0.001005
0.002318 0.000687 -0.000886
0.002675 0.000541 -0.000866
0.002722 0.000523 -0.000861
0.001945 6e-06 -0.001108
0.001928 6e-06 -0.001126
0.001912 5e-06 -0.001145
0.001896 5e-06 -0.001163
0.00188 5e-06 -0.001182
0.002528 0.000655 -0.000877
0.002477 0.000676 -0.00088
0.002823 0.000699 0.000426
0.002828 0.000566 -0.000831
0.00286 0.000555 -0.000819
0.002959 0.000598 0.000143
0.002905 0.000674 0.000103
0.002884 0.00067 -0.000792
0.00286 0.000528 -0.000819
0.00291 0.000445 -0.000746
0.001701 3e-06 -0.001385
0.002517 0.000534 -0.001638
0.002992 0.000574 0.000298
0.002552 0.000543 -0.001517
0.001603 3e-06 -0.001496
0.001587 3e-06 -0.001514
0.001571 3e-06 -0.001533
0.001554 3e-06 -0.001551
0.001537 3e-06 -0.001569
0.001421 4e-06 -0.001697
0.001404 5e-06 -0.001714
0.001273 4e-06 -0.001862
0.002898 0.000489 -0.000595
0.002518 0.000452 -0.001638
0.00242 0.000673 -0.00088
0.002793 0.000625 -0.000502
0.002873 0.000538 -0.000813
0.002297 0.000752 -0.001149
0.001923 3e-06 -0.001054
0.001907 2e-06 -0.001074
0.001891 2e-06 -0.001093
0.001876 1e-06 -0.001112
0.00186 1e-06 -0.001131
0.001844 0.0 -0.00115
0.001828 -0.0 -0.001168
0.002552 0.000642 -0.001572
0.002382 0.000724 -0.001244
0.002716 0.000743 -0.000858
0.002759 0.000726 -0.000851
0.002842 0.000727 6.4e-05
0.002828 0.000647 -0.000831
0.002581 0.000742 -0.000875
0.002873 0.000565 -0.000814
0.001685 -3e-06 -0.001338
0.001669 -4e-06 -0.001357
0.001653 -4e-06 -0.001375
0.001636 -4e-06 -0.001393
0.001621 -4e-06 -0.001412
0.001604 -4e-06 -0.00143
0.001588 -4e-06 -0.001449
0.001572 -4e-06 -0.001468
0.001555 -4e-06 -0.001486
0.001538 -4e-06 -0.001504
0.001522 -4e-06 -0.001522
0.001504 -3e-06 -0.00154
0.001488 -3e-06 -0.001558
0.001471 -3e-06 -0.001576
0.001454 -3e-06 -0.001594
0.001437 -2e-06 -0.001611
0.00142 -2e-06 -0.001629
0.001403 -1e-06 -0.001647
0.001386 -1e-06 -0.001665
0.001368 -0.0 -0.001683
0.002467 0.000528 -0.001367
0.002412 0.000567 -0.001286
0.002365 0.000696 -0.000881
0.00283 0.000579 -0.000533
0.002338 0.000725 -0.001196
0.002928 0.000523 -0.000674
0.00249 0.000673 -0.001406
0.00256 0.000615 -0.001549
0.002441 0.00071 -0.001327
0.001845 -7e-06 -0.001084
0.00183 -7e-06 -0.001103
0.001815 -8e-06 -0.001123
0.002802 0.00069 4.6e-05
0.002347 0.000748 -0.0012
0.002466 0.000664 -0.001367
0.001752 -1.1e-05 -0.0012
0.001737 -1.1e-05 -0.001219
0.001721 -1.2e-05 -0.001238
0.001705 -1.2e-05 -0.001257
0.00169 -1.3e-05 -0.001276
0.001674 -1.3e-05 -0.001294
0.001658 -1.3e-05 -0.001313
0.001642 -1.3e-05 -0.001332
0.001626 -1.3e-05 -0.00135
0.00161 -1.4e-05 -0.001369
0.001593 -1.4e-05 -0.001388
0.001577 -1.4e-05 -0.001406
0.00156 -1.4e-05 -0.001424
0.001544 -1.4e-05 -0.001443
0.001528 -1.4e-05 -0.001461
0.001511 -1.4e-05 -0.001479
0.001494 -1.3e-05 -0.001497
0.001476 -1.3e-05 -0.001515
0.00146 -1.3e-05 -0.001533
0.001443 -1.2e-05 -0.00155
0.001426 -1.2e-05 -0.001568
0.001408 -1.1e-05 -0.001586
0.001391 -1.1e-05 -0.001603
0.001373 -1e-05 -0.001621
0.001356 -9e-06 -0.001638
0.002491 0.00051 -0.001406
0.002439 0.000548 -0.001327
0.002381 0.000589 -0.001244
0.002237 0.00068 -0.001092
0.002365 0.000668 -0.000881
0.002231 0.000704 -0.00098
0.002253 0.000705 -0.000936
0.002269 0.000702 -0.000916
0.00229 0.000696 -0.000899
0.002627 0.00056 -0.00087
0.002579 0.00058 -0.000874
0.002563 0.000505 -0.00155
0.002794 0.000496 -0.000842
0.00276 0.000508 -0.000852
0.002491 0.000646 -0.001406
0.001728 -2.3e-05 -0.001178
0.001713 -2.3e-05 -0.001197
0.001697 -2.4e-05 -0.001216
0.001682 -2.4e-05 -0.001235
0.001666 -2.5e-05 -0.001254
0.00165 -2.5e-05 -0.001273
0.001634 -2.6e-05 -0.001292
0.001619 -2.6e-05 -0.001311
0.001602 -2.6e-05 -0.001329
0.001586 -2.6e-05 -0.001348
0.00157 -2.6e-05 -0.001367
0.001553 -2.6e-05 -0.001385
0.001537 -2.6e-05 -0.001403
0.00152 -2.6e-05 -0.001421
0.001503 -2.6e-05 -0.001439
0.001487 -2.6e-05 -0.001458
0.00147 -2.6e-05 -0.001476
0.001453 -2.5e-05 -0.001493
0.002676 0.000662 -8e-06
0.002865 0.000561 -0.000564
0.002842 0.000646 6.4e-05
0.002801 0.000717 4.6e-05
0.002865 0.000696 -0.000564
0.00286 0.000446 -0.000819
0.002828 0.000457 -0.000831
0.002793 0.000469 -0.000842
0.00276 0.000481 -0.000852
0.00272 0.000496 -0.000861
0.002676 0.000514 -0.000866
0.002627 0.000533 -0.00087
0.00258 0.000552 -0.000875
0.002527 0.000574 -0.000877
0.002475 0.000595 -0.000879
0.002422 0.000617 -0.000881
0.002366 0.000641 -0.000881
0.002319 0.000659 -0.000886
0.00229 0.000669 -0.000899
0.002268 0.000675 -0.000916
0.002252 0.000677 -0.000936
0.00224 0.000678 -0.000957
0.002231 0.000678 -0.00098
0.002225 0.000675 -0.001004
0.002222 0.000671 -0.00103
0.002224 0.000664 -0.001059
0.002237 0.000652 -0.001093
0.002273 0.000628 -0.001137
0.002383 0.000561 -0.001245
0.002412 0.00054 -0.001286
0.002439 0.00052 -0.001327
0.002467 0.0005 -0.001367
0.002491 0.000482 -0.001406
0.002514 0.000465 -0.001444
0.002534 0.000449 -0.001482
0.002553 0.000434 -0.001518
0.002564 0.000423 -0.001551
0.002557 0.000421 -0.001575
0.002544 0.000422 -0.001596
0.002531 0.000423 -0.001617
0.002518 0.000425 -0.001638
0.002663 0.000557 -0.000406
0.002375 0.000727 0.000718
0.002541 0.000747 -6.1e-05
0.002876 0.000631 8.3e-05
0.002843 0.0007 6.4e-05
0.002792 0.000735 -0.000502
0.002859 0.000419 -0.000819
0.002828 0.00043 -0.000831
0.002793 0.000442 -0.000841
0.00276 0.000454 -0.000852
0.00272 0.000469 -0.00086
0.002675 0.000487 -0.000866
0.002628 0.000506 -0.000871
0.002578 0.000526 -0.000874
0.002527 0.000547 -0.000877
0.002475 0.000568 -0.000879
0.002422 0.00059 -0.000881
0.002364 0.000614 -0.00088
0.002318 0.000633 -0.000886
0.002289 0.000642 -0.000899
0.002268 0.000648 -0.000916
0.002252 0.00065 -0.000936
0.00224 0.000651 -0.000957
0.002231 0.00065 -0.00098
0.002224 0.000648 -0.001004
0.002221 0.000644 -0.00103
0.002224 0.000637 -0.001059
0.002235 0.000626 -0.001092
0.002382 0.000534 -0.001244
0.002412 0.000513 -0.001286
0.00244 0.000493 -0.001327
0.002467 0.000473 -0.001367
0.002491 0.000455 -0.001406
0.002513 0.000439 -0.001444
0.002534 0.000422 -0.001482
0.002553 0.000407 -0.001518
0.002564 0.000396 -0.001551
0.002557 0.000394 -0.001575
0.002545 0.000395 -0.001596
0.002532 0.000396 -0.001617
0.002518 0.000397 -0.001638
0.002924 0.000447 -0.000624
0.002633 0.000681 -2.6e-05
0.002664 0.000665 -0.000406
0.002923 0.000578 -0.000698
0.002877 0.000685 8.3e-05
0.002998 0.000412 0.000224
0.002859 0.000392 -0.000819
0.002827 0.000403 -0.00083
0.002793 0.000415 -0.000841
0.002759 0.000427 -0.000852
0.00272 0.000442 -0.00086
0.002674 0.00046 -0.000865
0.002626 0.000479 -0.00087
0.002575 0.0005 -0.000873
0.002527 0.00052 -0.000877
0.002475 0.000541 -0.000879
0.002421 0.000563 -0.00088
0.002364 0.000587 -0.00088
0.002318 0.000605 -0.000886
0.002289 0.000615 -0.000899
0.002268 0.000621 -0.000916
0.002252 0.000623 -0.000936
0.00224 0.000624 -0.000957
0.002231 0.000623 -0.00098
0.002224 0.000621 -0.001004
0.002222 0.000617 -0.00103
0.002224 0.00061 -0.001059
0.002235 0.000599 -0.001092
0.002383 0.000506 -0.001245
0.002413 0.000485 -0.001287
0.002439 0.000466 -0.001327
0.002467 0.000446 -0.001367
0.002492 0.000428 -0.001407
0.002514 0.000411 -0.001445
0.002534 0.000395 -0.001482
0.002553 0.000379 -0.001518
0.002563 0.000369 -0.00155
0.002557 0.000366 -0.001575
0.002545 0.000367 -0.001597
0.002532 0.000369 -0.001618
0.002916 0.000444 -0.000723
0.002843 0.000591 6.4e-05
0.002763 0.000652 2.7e-05
0.002897 0.000598 -0.000594
