-0.002801 0.000106 -0.000861
-0.002834 9.5e-05 -0.000849
-0.002851 9.1e-05 -0.00083
-0.002864 8.9e-05 -0.000809
-0.002874 8.9e-05 -0.000786
-0.002883 9e-05 -0.000763
-0.00289 9.1e-05 -0.000739
-0.002216 0.000568 -0.001706
-0.001818 0.000734 -0.001983
-0.001753 0.000643 -0.002416
-0.001883 0.000691 -0.002231
-0.002483 0.000646 -0.001674
-0.00188 0.000675 -0.002196
-0.001646 0.000627 -0.002387
-0.00185 0.000722 -0.002074
-0.001071 0.000713 -0.002545
-0.00251 6.8e-05 -0.001568
-0.002516 7e-05 -0.001543
-0.002514 7.7e-05 -0.001515
-0.002501 8.9e-05 -0.001482
-0.002486 0.000101 -0.001449
-0.002467 0.000116 -0.001414
-0.002438 0.000136 -0.001374
-0.002373 0.000179 -0.001291
-0.00234 0.000201 -0.001249
-0.002301 0.000226 -0.001205
-0.002262 0.000251 -0.001161
-0.002225 0.000275 -0.001118
-0.002209 0.000288 -0.001084
-0.002205 0.000296 -0.001055
-0.002207 0.0003 -0.001029
-0.002214 0.000301 -0.001005
-0.002224 0.000301 -0.000982
-0.002236 0.0003 -0.000961
-0.002252 0.000297 -0.000941
-0.002271 0.000293 -0.000922
-0.002298 0.000284 -0.000907
-0.002339 0.000268 -0.000899
-0.002418 0.000233 -0.000907
-0.002539 0.000182 -0.000907
-0.002586 0.000163 -0.000901
-0.002634 0.000143 -0.000895
-0.002679 0.000126 -0.000888
-0.002721 0.00011 -0.00088
-0.002762 9.4e-05 -0.000871
-0.002799 8e-05 -0.000861
-0.002826 7.1e-05 -0.000846
-0.002842 6.8e-05 -0.000826
-0.002854 6.7e-05 -0.000804
-0.002864 6.7e-05 -0.000782
-0.002872 6.8e-05 -0.000758
-0.00288 7e-05 -0.000735
-0.002886 7.2e-05 -0.00071
-0.00289 7.4e-05 -0.000686
-0.00235 0.000488 -0.001723
-0.001801 0.000727 -0.001936
-0.00188 0.000702 -0.002196
-0.001885 0.00068 -0.002265
-0.001885 0.000643 -0.002297
-0.002452 0.000618 -0.001713
-0.002115 0.000718 -0.001686
-0.001886 0.000615 -0.002298
-0.001837 0.00075 -0.001999
-0.002497 4.8e-05 -0.001562
-0.002504 4.9e-05 -0.001538
-0.002506 5.3e-05 -0.001512
-0.002499 6.3e-05 -0.001481
-0.002485 7.4e-05 -0.001449
-0.002466 8.9e-05 -0.001413
-0.002438 0.000109 -0.001374
-0.002407 0.000129 -0.001333
-0.002373 0.000152 -0.001291
-0.00234 0.000174 -0.00125
-0.002302 0.000198 -0.001206
-0.002226 0.000248 -0.001118
-0.002209 0.000261 -0.001083
-0.002205 0.000269 -0.001055
-0.002207 0.000272 -0.001029
-0.002213 0.000274 -0.001005
-0.002224 0.000274 -0.000982
-0.002236 0.000273 -0.000961
-0.002251 0.00027 -0.000941
-0.002271 0.000265 -0.000922
-0.002299 0.000256 -0.000908
-0.002339 0.000241 -0.000899
-0.002415 0.000207 -0.000905
-0.002539 0.000154 -0.000907
-0.002588 0.000135 -0.000901
-0.002634 0.000117 -0.000895
-0.002678 9.9e-05 -0.000888
-0.002721 8.2e-05 -0.00088
-0.00276 6.7e-05 -0.00087
-0.002793 5.6e-05 -0.000858
-0.002815 5e-05 -0.000841
-0.00283 4.7e-05 -0.00082
-0.002841 4.7e-05 -0.000798
-0.002851 4.7e-05 -0.000776
-0.002859 4.8e-05 -0.000752
-0.002866 4.9e-05 -0.000729
-0.002872 5.1e-05 -0.000705
-0.002877 5.4e-05 -0.00068
-0.00288 5.8e-05 -0.000655
-0.00191 0.000706 -0.001608
-0.000838 0.000432 -0.002848
-0.002406 3.7e-05 -0.001683
-0.002391 0.000608 -0.001726
-0.00185 0.000668 -0.002074
-0.00243 0.000567 -0.001726
-0.001864 0.00065 -0.002118
-0.001863 0.000705 -0.002118
-0.00248 2.9e-05 -0.001554
-0.002488 3e-05 -0.001531
-0.002492 3.3e-05 -0.001506
-0.002491 3.9e-05 -0.001478
-0.002481 4.9e-05 -0.001447
-0.002465 6.2e-05 -0.001413
-0.002438 8.1e-05 -0.001374
-0.002408 0.000102 -0.001334
-0.002373 0.000125 -0.001291
-0.002338 0.000147 -0.001249
-0.002302 0.000171 -0.001206
-0.002263 0.000196 -0.001161
-0.002225 0.000221 -0.001117
-0.002209 0.000234 -0.001083
-0.002204 0.000242 -0.001054
-0.002207 0.000245 -0.001029
-0.002214 0.000247 -0.001005
-0.002224 0.000247 -0.000982
-0.002236 0.000246 -0.000961
-0.002251 0.000243 -0.00094
-0.002271 0.000238 -0.000922
-0.002299 0.000229 -0.000908
-0.002339 0.000214 -0.000898
-0.002483 0.000151 -0.000909
-0.00254 0.000127 -0.000907
-0.002587 0.000108 -0.000901
-0.002633 9e-05 -0.000895
-0.002679 7.1e-05 -0.000888
-0.00272 5.6e-05 -0.000879
-0.002755 4.3e-05 -0.000868
-0.002781 3.4e-05 -0.000853
-0.002799 3e-05 -0.000834
-0.002813 2.8e-05 -0.000813
-0.002833 2.9e-05 -0.000768
-0.002841 3e-05 -0.000745
-0.002849 3.1e-05 -0.000721
-0.002855 3.3e-05 -0.000697
-0.002861 3.5e-05 -0.000672
-0.002864 3.9e-05 -0.000647
-0.002484 0.000455 -0.001675
-0.00247 0.000454 -0.001695
-0.002368 2.5e-05 -0.001693
-0.002384 2.1e-05 -0.001673
-0.001746 0.000755 -0.001728
-0.001833 0.000634 -0.002028
-0.002391 0.000554 -0.001726
-0.00206 0.000715 -0.001672
-0.001511 0.000743 -0.002317
-0.002455 1.5e-05 -0.001543
-0.002464 1.6e-05 -0.00152
-0.00247 1.7e-05 -0.001496
-0.002474 2.1e-05 -0.001471
-0.00247 2.7e-05 -0.001442
-0.00246 3.8e-05 -0.001411
-0.002436 5.5e-05 -0.001373
-0.002301 0.000144 -0.001205
-0.002261 0.00017 -0.001161
-0.002226 0.000193 -0.001118
-0.002208 0.000207 -0.001083
-0.002204 0.000214 -0.001054
-0.002207 0.000218 -0.001029
-0.002213 0.00022 -0.001004
-0.002224 0.00022 -0.000982
-0.002236 0.000219 -0.000961
-0.002251 0.000216 -0.00094
-0.002271 0.000211 -0.000922
-0.002299 0.000202 -0.000908
-0.002484 0.000123 -0.000909
-0.00254 0.0001 -0.000907
-0.002632 6.3e-05 -0.000894
-0.002677 4.5e-05 -0.000887
-0.002713 3.2e-05 -0.000876
-0.002741 2.3e-05 -0.000862
-0.002761 1.8e-05 -0.000844
-0.002776 1.5e-05 -0.000823
-0.002788 1.4e-05 -0.000802
-0.002808 1.4e-05 -0.000757
-0.002818 1.5e-05 -0.000734
-0.002826 1.6e-05 -0.000711
-0.002832 1.8e-05 -0.000687
-0.002839 2e-05 -0.000662
-0.002844 2.2e-05 -0.000638
-0.002845 2.7e-05 -0.000612
-0.002295 2.6e-05 -0.001707
-0.002321 1.5e-05 -0.001699
-0.002338 1.1e-05 -0.00168
-0.002349 1.1e-05 -0.001658
-0.001753 0.000761 -0.001701
-0.002511 0.000512 -0.001633
-0.00243 0.00054 -0.001726
-0.001833 0.000579 -0.002028
-0.002412 1e-05 -0.001524
-0.002424 9e-06 -0.001502
-0.002432 1e-05 -0.001479
-0.002438 1.2e-05 -0.001455
-0.002444 1.4e-05 -0.00143
-0.002443 2e-05 -0.001403
-0.00243 3.1e-05 -0.001371
-0.002404 4.9e-05 -0.001332
-0.00237 7.2e-05 -0.00129
-0.002338 9.3e-05 -0.001249
-0.002301 0.000117 -0.001205
-0.002261 0.000143 -0.001161
-0.002225 0.000166 -0.001117
-0.002208 0.00018 -0.001083
-0.002204 0.000187 -0.001054
-0.002206 0.000191 -0.001028
-0.002213 0.000193 -0.001004
-0.002224 0.000193 -0.000982
-0.002236 0.000192 -0.00096
-0.002251 0.000189 -0.00094
-0.002271 0.000184 -0.000922
-0.002298 0.000175 -0.000907
-0.002339 0.00016 -0.000898
-0.002485 9.5e-05 -0.000909
-0.002539 7.3e-05 -0.000906
-0.002586 5.4e-05 -0.000901
-0.00263 3.7e-05 -0.000893
-0.002668 2.3e-05 -0.000883
-0.002694 1.5e-05 -0.000867
-0.002709 1.2e-05 -0.000847
-0.002723 1e-05 -0.000827
-0.002733 1e-05 -0.000804
-0.002743 1e-05 -0.000782
-0.002765 1e-05 -0.000738
-0.002778 8e-06 -0.000716
-0.002788 8e-06 -0.000694
-0.002793 1e-05 -0.000669
-0.002804 1e-05 -0.000647
-0.002812 1.1e-05 -0.000624
-0.001818 0.000598 -0.001982
-0.002276 1.1e-05 -0.001679
-0.002284 1.2e-05 -0.001656
-0.002295 1.1e-05 -0.001634
0.00021 -9e-06 0.002134
0.001228 4e-06 0.001839
-0.002373 1.3e-05 -0.001453
-0.00238 1.4e-05 -0.001429
-0.002392 1.3e-05 -0.001407
-0.002403 1.2e-05 -0.001385
-0.002408 1.5e-05 -0.00136
-0.002399 2.5e-05 -0.00133
-0.002371 4.4e-05 -0.00129
-0.002337 6.7e-05 -0.001248
-0.002301 9e-05 -0.001205
-0.002261 0.000116 -0.001161
-0.002225 0.000139 -0.001117
-0.002208 0.000153 -0.001083
-0.002204 0.00016 -0.001054
-0.002206 0.000164 -0.001028
-0.002213 0.000166 -0.001004
-0.002223 0.000166 -0.000982
-0.002236 0.000165 -0.00096
-0.002251 0.000162 -0.00094
-0.002271 0.000157 -0.000922
-0.002298 0.000148 -0.000907
-0.002338 0.000133 -0.000898
-0.002486 6.8e-05 -0.00091
-0.002538 4.6e-05 -0.000906
-0.002584 2.8e-05 -0.0009
-0.002617 1.6e-05 -0.000887
-0.002635 1.2e-05 -0.000868
-0.002646 1.2e-05 -0.000847
-0.002654 1.3e-05 -0.000823
-0.002662 1.4e-05 -0.0008
-0.002736 1.2e-05 -0.000644
-0.002744 1.3e-05 -0.00062
-0.002755 1.3e-05 -0.000598
-0.001878 0.00054 -0.002195
-0.001886 0.000517 -0.002265
-0.002221 1.2e-05 -0.001655
-0.00223 1.2e-05 -0.001632
-0.002241 1.1e-05 -0.00161
-0.002524 0.000514 -0.001612
0.001204 4e-06 0.001847
0.001181 3e-06 0.001856
-0.001871 0.000648 -0.002326
-0.001748 0.000737 -0.001696
-0.002307 9e-06 -0.001477
-0.002317 9e-06 -0.001455
-0.002329 8e-06 -0.001433
-0.00234 7e-06 -0.001411
-0.002351 7e-06 -0.001389
-0.002361 7e-06 -0.001366
-0.002372 6e-06 -0.001345
-0.002376 9e-06 -0.001319
-0.002369 1.2e-05 -0.001286
-0.002302 6.3e-05 -0.001205
-0.00226 8.9e-05 -0.00116
-0.002224 0.000113 -0.001117
-0.002208 0.000126 -0.001083
-0.002204 0.000133 -0.001054
-0.002206 0.000137 -0.001028
-0.002213 0.000139 -0.001004
-0.002223 0.000138 -0.000982
-0.002235 0.000138 -0.00096
-0.002251 0.000135 -0.00094
-0.00227 0.00013 -0.000922
-0.002298 0.000121 -0.000907
-0.002535 2.1e-05 -0.000905
-0.002566 9e-06 -0.000892
-0.002584 6e-06 -0.000872
-0.002593 6e-06 -0.00085
-0.002602 7e-06 -0.000827
-0.002611 7e-06 -0.000804
-0.00262 8e-06 -0.000781
-0.002675 1.1e-05 -0.000643
-0.002684 1.1e-05 -0.000621
-0.002694 1.1e-05 -0.000598
-0.002703 1.2e-05 -0.000575
-0.002712 1.3e-05 -0.000552
-0.001782 0.000694 -0.001888
-0.002168 6e-06 -0.001658
-0.00218 5e-06 -0.001636
-0.002191 5e-06 -0.001615
-0.002202 4e-06 -0.001593
-0.002214 3e-06 -0.001571
-0.002498 0.000619 -0.001655
-0.002114 0.000583 -0.001685
-0.001837 0.000587 -0.002364
-0.001737 0.000733 -0.00172
-0.002469 0.000617 -0.001695
-0.002278 2e-06 -0.001437
-0.002288 2e-06 -0.001415
-0.002297 2e-06 -0.001392
-0.002309 2e-06 -0.00137
-0.0018 0.000673 -0.001935
-0.001878 0.000567 -0.002195
-0.002498 0.000456 -0.001655
-0.001781 0.00064 -0.001887
-0.00233 1.6e-05 -0.001245
-0.002301 3.6e-05 -0.001205
-0.002259 6.2e-05 -0.001159
-0.002224 8.6e-05 -0.001117
-0.002208 9.8e-05 -0.001083
-0.002203 0.000106 -0.001054
-0.002206 0.00011 -0.001028
-0.002213 0.000112 -0.001004
-0.002223 0.000112 -0.000982
-0.002235 0.00011 -0.00096
-0.002251 0.000108 -0.00094
-0.002271 0.000103 -0.000922
-0.002298 9.4e-05 -0.000907
-0.002539 2e-06 -0.000853
-0.002549 2e-06 -0.00083
-0.002559 2e-06 -0.000808
-0.002569 2e-06 -0.000785
-0.002578 2e-06 -0.000762
-0.002629 2e-06 -0.00065
-0.002638 2e-06 -0.000627
-0.002647 3e-06 -0.000604
-0.002655 4e-06 -0.000581
-0.002664 5e-06 -0.000558
-0.002673 5e-06 -0.000535
-0.002454 0.000708 -0.001682
-0.002124 1e-06 -0.001639
-0.002134 2e-06 -0.001616
-0.002143 2e-06 -0.001593
-0.002153 2e-06 -0.001571
-0.002162 3e-06 -0.001548
-0.00217 4e-06 -0.001524
-0.002261 0.000577 -0.001712
-0.00186 0.000711 -0.00231
-0.001759 0.000739 -0.001675
-0.001878 0.000513 -0.002195
-0.002227 5e-06 -0.001388
-0.002236 6e-06 -0.001365
-0.002347 0.000734 -0.001721
-0.002287 6e-06 -0.001253
-0.002295 7e-06 -0.001229
-0.002291 1.4e-05 -0.0012
-0.002262 3.4e-05 -0.001161
-0.002222 5.9e-05 -0.001116
-0.002208 7.1e-05 -0.001083
-0.002202 7.9e-05 -0.001053
-0.002205 8.3e-05 -0.001028
-0.002212 8.5e-05 -0.001004
-0.002223 8.5e-05 -0.000981
-0.002235 8.3e-05 -0.00096
-0.00225 8.1e-05 -0.00094
-0.00227 7.6e-05 -0.000922
-0.002297 6.7e-05 -0.000907
-0.002468 6e-06 -0.000848
-0.002478 6e-06 -0.000825
-0.002486 7e-06 -0.000802
-0.002497 6e-06 -0.00078
-0.002508 6e-06 -0.000758
-0.002518 6e-06 -0.000736
-0.002574 3e-06 -0.000625
-0.002585 3e-06 -0.000603
-0.002594 3e-06 -0.000581
-0.002053 5e-06 -0.001634
-0.002063 5e-06 -0.001612
-0.002073 5e-06 -0.001589
-0.002083 6e-06 -0.001566
-0.002092 6e-06 -0.001544
-0.002102 6e-06 -0.001521
-0.002114 6e-06 -0.001499
-0.00212 7e-06 -0.001475
-0.002007 -2.1e-05 -0.000589
-0.002215 0.000595 -0.001706
-0.001816 0.000761 -0.001626
-0.001513 0.000606 -0.00232
-0.001997 -2.1e-05 -0.000611
-0.002238 8e-06 -0.001204
-0.002247 9e-06 -0.001181
-0.002248 1.4e-05 -0.001154
-0.002225 3.1e-05 -0.001117
-0.002206 4.5e-05 -0.001082
-0.002203 5.2e-05 -0.001054
-0.002205 5.6e-05 -0.001028
-0.002212 5.8e-05 -0.001004
-0.002222 5.8e-05 -0.000981
-0.002234 5.7e-05 -0.00096
-0.00225 5.4e-05 -0.00094
-0.00227 4.9e-05 -0.000922
-0.002298 4e-05 -0.000907
-0.002407 1e-05 -0.000821
-0.002419 8e-06 -0.000799
-0.002427 1e-05 -0.000776
-0.002436 1e-05 -0.000753
-0.002447 1e-05 -0.000731
-0.002479 9e-06 -0.000664
-0.002491 8e-06 -0.000643
-0.002512 8e-06 -0.000598
-0.002522 7e-06 -0.000576
-0.001993 9e-06 -0.001607
-0.002002 9e-06 -0.001584
-0.002024 8e-06 -0.00154
-0.002031 1e-05 -0.001516
-0.001869 0.000748 -0.001606
-0.002061 1e-05 -0.001449
-0.002072 1e-05 -0.001427
-0.00235 0.000569 -0.001723
-0.001688 0.000582 -0.002406
-0.001513 0.000633 -0.00232
-0.002512 0.000539 -0.001634
-0.001068 0.000653 -0.00263
-0.00235 0.000515 -0.001723
-0.002498 0.000538 -0.001654
-0.002525 0.000487 -0.001613
-0.001988 -2.2e-05 -0.000634
-0.001869 0.000721 -0.001606
-0.002207 7e-06 -0.001136
-0.002213 9e-06 -0.001112
-0.002206 1.8e-05 -0.001082
-0.002203 2.5e-05 -0.001054
-0.002205 2.9e-05 -0.001027
-0.002211 3.1e-05 -0.001003
-0.002222 3.1e-05 -0.000981
-0.002234 3e-05 -0.000959
-0.00225 2.7e-05 -0.000939
-0.002269 2.2e-05 -0.000921
-0.002295 1.4e-05 -0.000906
-0.002321 6e-06 -0.00089
-0.001979 -2.2e-05 -0.000657
-0.002411 1.1e-05 -0.000661
-0.002423 1e-05 -0.000639
-0.002453 1e-05 -0.000572
-0.002464 1e-05 -0.00055
-0.00197 -2.3e-05 -0.00068
-0.001961 -2.3e-05 -0.000703
-0.001982 8e-06 -0.001494
-0.001992 8e-06 -0.001472
-0.002497 0.000511 -0.001654
-0.002014 7e-06 -0.001428
-0.002025 6e-06 -0.001406
-0.002036 6e-06 -0.001384
-0.001886 0.000542 -0.002306
-0.000201 0.000746 -0.002704
-0.001875 0.000688 -0.00216
-0.001064 0.000725 -0.00231
-0.001067 0.00065 -0.00236
-0.001068 0.000632 -0.002407
-0.002484 0.000537 -0.001675
-0.001885 0.000544 -0.002264
-0.00235 0.000542 -0.001723
-0.002454 0.000535 -0.001714
-0.001985 0.000724 -0.00164
-0.002215 0.000704 -0.001706
-0.002182 -1e-06 -0.001098
-0.002454 0.000454 -0.001714
-0.001882 0.000501 -0.00223
-0.002202 3e-06 -0.001026
-0.002211 4e-06 -0.001003
-0.002221 4e-06 -0.000981
-0.002232 3e-06 -0.000959
-0.002247 1e-06 -0.000938
-0.002261 -1e-06 -0.000917
-0.002273 -2e-06 -0.000896
-0.002284 -3e-06 -0.000874
-0.002373 3e-06 -0.000644
-0.002399 4e-06 -0.000574
-0.002406 7e-06 -0.000551
-0.002416 6e-06 -0.000528
-0.001921 1e-06 -0.001521
-0.001952 -2.3e-05 -0.000726
-0.001946 -1e-06 -0.001478
-0.001957 -2e-06 -0.001456
-0.001969 -3e-06 -0.001435
-0.00198 -3e-06 -0.001413
-0.001992 -2e-06 -0.001391
-0.002003 -3e-06 -0.001369
-0.001464 0.00063 -0.00229
-0.001733 0.000726 -0.001749
-0.001849 0.000587 -0.002074
-0.002041 -4e-06 -0.001278
-0.002386 0.00072 -0.001721
-0.001727 0.000566 -0.002421
-0.002469 0.000509 -0.001694
-0.001887 0.000533 -0.002298
-0.002092 -3e-06 -0.001166
-0.002101 -3e-06 -0.001143
0.000616 0.00073 -0.00251
-0.002262 0.00055 -0.001713
-0.002307 0.000531 -0.001719
-0.002392 0.000472 -0.001726
-0.002161 -3e-06 -0.001008
-0.002171 -3e-06 -0.000985
-0.001942 -2.4e-05 -0.000749
-0.002363 -4e-06 -0.000559
-0.002375 -4e-06 -0.000537
-0.002383 -3e-06 -0.000514
-0.002391 -2e-06 -0.00049
-0.0024 -1e-06 -0.000467
-0.001859 -5e-06 -0.001548
-0.001867 -4e-06 -0.001524
-0.00188 -5e-06 -0.001503
-0.001908 -4e-06 -0.001435
-0.001918 -4e-06 -0.001412
-0.001934 -2e-06 -0.001365
-0.001946 -2e-06 -0.001343
-0.001932 -2.4e-05 -0.000771
-0.001981 -0.0 -0.001251
-0.001993 -1e-06 -0.00123
-0.00174 0.000685 -0.001787
-0.001834 0.000606 -0.002029
-0.001559 0.000611 -0.002346
-0.002039 1e-06 -0.001115
-0.00205 1e-06 -0.001093
-0.002511 0.000485 -0.001634
-0.002497 0.000484 -0.001654
-0.002098 2e-06 -0.00098
-0.002108 2e-06 -0.000957
-0.002117 2e-06 -0.000934
-0.001923 -2.4e-05 -0.000794
-0.00215 1e-06 -0.000868
-0.002159 1e-06 -0.000845
-0.002307 -2e-06 -0.000533
-0.002316 -2e-06 -0.000511
-0.002327 -2e-06 -0.000488
-0.002337 -2e-06 -0.000466
-0.002346 -2e-06 -0.000443
-0.002361 -4e-06 -0.000423
-0.001801 -2e-06 -0.001522
-0.00181 -2e-06 -0.001499
-0.001817 -0.0 -0.001475
-0.001828 -0.0 -0.001453
-0.001845 1e-06 -0.001407
-0.001853 2e-06 -0.001383
-0.001206 0.000734 -0.002122
-0.001873 0.000526 -0.002158
-0.001882 3e-06 -0.001315
-0.00189 4e-06 -0.001292
-0.001922 3e-06 -0.001225
-0.001931 4e-06 -0.001202
-0.001939 4e-06 -0.001179
-0.001949 5e-06 -0.001156
-0.00196 4e-06 -0.001134
-0.00199 4e-06 -0.001067
-0.002 4e-06 -0.001044
-0.001868 0.000746 -0.002154
-0.002165 0.000589 -0.001696
-0.002484 0.000618 -0.001675
-0.00204 4e-06 -0.000954
-0.002049 5e-06 -0.000931
-0.002059 5e-06 -0.000909
-0.002089 5e-06 -0.000841
-0.0021 4e-06 -0.000819
-0.00213 5e-06 -0.000751
-0.002152 3e-06 -0.000707
-0.00216 5e-06 -0.000684
-0.002212 4e-06 -0.000572
-0.002223 4e-06 -0.00055
-0.002231 4e-06 -0.000527
-0.002244 3e-06 -0.000505
-0.002253 4e-06 -0.000482
-0.002264 3e-06 -0.00046
-0.002274 3e-06 -0.000438
-0.002287 2e-06 -0.000417
-0.001913 -2.4e-05 -0.000816
-0.001903 -2.4e-05 -0.000839
-0.001757 3e-06 -0.001448
-0.001767 3e-06 -0.001426
-0.001775 4e-06 -0.001402
-0.001786 4e-06 -0.00138
-0.001794 5e-06 -0.001357
-0.001803 5e-06 -0.001334
-0.001814 5e-06 -0.001312
-0.001823 6e-06 -0.001289
-0.001834 5e-06 -0.001267
-0.001844 5e-06 -0.001244
-0.001853 6e-06 -0.001221
-0.001863 6e-06 -0.001199
-0.001884 5e-06 -0.001154
-0.001893 6e-06 -0.001131
-0.001905 5e-06 -0.001109
-0.001762 0.000764 -0.001677
-0.001883 0.000555 -0.00223
-0.002469 0.000536 -0.001695
-0.001944 5e-06 -0.001019
-0.001878 0.00073 -0.002195
-0.001967 4e-06 -0.000975
-0.001976 5e-06 -0.000953
-0.001985 4e-06 -0.000929
-0.001995 4e-06 -0.000907
-0.002006 3e-06 -0.000885
-0.002035 5e-06 -0.000817
-0.002046 5e-06 -0.000795
-0.002075 5e-06 -0.000727
-0.002087 5e-06 -0.000705
-0.002096 5e-06 -0.000682
-0.002106 5e-06 -0.00066
-0.002155 6e-06 -0.000547
-0.002166 5e-06 -0.000525
-0.002175 6e-06 -0.000502
-0.002185 6e-06 -0.000479
-0.002195 6e-06 -0.000457
-0.002208 4e-06 -0.000435
-0.00222 4e-06 -0.000414
-0.002228 5e-06 -0.00039
-0.002238 4e-06 -0.000368
-0.001887 0.000588 -0.002298
-0.001839 0.00073 -0.001613
-0.0017 5e-06 -0.001423
-0.00171 6e-06 -0.0014
-0.00172 5e-06 -0.001378
-0.001732 5e-06 -0.001356
-0.001742 5e-06 -0.001334
-0.001752 5e-06 -0.001311
-0.001763 4e-06 -0.001289
-0.001775 3e-06 -0.001267
-0.001786 3e-06 -0.001245
-0.001796 2e-06 -0.001223
-0.001807 1e-06 -0.001201
-0.002468 0.000709 -0.001662
-0.0018 0.000619 -0.001936
-0.001863 0.000541 -0.002118
-0.001852 -0.0 -0.001113
-0.001862 -0.0 -0.00109
-0.001873 -1e-06 -0.001068
-0.001884 -1e-06 -0.001046
-0.001894 -2e-06 -0.001024
-0.001905 -2e-06 -0.001002
-0.001916 -2e-06 -0.00098
-0.001927 -2e-06 -0.000957
-0.001937 -3e-06 -0.000935
-0.001948 -3e-06 -0.000913
-0.001958 -3e-06 -0.00089
-0.001968 -3e-06 -0.000868
-0.001977 -3e-06 -0.000845
-0.001987 -3e-06 -0.000822
-0.001996 -2e-06 -0.0008
-0.002006 -2e-06 -0.000777
-0.002016 -2e-06 -0.000754
-0.002025 -2e-06 -0.000732
-0.002035 -2e-06 -0.000709
-0.002044 -1e-06 -0.000686
-0.002053 -1e-06 -0.000663
-0.002063 -1e-06 -0.000641
-0.002072 -0.0 -0.000618
-0.0021 1e-06 -0.000549
-0.002109 2e-06 -0.000526
-0.002119 2e-06 -0.000504
-0.002128 3e-06 -0.000481
-0.002137 3e-06 -0.000458
-0.002146 4e-06 -0.000435
-0.002155 4e-06 -0.000412
-0.002165 4e-06 -0.000389
-0.002173 5e-06 -0.000366
-0.002182 5e-06 -0.000343
-0.001886 0.000598 -0.002265
-0.001559 0.00072 -0.002346
-0.001655 1e-06 -0.001403
-0.001666 1e-06 -0.001381
-0.001678 -0.0 -0.001359
-0.00169 -1e-06 -0.001337
-0.001702 -2e-06 -0.001316
-0.001713 -3e-06 -0.001294
-0.001725 -4e-06 -0.001272
-0.002351 0.00065 -0.001724
-0.002429 0.000622 -0.001725
-0.001886 0.000488 -0.002307
-0.002351 0.000704 -0.001724
-0.002444 0.000678 -0.001706
-0.001793 -8e-06 -0.001141
-0.001805 -9e-06 -0.001119
-0.001816 -9e-06 -0.001097
-0.001828 -1e-05 -0.001075
-0.001839 -1e-05 -0.001053
-0.001849 -1.1e-05 -0.001031
-0.00186 -1.1e-05 -0.001009
-0.001871 -1.1e-05 -0.000986
-0.001881 -1.2e-05 -0.000964
-0.001891 -1.2e-05 -0.000942
-0.001902 -1.2e-05 -0.00092
-0.001913 -1.2e-05 -0.000897
-0.001922 -1.2e-05 -0.000875
-0.001933 -1.2e-05 -0.000852
-0.001943 -1.2e-05 -0.00083
-0.001953 -1.2e-05 -0.000807
-0.001963 -1.2e-05 -0.000785
-0.001972 -1.2e-05 -0.000762
-0.001981 -1.2e-05 -0.000739
-0.00199 -1.1e-05 -0.000716
-0.002 -1.1e-05 -0.000693
-0.00201 -1.1e-05 -0.000671
-0.00202 -1.1e-05 -0.000648
-0.002029 -1e-05 -0.000625
-0.002037 -9e-06 -0.000602
-0.002073 -7e-06 -0.00051
-0.002081 -6e-06 -0.000487
-0.002089 -5e-06 -0.000463
-0.002097 -4e-06 -0.00044
-0.002166 0.000561 -0.001697
-0.00176 0.000712 -0.001675
-0.001778 0.000558 -0.002409
-0.001849 0.00056 -0.002073
-0.000838 0.000595 -0.002847
-0.002415 0.000712 -0.001714
-0.002436 0.000709 -0.001699
-0.001882 0.000528 -0.00223
-0.002307 0.000559 -0.001719
-0.001727 0.000485 -0.002421
-0.001759 0.000718 -0.001836
-0.001736 0.000706 -0.00172
-0.002261 0.000604 -0.001713
-0.001863 0.000596 -0.002117
-0.001868 0.000694 -0.001606
-0.001774 -2e-05 -0.001105
-0.001785 -2.1e-05 -0.001083
-0.001797 -2.1e-05 -0.001061
-0.001808 -2.2e-05 -0.001039
-0.001818 -2.2e-05 -0.001017
-0.001829 -2.3e-05 -0.000995
-0.001841 -2.3e-05 -0.000973
-0.001851 -2.3e-05 -0.000951
-0.001862 -2.4e-05 -0.000929
-0.001872 -2.4e-05 -0.000906
-0.001883 -2.4e-05 -0.000884
-0.001893 -2.4e-05 -0.000862
-0.002525 0.000459 -0.001613
-0.001057 0.000575 -0.002701
-0.001687 0.000555 -0.002406
-0.001838 0.00056 -0.002365
-0.001064 0.00064 -0.002668
-0.001431 0.000732 -0.00233
-0.001887 0.000452 -0.002298
-0.001886 0.000462 -0.002265
-0.001882 0.000474 -0.00223
-0.001878 0.000486 -0.002195
-0.001874 0.000498 -0.002159
-0.001863 0.000514 -0.002118
-0.001848 0.000533 -0.002073
-0.001834 0.000552 -0.002028
-0.001817 0.000571 -0.001982
-0.0018 0.000592 -0.001935
-0.001781 0.000613 -0.001887
-0.001738 0.000659 -0.001786
-0.001733 0.000672 -0.001749
-0.001736 0.000679 -0.00172
-0.001746 0.000683 -0.001696
-0.00176 0.000685 -0.001675
-0.001775 0.000685 -0.001656
-0.001793 0.000684 -0.001639
-0.001814 0.000681 -0.001624
-0.001838 0.000675 -0.001612
-0.001867 0.000667 -0.001605
-0.002059 0.00058 -0.00167
-0.002115 0.000555 -0.001685
-0.002167 0.000533 -0.001697
-0.002215 0.000514 -0.001706
-0.002263 0.000495 -0.001713
-0.002307 0.000477 -0.001719
-0.00235 0.000461 -0.001723
-0.002392 0.000445 -0.001726
-0.00243 0.000431 -0.001726
-0.002454 0.000426 -0.001714
-0.00247 0.000426 -0.001695
-0.002484 0.000427 -0.001675
-0.002498 0.000429 -0.001655
-0.002512 0.00043 -0.001634
-0.001071 0.000605 -0.002544
-0.001069 0.000747 -0.002318
-0.001818 0.000559 -0.00238
-0.000172 0.000636 -0.002777
-0.001071 0.000723 -0.00259
-0.001887 0.000425 -0.002298
-0.001886 0.000435 -0.002265
-0.001882 0.000447 -0.00223
-0.001878 0.000459 -0.002194
-0.001874 0.000471 -0.002159
-0.001863 0.000487 -0.002117
-0.001849 0.000506 -0.002073
-0.001835 0.000524 -0.002029
-0.001817 0.000545 -0.001982
-0.0018 0.000565 -0.001935
-0.001781 0.000586 -0.001887
-0.001761 0.000608 -0.001837
-0.00174 0.00063 -0.001787
-0.001733 0.000645 -0.001749
-0.001736 0.000652 -0.00172
-0.001746 0.000656 -0.001695
-0.001759 0.000658 -0.001675
-0.001775 0.000658 -0.001656
-0.001793 0.000656 -0.001639
-0.001814 0.000653 -0.001624
-0.001838 0.000648 -0.001612
-0.001867 0.00064 -0.001605
-0.001908 0.000625 -0.001607
-0.002059 0.000552 -0.00167
-0.002115 0.000528 -0.001685
-0.002166 0.000507 -0.001696
-0.002215 0.000486 -0.001706
-0.002262 0.000468 -0.001713
-0.002307 0.00045 -0.001719
-0.00235 0.000434 -0.001723
-0.002392 0.000418 -0.001726
-0.00243 0.000404 -0.001726
-0.002454 0.000399 -0.001714
-0.00247 0.0004 -0.001695
-0.002484 0.000401 -0.001675
-0.002498 0.000402 -0.001655
-0.002512 0.000403 -0.001634
-0.001069 0.000599 -0.002631
-0.001646 0.000573 -0.002387
-0.001756 0.000559 -0.00242
-0.001818 0.000586 -0.002379
-0.000364 0.000724 -0.002398
-0.001887 0.000398 -0.002298
-0.001886 0.000408 -0.002265
-0.001882 0.00042 -0.00223
-0.001878 0.000432 -0.002194
-0.001874 0.000443 -0.002159
-0.001863 0.00046 -0.002118
-0.00185 0.000478 -0.002074
-0.001834 0.000497 -0.002029
-0.001817 0.000517 -0.001982
-0.0018 0.000537 -0.001935
-0.001782 0.000558 -0.001887
-0.001761 0.000581 -0.001837
-0.00174 0.000604 -0.001787
-0.001732 0.000618 -0.001749
-0.001736 0.000625 -0.001719
-0.001746 0.000629 -0.001695
-0.001759 0.000631 -0.001674
-0.001775 0.00063 -0.001656
-0.001793 0.000629 -0.001639
-0.001814 0.000626 -0.001624
-0.001838 0.000621 -0.001612
-0.001868 0.000613 -0.001605
-0.001907 0.000599 -0.001606
-0.002116 0.000501 -0.001686
-0.002166 0.00048 -0.001696
-0.002215 0.00046 -0.001705
-0.002262 0.000441 -0.001713
-0.002307 0.000423 -0.001719
-0.00235 0.000406 -0.001723
-0.002391 0.000391 -0.001725
-0.00243 0.000377 -0.001726
-0.002454 0.000372 -0.001714
-0.00247 0.000372 -0.001695
-0.002484 0.000373 -0.001675
-0.002498 0.000375 -0.001655
-0.000864 0.000673 -0.002848
-0.001069 0.000713 -0.002407
-0.001603 0.000619 -0.002367
-0.001464 0.000711 -0.002291
-0.001687 0.000664 -0.002406
-0.001887 0.000371 -0.002298
-0.001886 0.000381 -0.002265
-0.001882 0.000393 -0.002229
-0.001877 0.000405 -0.002194
-0.001874 0.000416 -0.002159
-0.001864 0.000432 -0.002118
-0.001849 0.000451 -0.002074
-0.001835 0.00047 -0.002029
-0.001818 0.00049 -0.001982
-0.0018 0.00051 -0.001935
-0.001782 0.000531 -0.001887
-0.001761 0.000554 -0.001837
-0.00174 0.000576 -0.001787
-0.001732 0.000591 -0.001749
-0.001736 0.000598 -0.001719
-0.001746 0.000602 -0.001695
-0.001759 0.000604 -0.001674
-0.001775 0.000603 -0.001656
-0.001793 0.000602 -0.001638
-0.001814 0.000599 -0.001624
-0.001838 0.000595 -0.001612
-0.001868 0.000586 -0.001605
-0.00191 0.00057 -0.001608
-0.001989 0.000532 -0.001643
-0.002116 0.000474 -0.001686
-0.002166 0.000452 -0.001696
-0.002215 0.000432 -0.001705
-0.002262 0.000414 -0.001713
-0.002307 0.000396 -0.001719
-0.00235 0.000379 -0.001723
-0.002392 0.000363 -0.001726
-0.00243 0.00035 -0.001726
-0.002454 0.000345 -0.001714
-0.002469 0.000345 -0.001695
-0.002483 0.000347 -0.001674
-0.002498 0.000348 -0.001654
-0.00107 0.000613 -0.002454
-0.001068 0.000731 -0.002362
-0.001465 0.000684 -0.002292
-0.001559 0.000693 -0.002345
-0.00188 0.000684 -0.002296
-0.001887 0.000343 -0.002298
-0.001886 0.000354 -0.002265
-0.001882 0.000365 -0.00223
-0.001878 0.000377 -0.002194
-0.001874 0.000389 -0.002159
-0.001863 0.000405 -0.002118
-0.001849 0.000424 -0.002073
-0.001834 0.000443 -0.002029
-0.001818 0.000463 -0.001982
-0.0018 0.000483 -0.001935
-0.001781 0.000504 -0.001887
-0.001762 0.000526 -0.001838
-0.00174 0.000549 -0.001787
-0.001732 0.000563 -0.001749
-0.001736 0.000571 -0.00172
-0.001746 0.000575 -0.001695
-0.001759 0.000576 -0.001674
-0.001775 0.000576 -0.001655
-0.001793 0.000575 -0.001638
-0.001814 0.000572 -0.001624
-0.001838 0.000567 -0.001612
-0.001868 0.000559 -0.001605
-0.001909 0.000543 -0.001607
-0.002115 0.000447 -0.001685
-0.002166 0.000425 -0.001696
-0.002215 0.000405 -0.001705
-0.002261 0.000387 -0.001712
-0.002307 0.000369 -0.001719
-0.00235 0.000352 -0.001723
-0.002392 0.000336 -0.001726
-0.00243 0.000323 -0.001726
-0.002454 0.000318 -0.001714
-0.002469 0.000318 -0.001695
-0.002483 0.000319 -0.001674
-0.002497 0.000321 -0.001654
-0.001071 0.000621 -0.002501
-0.00107 0.000694 -0.002454
-0.00107 0.000669 -0.002589
-0.001603 0.0007 -0.002367
-0.001879 0.00031 -0.002325
-0.001886 0.000316 -0.002297
-0.001885 0.000327 -0.002264
-0.001881 0.000339 -0.002229
-0.001877 0.00035 -0.002194
-0.001874 0.000362 -0.002159
-0.001864 0.000378 -0.002118
-0.001849 0.000397 -0.002073
-0.001835 0.000415 -0.002029
-0.001818 0.000435 -0.001982
-0.0018 0.000456 -0.001935
-0.001781 0.000477 -0.001886
-0.001761 0.000499 -0.001837
-0.001739 0.000523 -0.001786
-0.001732 0.000536 -0.001749
-0.001736 0.000544 -0.001719
-0.001746 0.000548 -0.001695
-0.001759 0.000549 -0.001674
-0.001775 0.000549 -0.001655
-0.001793 0.000548 -0.001638
-0.001813 0.000545 -0.001623
-0.001838 0.00054 -0.001612
-0.001868 0.000532 -0.001605
-0.00191 0.000516 -0.001608
-0.002059 0.000444 -0.00167
-0.002115 0.00042 -0.001685
-0.002167 0.000398 -0.001697
-0.002215 0.000378 -0.001705
-0.002262 0.000359 -0.001712
-0.002307 0.000341 -0.001719
-0.00235 0.000325 -0.001723
-0.002391 0.00031 -0.001725
-0.00243 0.000296 -0.001726
-0.002454 0.000291 -0.001714
-0.002469 0.000291 -0.001694
-0.002483 0.000293 -0.001674
-0.002497 0.000294 -0.001654
-0.001875 0.000536 -0.002332
-0.001071 0.000676 -0.002501
-0.001798 0.000586 -0.002394
-0.000803 0.000504 -0.002818
-0.001879 0.000283 -0.002325
-0.001886 0.000289 -0.002297
-0.001884 0.0003 -0.002264
-0.001881 0.000312 -0.002229
-0.001878 0.000323 -0.002194
-0.001874 0.000335 -0.002159
-0.001864 0.000351 -0.002118
-0.001849 0.00037 -0.002073
-0.001835 0.000388 -0.002029
-0.001817 0.000408 -0.001982
-0.0018 0.000429 -0.001935
-0.001781 0.00045 -0.001887
-0.00176 0.000473 -0.001837
-0.001738 0.000496 -0.001785
-0.001733 0.000509 -0.001749
-0.001736 0.000517 -0.001719
-0.001745 0.000521 -0.001695
-0.001758 0.000523 -0.001674
-0.001775 0.000522 -0.001655
-0.001793 0.000521 -0.001638
-0.001813 0.000518 -0.001623
-0.001838 0.000513 -0.001612
-0.001868 0.000504 -0.001605
-0.001911 0.000488 -0.001609
-0.001986 0.000452 -0.001641
-0.002059 0.000417 -0.00167
-0.002167 0.000371 -0.001697
-0.002215 0.000351 -0.001705
-0.002262 0.000332 -0.001713
-0.002307 0.000314 -0.001719
-0.00235 0.000298 -0.001723
-0.002391 0.000282 -0.001726
-0.00243 0.000268 -0.001726
-0.002454 0.000264 -0.001714
-0.002469 0.000264 -0.001694
-0.002483 0.000265 -0.001674
-0.002497 0.000267 -0.001654
-0.001603 0.000564 -0.002367
-0.001069 0.000626 -0.002631
-0.001559 0.000666 -0.002345
-0.001863 0.000256 -0.002343
-0.001879 0.000256 -0.002325
-0.001885 0.000262 -0.002297
-0.001884 0.000272 -0.002264
-0.00188 0.000285 -0.002228
-0.001877 0.000296 -0.002194
-0.001874 0.000308 -0.002159
-0.001864 0.000324 -0.002118
-0.00185 0.000342 -0.002074
-0.001834 0.000361 -0.002028
-0.001817 0.000381 -0.001982
-0.0018 0.000402 -0.001935
-0.001781 0.000423 -0.001886
-0.001759 0.000446 -0.001835
-0.001738 0.000469 -0.001785
-0.001732 0.000482 -0.001748
-0.001736 0.000489 -0.001719
-0.001745 0.000494 -0.001695
-0.001759 0.000495 -0.001674
-0.001775 0.000495 -0.001655
-0.001793 0.000494 -0.001638
-0.001814 0.000491 -0.001623
-0.001838 0.000486 -0.001612
-0.001868 0.000477 -0.001605
-0.00191 0.000461 -0.001608
-0.001987 0.000424 -0.001641
-0.00206 0.000389 -0.001671
-0.002116 0.000364 -0.001686
-0.002166 0.000344 -0.001696
-0.002215 0.000323 -0.001706
-0.002262 0.000305 -0.001713
-0.002307 0.000287 -0.001719
-0.00235 0.000271 -0.001723
-0.002392 0.000255 -0.001726
-0.00243 0.000241 -0.001726
-0.002453 0.000237 -0.001713
-0.002469 0.000237 -0.001694
-0.002483 0.000238 -0.001674
-0.002497 0.000239 -0.001654
-0.002511 0.000241 -0.001633
-0.000838 0.000541 -0.002848
-0.001069 0.000643 -0.002587
-0.001756 0.000587 -0.00242
-0.001863 0.000229 -0.002343
-0.001879 0.000229 -0.002324
-0.001885 0.000235 -0.002297
-0.001884 0.000245 -0.002264
-0.00188 0.000257 -0.002229
-0.001877 0.000269 -0.002194
-0.001874 0.000281 -0.002159
-0.001864 0.000297 -0.002118
-0.00185 0.000315 -0.002074
-0.001834 0.000334 -0.002028
-0.001817 0.000354 -0.001982
-0.001799 0.000375 -0.001934
-0.001781 0.000396 -0.001887
-0.001758 0.000419 -0.001835
-0.001738 0.000442 -0.001785
-0.001732 0.000455 -0.001748
-0.001736 0.000462 -0.001719
-0.001745 0.000466 -0.001695
-0.001759 0.000468 -0.001674
-0.001775 0.000468 -0.001655
-0.001793 0.000466 -0.001638
-0.001814 0.000464 -0.001623
-0.001838 0.000458 -0.001612
-0.001868 0.00045 -0.001605
-0.00206 0.000362 -0.001671
-0.002116 0.000338 -0.001686
-0.002166 0.000317 -0.001696
-0.002215 0.000296 -0.001705
-0.002262 0.000277 -0.001713
-0.002308 0.000259 -0.001719
-0.002351 0.000243 -0.001723
-0.002392 0.000227 -0.001726
-0.00243 0.000214 -0.001726
-0.002453 0.00021 -0.001713
-0.002469 0.00021 -0.001695
-0.002484 0.00021 -0.001675
-0.002498 0.000212 -0.001654
-0.002512 0.000213 -0.001634
-0.001778 0.000476 -0.002409
-0.001029 0.000536 -0.0028
-0.001688 0.000609 -0.002406
-0.001862 0.000202 -0.002343
-0.001878 0.000202 -0.002324
-0.001885 0.000208 -0.002297
-0.001884 0.000218 -0.002264
-0.00188 0.00023 -0.002229
-0.001878 0.000241 -0.002194
-0.001873 0.000254 -0.002158
-0.001864 0.000269 -0.002118
-0.001848 0.000289 -0.002073
-0.001834 0.000307 -0.002028
-0.001817 0.000327 -0.001981
-0.0018 0.000347 -0.001935
-0.00178 0.000369 -0.001886
-0.001758 0.000392 -0.001835
-0.001739 0.000414 -0.001786
-0.001732 0.000428 -0.001748
-0.001736 0.000435 -0.001719
-0.001746 0.000439 -0.001695
-0.001759 0.000441 -0.001674
-0.001775 0.00044 -0.001655
-0.001793 0.000439 -0.001638
-0.001814 0.000436 -0.001624
-0.001838 0.000431 -0.001612
-0.001869 0.000422 -0.001606
-0.001911 0.000406 -0.001609
-0.002061 0.000334 -0.001672
-0.002117 0.00031 -0.001687
-0.002166 0.000289 -0.001696
-0.002216 0.000269 -0.001706
-0.002262 0.00025 -0.001713
-0.002308 0.000232 -0.001719
-0.00235 0.000216 -0.001723
-0.002393 0.0002 -0.001727
-0.002429 0.000187 -0.001725
-0.002452 0.000183 -0.001712
-0.002469 0.000183 -0.001694
-0.002484 0.000183 -0.001674
-0.002498 0.000185 -0.001654
-0.002511 0.000186 -0.001633
-0.002524 0.000188 -0.001612
-0.001757 0.000477 -0.002421
-0.001057 0.000602 -0.002701
-0.001778 0.000585 -0.002408
-0.001861 0.000175 -0.002342
-0.001877 0.000176 -0.002323
-0.001885 0.000181 -0.002297
-0.001884 0.000191 -0.002264
-0.00188 0.000203 -0.002229
-0.001877 0.000214 -0.002194
-0.001873 0.000227 -0.002158
-0.001864 0.000242 -0.002118
-0.001849 0.000261 -0.002073
-0.001834 0.00028 -0.002028
-0.001817 0.0003 -0.001981
-0.0018 0.00032 -0.001934
-0.00178 0.000342 -0.001886
-0.001759 0.000365 -0.001835
-0.001739 0.000386 -0.001786
-0.001732 0.0004 -0.001748
-0.001736 0.000408 -0.001719
-0.001746 0.000412 -0.001695
-0.001759 0.000414 -0.001674
-0.001775 0.000413 -0.001655
-0.001793 0.000412 -0.001638
-0.001814 0.000409 -0.001624
-0.001838 0.000404 -0.001612
-0.001868 0.000395 -0.001605
-0.001911 0.000379 -0.001609
-0.002063 0.000306 -0.001673
-0.002117 0.000282 -0.001687
-0.002166 0.000262 -0.001696
-0.002216 0.000242 -0.001706
-0.002262 0.000223 -0.001713
-0.002308 0.000205 -0.001719
-0.002351 0.000189 -0.001723
-0.002392 0.000173 -0.001726
-0.002428 0.000161 -0.001724
-0.00245 0.000157 -0.001711
-0.002467 0.000157 -0.001693
-0.002483 0.000157 -0.001673
-0.002497 0.000158 -0.001653
-0.00251 0.00016 -0.001632
-0.002522 0.000162 -0.00161
-0.00176 -2e-05 -0.001126
-0.001415 0.000654 -0.002261
-0.001874 0.000563 -0.002331
-0.001874 0.000591 -0.00233
-0.00186 0.000149 -0.00234
-0.001875 0.00015 -0.002321
-0.001885 0.000154 -0.002297
-0.001884 0.000164 -0.002264
-0.00188 0.000176 -0.002229
-0.001877 0.000188 -0.002194
-0.001873 0.000199 -0.002158
-0.001864 0.000215 -0.002118
-0.001849 0.000234 -0.002073
-0.001834 0.000252 -0.002028
-0.001816 0.000274 -0.00198
-0.001799 0.000294 -0.001934
-0.00178 0.000315 -0.001885
-0.001758 0.000338 -0.001835
-0.001739 0.00036 -0.001786
-0.001732 0.000373 -0.001748
-0.001736 0.000381 -0.001719
-0.001746 0.000385 -0.001695
-0.001759 0.000386 -0.001674
-0.001775 0.000386 -0.001655
-0.001793 0.000385 -0.001638
-0.001814 0.000382 -0.001624
-0.001838 0.000377 -0.001612
-0.001869 0.000368 -0.001606
-0.001911 0.000352 -0.001609
-0.002116 0.000256 -0.001686
-0.002167 0.000235 -0.001697
-0.002216 0.000215 -0.001706
-0.002263 0.000196 -0.001713
-0.002308 0.000178 -0.001719
-0.002351 0.000162 -0.001723
-0.002392 0.000146 -0.001726
-0.002426 0.000135 -0.001723
-0.002447 0.000132 -0.001708
-0.002464 0.000131 -0.00169
-0.00248 0.000132 -0.001671
-0.002494 0.000132 -0.001651
-0.002507 0.000134 -0.00163
-0.002519 0.000136 -0.001608
-0.001746 -2e-05 -0.001145
-0.001068 0.000572 -0.00263
-8.1e-05 0.000517 -0.00296
-0.001057 0.000629 -0.002701
-0.001463 0.000739 -0.00229
-0.001872 0.000124 -0.002319
-0.001883 0.000128 -0.002295
-0.001884 0.000137 -0.002264
-0.001881 0.000148 -0.002229
-0.001878 0.00016 -0.002194
-0.001873 0.000172 -0.002158
-0.001865 0.000187 -0.002119
-0.001849 0.000206 -0.002073
-0.001834 0.000225 -0.002028
-0.001816 0.000246 -0.00198
-0.001798 0.000267 -0.001933
-0.001779 0.000288 -0.001885
-0.001758 0.000311 -0.001835
-0.001738 0.000333 -0.001786
-0.001733 0.000346 -0.001748
-0.001736 0.000354 -0.001719
-0.001746 0.000357 -0.001695
-0.001759 0.000359 -0.001674
-0.001775 0.000359 -0.001655
-0.001793 0.000357 -0.001638
-0.001814 0.000355 -0.001624
-0.001839 0.000349 -0.001612
-0.001869 0.000341 -0.001605
-0.001909 0.000326 -0.001607
-0.002063 0.000252 -0.001673
-0.002116 0.000229 -0.001686
-0.002167 0.000207 -0.001697
-0.002216 0.000187 -0.001706
-0.002262 0.000169 -0.001713
-0.002308 0.000151 -0.001719
-0.002351 0.000134 -0.001723
-0.002392 0.000119 -0.001726
-0.002423 0.00011 -0.00172
-0.002443 0.000107 -0.001704
-0.00246 0.000107 -0.001686
-0.002475 0.000107 -0.001667
-0.00249 0.000108 -0.001647
-0.002503 0.000109 -0.001626
-0.002515 0.000112 -0.001604
-0.001731 -2.1e-05 -0.001165
-0.001182 0.000764 -0.002131
-0.001886 0.00057 -0.002306
-0.00073 0.000464 -0.002748
0.001158 3e-06 0.001865
-0.001867 0.000678 -0.002321
-0.00188 0.000102 -0.002293
-0.001884 0.00011 -0.002263
-0.001881 0.000121 -0.002228
-0.001878 0.000133 -0.002194
-0.001873 0.000145 -0.002158
-0.001864 0.000161 -0.002118
-0.001849 0.00018 -0.002073
-0.001834 0.000198 -0.002028
-0.001816 0.000219 -0.00198
-0.001797 0.00024 -0.001932
-0.001779 0.000261 -0.001884
-0.001759 0.000283 -0.001835
-0.001739 0.000305 -0.001786
-0.001733 0.000319 -0.001749
-0.001736 0.000326 -0.001719
-0.001746 0.00033 -0.001695
-0.001759 0.000332 -0.001674
-0.001775 0.000332 -0.001655
-0.001793 0.00033 -0.001638
-0.001814 0.000327 -0.001624
-0.001838 0.000322 -0.001612
-0.001869 0.000314 -0.001606
-0.001909 0.000299 -0.001608
-0.002063 0.000224 -0.001673
-0.002116 0.000201 -0.001686
-0.002167 0.00018 -0.001697
-0.002216 0.00016 -0.001706
-0.002262 0.000142 -0.001713
-0.002308 0.000124 -0.001719
-0.00235 0.000107 -0.001723
-0.00239 9.3e-05 -0.001726
-0.002417 8.6e-05 -0.001715
-0.002436 8.4e-05 -0.001699
-0.002453 8.4e-05 -0.001681
-0.002469 8.4e-05 -0.001662
-0.002483 8.5e-05 -0.001642
-0.002497 8.6e-05 -0.001621
-0.002509 8.9e-05 -0.001599
-0.002519 9.2e-05 -0.001576
-0.001716 -2.1e-05 -0.001185
-0.001068 0.000756 -0.002227
-0.001798 0.000558 -0.002395
-0.001071 0.000731 -0.0025
-0.001058 0.000683 -0.002702
-0.001884 0.000654 -0.002302
-0.001851 0.000675 -0.00234
-0.001882 8.4e-05 -0.002262
-0.001881 9.4e-05 -0.002228
-0.001878 0.000106 -0.002194
-0.001874 0.000118 -0.002158
-0.001863 0.000134 -0.002117
-0.001849 0.000152 -0.002073
-0.001833 0.000172 -0.002027
-0.001815 0.000193 -0.00198
-0.001798 0.000213 -0.001933
-0.001777 0.000235 -0.001883
-0.001759 0.000256 -0.001836
-0.001739 0.000278 -0.001786
-0.001732 0.000292 -0.001748
-0.001736 0.000299 -0.001719
-0.001746 0.000303 -0.001695
-0.001759 0.000305 -0.001674
-0.001775 0.000305 -0.001655
-0.001793 0.000303 -0.001638
-0.001814 0.0003 -0.001624
-0.001838 0.000295 -0.001612
-0.001869 0.000286 -0.001606
-0.001911 0.000271 -0.001609
-0.002062 0.000198 -0.001672
-0.002116 0.000175 -0.001685
-0.002167 0.000153 -0.001697
-0.002216 0.000133 -0.001706
-0.002263 0.000114 -0.001713
-0.002308 9.6e-05 -0.001719
-0.00235 8e-05 -0.001723
-0.002385 6.8e-05 -0.001721
-0.002409 6.4e-05 -0.001708
-0.002427 6.3e-05 -0.001691
-0.002444 6.2e-05 -0.001673
-0.002459 6.2e-05 -0.001654
-0.002474 6.3e-05 -0.001634
-0.002487 6.5e-05 -0.001613
-0.0025 6.7e-05 -0.001591
-0.002511 7e-05 -0.001568
-0.0017 -2.2e-05 -0.001204
-0.001685 -2.2e-05 -0.001224
-0.001513 0.000579 -0.00232
-0.001414 0.000709 -0.002259
-0.001371 0.000738 -0.002285
-0.001069 0.00068 -0.002631
-0.001064 0.000667 -0.002668
-0.001836 0.000643 -0.002362
-0.001057 0.00071 -0.002702
-0.00188 6.7e-05 -0.002228
-0.001878 7.9e-05 -0.002194
-0.001874 9.1e-05 -0.002158
-0.001863 0.000107 -0.002117
-0.001849 0.000125 -0.002073
-0.001834 0.000144 -0.002028
-0.001813 0.000166 -0.001978
-0.001798 0.000186 -0.001933
-0.001778 0.000207 -0.001884
-0.001758 0.00023 -0.001834
-0.001739 0.000251 -0.001786
-0.001732 0.000265 -0.001748
-0.001736 0.000272 -0.001719
-0.001746 0.000276 -0.001695
-0.001759 0.000278 -0.001674
-0.001775 0.000277 -0.001655
-0.001793 0.000276 -0.001638
-0.001814 0.000273 -0.001624
-0.001839 0.000268 -0.001612
-0.001868 0.00026 -0.001605
-0.001911 0.000243 -0.001609
-0.002062 0.000171 -0.001672
-0.002116 0.000147 -0.001686
-0.002167 0.000126 -0.001696
-0.002217 0.000105 -0.001707
-0.002263 8.7e-05 -0.001713
-0.002307 7e-05 -0.001718
-0.002346 5.6e-05 -0.001719
-0.002376 4.7e-05 -0.001712
-0.002397 4.4e-05 -0.001698
-0.002415 4.3e-05 -0.001681
-0.002431 4.2e-05 -0.001662
-0.002447 4.3e-05 -0.001643
-0.002462 4.4e-05 -0.001623
-0.002475 4.5e-05 -0.001603
-0.002488 4.7e-05 -0.001581
-0.00167 -2.3e-05 -0.001243
-0.00103 0.000427 -0.0028
-0.001727 0.000594 -0.002421
-0.001383 0.000745 -0.002257
-0.001415 0.000736 -0.002261
-0.001071 0.000703 -0.0025
-0.001071 0.000695 -0.00259
-0.001797 0.000641 -0.002392
-0.001875 4.3e-05 -0.002223
-0.001876 5.2e-05 -0.002192
-0.001873 6.4e-05 -0.002158
-0.001863 8e-05 -0.002117
-0.001847 9.9e-05 -0.002071
-0.001833 0.000117 -0.002027
-0.001797 0.000159 -0.001932
-0.001779 0.000179 -0.001885
-0.001758 0.000202 -0.001834
-0.001738 0.000224 -0.001785
-0.001732 0.000238 -0.001748
-0.001736 0.000245 -0.001719
-0.001746 0.000249 -0.001695
-0.001759 0.00025 -0.001674
-0.001775 0.00025 -0.001655
-0.001793 0.000249 -0.001638
-0.001814 0.000246 -0.001624
-0.001838 0.000241 -0.001612
-0.001869 0.000232 -0.001605
-0.001912 0.000216 -0.00161
-0.00206 0.000144 -0.001671
-0.002117 0.000119 -0.001687
-0.002168 9.8e-05 -0.001697
-0.002217 7.8e-05 -0.001707
-0.002262 6e-05 -0.001712
-0.002303 4.5e-05 -0.001715
-0.002337 3.4e-05 -0.001711
-0.002362 2.8e-05 -0.001701
-0.0024 2.5e-05 -0.001668
-0.002416 2.5e-05 -0.001649
-0.002431 2.5e-05 -0.00163
-0.002446 2.6e-05 -0.00161
-0.00246 2.7e-05 -0.00159
-0.002473 2.9e-05 -0.001569
-0.001654 -2.3e-05 -0.001262
-0.001798 0.000504 -0.002394
-0.001749 0.000674 -0.00241
-0.001778 0.000531 -0.002408
-0.001071 0.000577 -0.002545
-0.00106 0.000691 -0.00226
-0.001513 0.000688 -0.00232
-0.001057 0.000656 -0.002701
-0.001861 2.4e-05 -0.002212
-0.001868 3e-05 -0.002185
-0.001869 3.9e-05 -0.002154
-0.001862 5.3e-05 -0.002116
-0.001848 7.2e-05 -0.002072
-0.001832 9.1e-05 -0.002026
-0.001816 0.000111 -0.00198
-0.001796 0.000132 -0.001931
-0.001779 0.000152 -0.001884
-0.001759 0.000175 -0.001835
-0.001737 0.000197 -0.001785
-0.001732 0.000211 -0.001748
-0.001736 0.000218 -0.001719
-0.001746 0.000222 -0.001695
-0.001759 0.000223 -0.001674
-0.001775 0.000223 -0.001655
-0.001793 0.000222 -0.001638
-0.001814 0.000219 -0.001623
-0.001839 0.000213 -0.001612
-0.001869 0.000205 -0.001605
-0.001911 0.000189 -0.001609
-0.001638 -2.3e-05 -0.001281
-0.002119 9.1e-05 -0.001688
-0.002167 7.2e-05 -0.001696
-0.002214 5.3e-05 -0.001704
-0.002259 3.5e-05 -0.001709
-0.002377 1.3e-05 -0.001648
-0.002394 1.1e-05 -0.00163
-0.002409 1.2e-05 -0.001611
-0.002424 1.2e-05 -0.001591
-0.002439 1.3e-05 -0.001572
-0.002452 1.4e-05 -0.001551
-0.001623 -2.3e-05 -0.0013
-0.001772 0.000672 -0.0024
-0.001722 0.000679 -0.002414
-0.001794 0.000671 -0.002388
-0.001065 0.000704 -0.002222
-0.001857 0.000479 -0.002349
-0.001838 0.000478 -0.002365
-0.001352 0.000744 -0.002211
-0.001065 0.000738 -0.002625
-0.001856 1.9e-05 -0.002143
-0.001857 2.9e-05 -0.002111
-0.001847 4.5e-05 -0.002071
-0.001833 6.3e-05 -0.002027
-0.001814 8.4e-05 -0.001979
-0.001797 0.000105 -0.001932
-0.001778 0.000126 -0.001884
-0.001759 0.000147 -0.001835
-0.001736 0.000171 -0.001784
-0.001732 0.000184 -0.001747
-0.001736 0.000191 -0.001719
-0.001746 0.000194 -0.001695
-0.001759 0.000196 -0.001674
-0.001775 0.000196 -0.001655
-0.001793 0.000195 -0.001638
-0.001814 0.000192 -0.001624
-0.001839 0.000186 -0.001612
-0.001869 0.000178 -0.001605
-0.001909 0.000163 -0.001607
-0.002117 6.5e-05 -0.001687
-0.002166 4.5e-05 -0.001696
-0.00221 2.8e-05 -0.0017
-0.002245 1.7e-05 -0.001698
-0.001607 -2.3e-05 -0.001319
-0.002353 9e-06 -0.001595
-0.002368 1e-05 -0.001576
-0.002383 1e-05 -0.001557
-0.002399 1e-05 -0.001538
-0.001591 -2.4e-05 -0.001338
-0.001575 -2.3e-05 -0.001356
-0.001715 1.1e-05 -0.00225
-0.00173 1.1e-05 -0.00223
-0.001818 0.000477 -0.00238
-0.00069 0.000679 -0.002704
-0.000251 0.000706 -0.002533
-0.001646 0.000682 -0.002387
-0.001824 1.2e-05 -0.002116
-0.001836 1.4e-05 -0.002094
-0.001841 2.2e-05 -0.002066
-0.001832 3.7e-05 -0.002026
-0.001812 5.9e-05 -0.001977
-0.001797 7.7e-05 -0.001932
-0.001778 9.8e-05 -0.001884
-0.001758 0.000121 -0.001834
-0.001736 0.000144 -0.001784
-0.001732 0.000156 -0.001747
-0.001736 0.000164 -0.001718
-0.001746 0.000167 -0.001695
-0.001759 0.000169 -0.001674
-0.001775 0.000169 -0.001655
-0.001793 0.000167 -0.001638
-0.001814 0.000164 -0.001624
-0.001839 0.000159 -0.001613
-0.001869 0.000151 -0.001605
-0.00191 0.000135 -0.001608
-0.002116 3.9e-05 -0.001685
-0.00216 2.1e-05 -0.001691
-0.002191 1.2e-05 -0.001685
-0.002208 1.1e-05 -0.001667
-0.002254 1.3e-05 -0.001609
-0.002271 1.2e-05 -0.001591
-0.002334 1.3e-05 -0.001515
-0.002349 1.3e-05 -0.001496
-0.001559 -2.4e-05 -0.001375
-0.001543 -2.3e-05 -0.001394
-0.001727 0.000539 -0.002421
-0.001818 0.000613 -0.00238
-0.001668 1.2e-05 -0.00221
-0.001684 1.2e-05 -0.002191
-0.001798 0.000477 -0.002395
-0.001875 0.000481 -0.002332
-0.001735 9e-06 -0.002138
-0.001752 9e-06 -0.002119
-0.001768 9e-06 -0.002101
-0.001785 9e-06 -0.002083
-0.001801 9e-06 -0.002065
-0.001817 9e-06 -0.002046
-0.001823 1.5e-05 -0.002018
-0.001799 4.9e-05 -0.001934
-0.001778 7.1e-05 -0.001884
-0.001757 9.4e-05 -0.001834
-0.001736 0.000117 -0.001783
-0.001731 0.000129 -0.001747
-0.001736 0.000136 -0.001718
-0.001745 0.00014 -0.001694
-0.001759 0.000142 -0.001673
-0.001775 0.000142 -0.001655
-0.001793 0.00014 -0.001638
-0.001814 0.000137 -0.001623
-0.001839 0.000132 -0.001613
-0.001869 0.000123 -0.001605
-0.001909 0.000108 -0.001607
-0.002108 1.6e-05 -0.001679
-0.002141 6e-06 -0.001674
-0.00216 5e-06 -0.001658
-0.002236 6e-06 -0.001561
-0.002251 6e-06 -0.001542
-0.002267 7e-06 -0.001523
-0.002282 8e-06 -0.001503
-0.002297 8e-06 -0.001484
-0.001527 -2.3e-05 -0.001412
-0.001756 0.000532 -0.00242
-0.001798 0.000613 -0.002394
-0.001634 6e-06 -0.002181
-0.001652 5e-06 -0.002164
-0.000226 0.000645 -0.002619
-0.001685 4e-06 -0.002128
-0.001703 3e-06 -0.002111
-0.00172 2e-06 -0.002093
-0.001737 1e-06 -0.002075
-0.001753 1e-06 -0.002056
-0.001768 2e-06 -0.002037
-0.001782 3e-06 -0.002016
-0.001796 4e-06 -0.001996
-0.001646 0.000709 -0.002388
-0.001799 2.2e-05 -0.001933
-0.00178 4.3e-05 -0.001885
-0.001758 6.7e-05 -0.001834
-0.001736 9e-05 -0.001783
-0.001731 0.000102 -0.001747
-0.001735 0.00011 -0.001718
-0.001745 0.000113 -0.001694
-0.001759 0.000115 -0.001673
-0.001775 0.000115 -0.001655
-0.001793 0.000113 -0.001638
-0.001814 0.00011 -0.001623
-0.001838 0.000105 -0.001612
-0.001868 9.7e-05 -0.001605
-0.00151 -2.3e-05 -0.00143
-0.002084 4e-06 -0.001659
-0.002199 2e-06 -0.00153
-0.002215 2e-06 -0.001511
-0.002231 2e-06 -0.001493
-0.002246 2e-06 -0.001473
-0.002263 2e-06 -0.001455
-0.002342 3e-06 -0.00136
-0.002357 4e-06 -0.001341
-0.002369 7e-06 -0.001318
-0.001065 0.000731 -0.002223
-0.001044 0.000549 -0.002765
-0.001886 0.000515 -0.002307
-0.000239 0.000661 -0.002578
-0.001645 1e-06 -0.002094
-0.00166 2e-06 -0.002074
-0.001674 3e-06 -0.002054
-0.00169 3e-06 -0.002035
-0.00172 4e-06 -0.001996
-0.001736 4e-06 -0.001977
-0.00175 5e-06 -0.001957
-0.001765 6e-06 -0.001937
-0.001777 8e-06 -0.001915
-0.001778 1.7e-05 -0.001884
-0.001758 3.9e-05 -0.001834
-0.001735 6.3e-05 -0.001783
-0.001731 7.5e-05 -0.001746
-0.001735 8.3e-05 -0.001718
-0.001745 8.6e-05 -0.001694
-0.001758 8.8e-05 -0.001673
-0.001775 8.8e-05 -0.001655
-0.001793 8.6e-05 -0.001638
-0.001813 8.3e-05 -0.001623
-0.001837 7.9e-05 -0.001611
-0.001868 6.9e-05 -0.001605
-0.001493 -2.2e-05 -0.001448
-0.002149 5e-06 -0.001488
-0.002165 5e-06 -0.001469
-0.00218 6e-06 -0.001449
-0.002197 5e-06 -0.001432
-0.002214 4e-06 -0.001413
-0.002279 4e-06 -0.001339
-0.002296 3e-06 -0.001321
-0.002313 2e-06 -0.001304
-0.00233 2e-06 -0.001286
-0.002338 7e-06 -0.00126
-0.001477 -2.2e-05 -0.001467
-0.001461 -2.2e-05 -0.001485
-0.001608 6e-06 -0.00203
-0.001626 5e-06 -0.002013
-0.001639 7e-06 -0.001992
-0.00167 7e-06 -0.001954
-0.001686 7e-06 -0.001935
-0.001093 0.000716 -0.002176
-0.001754 1.5e-05 -0.001831
-0.001738 3.4e-05 -0.001785
-0.001731 4.8e-05 -0.001747
-0.001734 5.6e-05 -0.001717
