0.002584 9.7e-05 -0.001506
0.002574 9.7e-05 -0.001528
0.002562 9.8e-05 -0.00155
0.002549 9.9e-05 -0.001571
0.002535 0.000101 -0.001592
0.002896 0.000628 0.000154
0.002792 0.000698 9.7e-05
0.002755 0.000741 7.9e-05
0.002918 0.000677 -0.000498
0.002861 0.000103 -0.000766
0.002829 0.000114 -0.000777
0.002796 0.000126 -0.000788
0.002763 0.000137 -0.000799
0.002721 0.000153 -0.000806
0.002676 0.000171 -0.000812
0.002629 0.00019 -0.000817
0.00258 0.00021 -0.000821
0.002529 0.000231 -0.000823
0.002481 0.00025 -0.000828
0.002428 0.000272 -0.000829
0.002384 0.000289 -0.000836
0.002355 0.000299 -0.000849
0.002334 0.000304 -0.000866
0.002319 0.000306 -0.000886
0.002308 0.000306 -0.000908
0.002299 0.000305 -0.000931
0.002293 0.000303 -0.000956
0.00229 0.000299 -0.000982
0.002294 0.000291 -0.001011
0.002307 0.00028 -0.001044
0.002408 0.000216 -0.001148
0.002444 0.000192 -0.001192
0.002478 0.000169 -0.001236
0.002508 0.000148 -0.001278
0.002534 0.000129 -0.001318
0.002559 0.000111 -0.001357
0.002582 9.3e-05 -0.001396
0.002595 8.1e-05 -0.00143
0.002593 7.7e-05 -0.001456
0.002585 7.5e-05 -0.001479
0.002576 7.4e-05 -0.001502
0.002565 7.4e-05 -0.001524
0.002553 7.5e-05 -0.001546
0.002541 7.6e-05 -0.001567
0.002527 7.8e-05 -0.001588
0.002515 0.000735 -3.2e-05
0.002867 0.000666 0.000135
0.0029 0.000639 -0.000744
0.002885 0.000701 -0.000742
0.002859 7.7e-05 -0.000764
0.002828 8.7e-05 -0.000777
0.002795 9.9e-05 -0.000787
0.002762 0.00011 -0.000799
0.002721 0.000126 -0.000806
0.002675 0.000144 -0.000812
0.002628 0.000163 -0.000816
0.00258 0.000183 -0.00082
0.002529 0.000203 -0.000823
0.00248 0.000223 -0.000827
0.002427 0.000245 -0.000829
0.002383 0.000262 -0.000835
0.002355 0.000272 -0.000849
0.002334 0.000277 -0.000866
0.002319 0.000279 -0.000887
0.002308 0.000279 -0.000908
0.002299 0.000278 -0.000931
0.002292 0.000276 -0.000956
0.00229 0.000272 -0.000982
0.002294 0.000264 -0.001011
0.002306 0.000253 -0.001044
0.002408 0.000189 -0.001148
0.002445 0.000165 -0.001193
0.002477 0.000142 -0.001236
0.002507 0.000121 -0.001278
0.002534 0.000102 -0.001318
0.002558 8.4e-05 -0.001357
0.002579 6.7e-05 -0.001394
0.002587 5.8e-05 -0.001425
0.002582 5.5e-05 -0.00145
0.002574 5.4e-05 -0.001474
0.002564 5.3e-05 -0.001497
0.002554 5.3e-05 -0.001519
0.002529 5.5e-05 -0.001562
0.002515 5.6e-05 -0.001582
0.002501 5.9e-05 -0.001603
0.002485 6.1e-05 -0.001622
0.002917 0.000569 -0.000498
0.002896 0.000655 0.000154
0.002919 0.000662 -0.000698
0.002867 5.1e-05 -0.00074
0.002851 5.4e-05 -0.00076
0.002827 6.1e-05 -0.000776
0.002796 7.1e-05 -0.000788
0.002762 8.3e-05 -0.000799
0.002721 9.9e-05 -0.000806
0.002675 0.000117 -0.000812
0.002627 0.000136 -0.000816
0.002579 0.000156 -0.00082
0.002531 0.000175 -0.000824
0.002479 0.000197 -0.000827
0.002428 0.000218 -0.000829
0.002383 0.000235 -0.000835
0.002355 0.000244 -0.000849
0.002334 0.00025 -0.000866
0.002319 0.000252 -0.000887
0.002308 0.000252 -0.000908
0.002299 0.000251 -0.000931
0.002292 0.000249 -0.000956
0.00229 0.000244 -0.000982
0.002294 0.000237 -0.001011
0.002308 0.000225 -0.001045
0.002407 0.000162 -0.001147
0.002444 0.000138 -0.001193
0.002478 0.000115 -0.001236
0.002508 9.4e-05 -0.001278
0.002533 7.5e-05 -0.001317
0.002556 5.8e-05 -0.001356
0.002572 4.4e-05 -0.001391
0.002573 3.8e-05 -0.001419
0.002567 3.5e-05 -0.001443
0.002559 3.4e-05 -0.001467
0.002514 3.5e-05 -0.001554
0.002501 3.7e-05 -0.001575
0.002487 3.9e-05 -0.001596
0.002471 4.1e-05 -0.001616
0.002947 0.000526 -0.000528
0.002903 0.000611 -0.000744
0.002863 3.2e-05 -0.000711
0.002851 3.2e-05 -0.000733
0.002838 3.3e-05 -0.000753
0.002819 3.7e-05 -0.000772
0.002793 4.6e-05 -0.000787
0.00276 5.7e-05 -0.000798
0.002721 7.2e-05 -0.000807
0.002676 8.9e-05 -0.000812
0.002628 0.000109 -0.000816
0.002581 0.000128 -0.000821
0.002532 0.000148 -0.000825
0.002479 0.00017 -0.000826
0.002426 0.000191 -0.000829
0.002383 0.000208 -0.000835
0.002354 0.000217 -0.000849
0.002334 0.000222 -0.000866
0.002319 0.000225 -0.000887
0.002308 0.000225 -0.000908
0.002299 0.000224 -0.000931
0.002292 0.000222 -0.000955
0.00229 0.000217 -0.000982
0.002294 0.00021 -0.001011
0.002307 0.000198 -0.001045
0.002407 0.000135 -0.001147
0.002444 0.000111 -0.001193
0.002477 8.8e-05 -0.001236
0.002507 6.7e-05 -0.001278
0.002531 4.9e-05 -0.001316
0.002548 3.5e-05 -0.001352
0.002557 2.4e-05 -0.001384
0.002555 2e-05 -0.00141
0.002548 1.8e-05 -0.001434
0.002495 1.8e-05 -0.001545
0.002482 2e-05 -0.001566
0.002468 2.1e-05 -0.001587
0.002453 2.3e-05 -0.001607
0.002436 2.7e-05 -0.001626
0.002996 0.00052 0.000249
0.002704 0.000733 -0.000338
0.002842 1.5e-05 -0.000701
0.002831 1.5e-05 -0.000723
0.002818 1.6e-05 -0.000744
0.002803 1.9e-05 -0.000764
0.002782 2.4e-05 -0.000781
0.002753 3.3e-05 -0.000795
0.002717 4.6e-05 -0.000805
0.002675 6.3e-05 -0.000812
0.002626 8.3e-05 -0.000815
0.002581 0.0001 -0.000821
0.002531 0.000121 -0.000824
0.002479 0.000142 -0.000827
0.002426 0.000164 -0.000829
0.002383 0.000181 -0.000835
0.002354 0.00019 -0.000849
0.002334 0.000195 -0.000867
0.002319 0.000197 -0.000886
0.002308 0.000198 -0.000908
0.002298 0.000197 -0.000931
0.002291 0.000195 -0.000955
0.00229 0.00019 -0.000982
0.002294 0.000183 -0.001011
0.002308 0.00017 -0.001045
0.002354 0.000141 -0.001095
0.002408 0.000107 -0.001148
0.002443 8.4e-05 -0.001192
0.002477 6.1e-05 -0.001236
0.002504 4.1e-05 -0.001276
0.002525 2.5e-05 -0.001314
0.002533 1.5e-05 -0.001345
0.002533 1e-05 -0.001372
0.002527 8e-06 -0.001397
0.002517 7e-06 -0.001419
0.002475 7e-06 -0.001509
0.002465 7e-06 -0.001531
0.002453 7e-06 -0.001552
0.002441 8e-06 -0.001574
0.002427 9e-06 -0.001595
0.002412 1.2e-05 -0.001615
0.002393 1.7e-05 -0.001632
0.00295 0.000493 -0.000578
0.002952 0.000494 -0.000554
0.002807 6e-06 -0.000684
0.002797 6e-06 -0.000706
0.002786 6e-06 -0.000729
0.002773 7e-06 -0.00075
0.002759 9e-06 -0.00077
0.002738 1.4e-05 -0.000788
0.00271 2.3e-05 -0.000801
0.002672 3.7e-05 -0.00081
0.002627 5.5e-05 -0.000816
0.00258 7.4e-05 -0.000821
0.00253 9.4e-05 -0.000824
0.002478 0.000115 -0.000826
0.002426 0.000137 -0.000829
0.002382 0.000154 -0.000835
0.002355 0.000163 -0.000849
0.002334 0.000168 -0.000866
0.002319 0.00017 -0.000886
0.002307 0.000171 -0.000908
0.002299 0.00017 -0.000931
0.002291 0.000168 -0.000955
0.00229 0.000163 -0.000982
0.002294 0.000156 -0.001011
0.002307 0.000144 -0.001045
0.002353 0.000114 -0.001094
0.002407 8.1e-05 -0.001148
0.002442 5.7e-05 -0.001192
0.002475 3.5e-05 -0.001235
0.002496 1.8e-05 -0.001272
0.002502 9e-06 -0.001303
0.002497 7e-06 -0.001327
0.002486 7e-06 -0.00135
0.002475 7e-06 -0.001372
0.002426 5e-06 -0.001485
0.002415 5e-06 -0.001507
0.002405 5e-06 -0.001529
0.002392 6e-06 -0.00155
0.00238 6e-06 -0.001572
0.00237 6e-06 -0.001595
0.002356 8e-06 -0.001615
0.002339 1.2e-05 -0.001634
0.002947 0.000553 -0.000528
0.002754 6e-06 -0.000658
0.002742 7e-06 -0.00068
0.002734 6e-06 -0.000703
0.002996 0.000519 0.000273
0.002709 7e-06 -0.000746
0.002699 7e-06 -0.000769
0.002686 8e-06 -0.00079
0.002662 1.5e-05 -0.000806
0.002625 2.9e-05 -0.000815
0.00258 4.7e-05 -0.000821
0.002529 6.7e-05 -0.000824
0.00248 8.7e-05 -0.000827
0.002427 0.000109 -0.000829
0.002382 0.000127 -0.000835
0.002354 0.000136 -0.000849
0.002334 0.000141 -0.000866
0.002319 0.000143 -0.000886
0.002307 0.000144 -0.000908
0.002298 0.000143 -0.000931
0.002291 0.000141 -0.000955
0.002289 0.000136 -0.000982
0.002293 0.000129 -0.001011
0.002308 0.000116 -0.001045
0.002352 8.7e-05 -0.001094
0.002443 3e-05 -0.001192
0.002465 1.3e-05 -0.00123
0.002467 6e-06 -0.001259
0.002457 6e-06 -0.001281
0.002445 6e-06 -0.001303
0.002435 6e-06 -0.001325
0.002371 6e-06 -0.001458
0.002358 7e-06 -0.00148
0.002346 7e-06 -0.001501
0.002327 7e-06 -0.001546
0.002317 7e-06 -0.001569
0.002307 6e-06 -0.001591
0.002294 8e-06 -0.001613
0.00272 8e-06 -0.000587
0.002711 7e-06 -0.00061
0.002702 6e-06 -0.000634
0.000427 -1.7e-05 0.002084
0.00267 5e-06 -0.0007
0.002663 4e-06 -0.000724
0.002653 4e-06 -0.000746
0.002642 4e-06 -0.000769
0.002631 4e-06 -0.000791
0.002612 8e-06 -0.000809
0.00258 2e-05 -0.000821
0.002529 4e-05 -0.000823
0.00248 6e-05 -0.000827
0.002426 8.3e-05 -0.000829
0.002381 0.0001 -0.000834
0.002354 0.000109 -0.000849
0.002333 0.000114 -0.000866
0.002319 0.000116 -0.000886
0.002307 0.000117 -0.000908
0.002298 0.000116 -0.000931
0.002291 0.000114 -0.000955
0.002288 0.000109 -0.000982
0.002293 0.000102 -0.001011
0.002307 8.9e-05 -0.001045
0.002352 6e-05 -0.001094
0.002407 2.6e-05 -0.001148
0.002431 8e-06 -0.001187
0.002436 0.0 -0.001216
0.002427 -1e-06 -0.001239
0.002416 -0.0 -0.001261
0.002404 1e-06 -0.001283
0.002393 1e-06 -0.001305
0.002325 3e-06 -0.001436
0.002315 2e-06 -0.001459
0.002303 3e-06 -0.001481
0.002268 5e-06 -0.001546
0.002257 5e-06 -0.001567
0.002247 4e-06 -0.00159
0.002679 2e-06 -0.000568
0.00267 1e-06 -0.000591
0.002946 0.000493 -0.000602
0.002753 0.000633 7.9e-05
0.002923 0.000524 -0.000699
0.002632 -2e-06 -0.000682
0.002622 -2e-06 -0.000704
0.002612 -2e-06 -0.000727
0.002601 -1e-06 -0.000749
0.002929 0.000523 -0.000675
0.002946 0.000521 -0.000602
0.002558 4e-06 -0.00081
0.002527 1.4e-05 -0.000823
0.002479 3.3e-05 -0.000827
0.002427 5.5e-05 -0.000829
0.002382 7.2e-05 -0.000835
0.002354 8.1e-05 -0.000849
0.002333 8.7e-05 -0.000866
0.002319 8.9e-05 -0.000886
0.002307 8.9e-05 -0.000908
0.002298 8.9e-05 -0.000931
0.00229 8.7e-05 -0.000955
0.002288 8.2e-05 -0.000981
0.002289 7.5e-05 -0.001011
0.002306 6.3e-05 -0.001044
0.002393 6e-06 -0.001141
0.002394 0.0 -0.001169
0.002343 -1e-06 -0.001281
0.002333 -1e-06 -0.001303
0.002269 -1e-06 -0.001437
0.002257 -0.0 -0.001458
0.002247 -1e-06 -0.001481
0.002235 -0.0 -0.001502
0.002227 -1e-06 -0.001526
0.002216 -1e-06 -0.001548
0.002626 0.000715 2.5e-05
0.00267 0.000696 4.3e-05
0.002712 0.000651 6.1e-05
0.002792 0.000644 9.7e-05
0.002924 0.000551 -0.000699
0.002564 1e-06 -0.000676
0.002555 0.0 -0.000699
0.002542 1e-06 -0.000721
0.002532 1e-06 -0.000743
0.002512 1e-06 -0.000788
0.002498 2e-06 -0.000809
0.002472 1e-05 -0.000823
0.002427 2.8e-05 -0.000829
0.002383 4.5e-05 -0.000835
0.002354 5.4e-05 -0.000849
0.002333 6e-05 -0.000866
0.002318 6.2e-05 -0.000886
0.002899 0.000696 -0.000719
0.002909 0.000693 -0.000696
0.00229 6e-05 -0.000955
0.002882 0.000696 -0.000467
0.002947 0.000498 -0.000528
0.002347 3e-06 -0.001119
0.002337 3e-06 -0.001141
0.002326 3e-06 -0.001163
0.002303 4e-06 -0.001207
0.002294 3e-06 -0.00123
0.002283 3e-06 -0.001252
0.002273 3e-06 -0.001274
0.002262 3e-06 -0.001296
0.002251 3e-06 -0.001319
0.002241 3e-06 -0.001341
0.002221 2e-06 -0.001386
0.00221 2e-06 -0.001408
0.002201 2e-06 -0.001431
0.002189 2e-06 -0.001453
0.002179 2e-06 -0.001475
0.00217 1e-06 -0.001498
0.002158 2e-06 -0.00152
0.002149 1e-06 -0.001543
0.002896 0.000574 0.000154
0.002481 5e-06 -0.000691
0.00247 6e-06 -0.000713
0.002431 4e-06 -0.000804
0.002415 7e-06 -0.000823
0.002381 1.9e-05 -0.000834
0.002353 2.8e-05 -0.000848
0.002333 3.3e-05 -0.000866
0.002318 3.5e-05 -0.000886
0.002758 0.000733 -0.000371
0.0028 0.000711 -0.000403
0.00229 3.3e-05 -0.000955
0.002288 2.8e-05 -0.000981
0.002937 0.000692 -0.000551
0.002305 9e-06 -0.001044
0.002309 1e-06 -0.001073
0.002293 4e-06 -0.001093
0.00228 5e-06 -0.001114
0.00227 5e-06 -0.001136
0.002259 5e-06 -0.001158
0.002249 5e-06 -0.001181
0.002237 5e-06 -0.001203
0.002226 6e-06 -0.001224
0.002215 5e-06 -0.001247
0.002205 5e-06 -0.001269
0.002194 5e-06 -0.001291
0.002183 5e-06 -0.001313
0.002164 5e-06 -0.001359
0.002152 5e-06 -0.00138
0.00214 6e-06 -0.001402
0.002129 6e-06 -0.001424
0.002119 6e-06 -0.001446
0.002108 6e-06 -0.001468
0.002098 5e-06 -0.001491
0.002091 4e-06 -0.001515
0.002079 4e-06 -0.001537
0.002069 4e-06 -0.001559
0.002055 6e-06 -0.00158
0.002997 0.000465 0.000249
0.002494 5e-06 -0.000533
0.002482 5e-06 -0.000555
0.00258 0.000735 8e-06
0.002832 0.000627 0.000116
0.002867 0.000612 0.000135
0.002896 0.000601 0.000154
0.002434 3e-06 -0.000668
0.002425 2e-06 -0.000691
0.002414 2e-06 -0.000714
0.002404 2e-06 -0.000736
0.002395 1e-06 -0.000759
0.002386 1e-06 -0.000782
0.002376 -0.0 -0.000805
0.002365 -0.0 -0.000827
0.002349 3e-06 -0.000846
0.002332 6e-06 -0.000865
0.002317 8e-06 -0.000886
0.002306 8e-06 -0.000908
0.002844 0.000689 -0.000436
0.00229 5e-06 -0.000955
0.002284 6e-06 -0.00098
0.002282 -0.0 -0.001006
0.002275 -3e-06 -0.001029
0.002265 -3e-06 -0.001052
0.002253 -3e-06 -0.001074
0.002242 -3e-06 -0.001096
0.00223 -2e-06 -0.001117
0.00222 -2e-06 -0.001139
0.002209 -2e-06 -0.001162
0.002199 -3e-06 -0.001184
0.002188 -2e-06 -0.001207
0.002177 -2e-06 -0.001228
0.002165 -2e-06 -0.00125
0.002119 -0.0 -0.001337
0.002109 0.0 -0.001359
0.002096 1e-06 -0.001381
0.002085 2e-06 -0.001403
0.002073 2e-06 -0.001424
0.002062 3e-06 -0.001446
0.00205 3e-06 -0.001468
0.002039 4e-06 -0.00149
0.002027 4e-06 -0.001512
0.002016 4e-06 -0.001534
0.002008 3e-06 -0.001557
0.002832 0.0006 0.000116
0.00236 0.000785 0.000767
0.002833 0.000708 0.000116
0.002443 -2e-06 -0.000536
0.002433 -2e-06 -0.000559
0.002931 0.000689 -0.000625
0.002925 0.00069 -0.000649
0.002873 0.000596 -0.000763
0.000403 -1.7e-05 0.002091
0.002707 0.00065 -0.000338
0.002379 -7e-06 -0.000697
0.002369 -7e-06 -0.000719
0.00236 -8e-06 -0.000742
0.002349 -8e-06 -0.000764
0.002339 -8e-06 -0.000787
0.002328 -8e-06 -0.000809
0.002317 -8e-06 -0.000831
0.002307 -8e-06 -0.000854
0.002295 -6e-06 -0.000875
0.002285 -8e-06 -0.000897
0.002753 0.00066 7.9e-05
0.002243 -8e-06 -0.000987
0.00223 -7e-06 -0.001008
0.002221 -8e-06 -0.001031
0.00221 -8e-06 -0.001053
0.002199 -8e-06 -0.001075
0.00219 -8e-06 -0.001098
0.002179 -8e-06 -0.00112
0.002167 -8e-06 -0.001142
0.002148 -9e-06 -0.001187
0.002135 -7e-06 -0.001208
0.002126 -8e-06 -0.001231
0.002105 -8e-06 -0.001276
0.002095 -9e-06 -0.001298
0.002083 -8e-06 -0.00132
0.002072 -8e-06 -0.001342
0.002061 -8e-06 -0.001364
0.00205 -7e-06 -0.001386
0.002038 -7e-06 -0.001407
0.002026 -6e-06 -0.001429
0.002014 -5e-06 -0.00145
0.002001 -4e-06 -0.001472
0.001989 -3e-06 -0.001493
0.001977 -3e-06 -0.001515
0.001966 -2e-06 -0.001537
0.001903 1.4e-05 -0.001588
0.002793 0.000616 9.7e-05
0.002905 0.000528 -0.000745
0.002794 0.000725 9.7e-05
0.002401 -7e-06 -0.000516
0.002391 -8e-06 -0.000539
0.00238 -7e-06 -0.000561
0.002872 0.000569 -0.000763
0.002904 0.000583 -0.000745
0.002653 0.000651 -0.000304
0.002326 -7e-06 -0.000671
0.002316 -7e-06 -0.000694
0.002307 -8e-06 -0.000717
0.002295 -7e-06 -0.000738
0.002283 -7e-06 -0.00076
0.002273 -7e-06 -0.000782
0.00226 -6e-06 -0.000804
0.002251 -6e-06 -0.000827
0.002241 -6e-06 -0.000849
0.002549 0.000688 0.000939
0.002217 -6e-06 -0.000892
0.002206 -5e-06 -0.000914
0.002195 -5e-06 -0.000936
0.002184 -5e-06 -0.000958
0.002175 -6e-06 -0.000981
0.002166 -7e-06 -0.001004
0.002154 -6e-06 -0.001026
0.002142 -5e-06 -0.001047
0.002132 -5e-06 -0.00107
0.002122 -6e-06 -0.001092
0.002047 -6e-06 -0.001248
0.002038 -6e-06 -0.001271
0.002027 -6e-06 -0.001293
0.002016 -6e-06 -0.001315
0.002006 -6e-06 -0.001337
0.001995 -6e-06 -0.001359
0.001987 -7e-06 -0.001383
0.001976 -8e-06 -0.001405
0.001891 -7e-06 -0.001583
0.001875 -5e-06 -0.001603
0.002843 0.00058 -0.000436
0.002357 -6e-06 -0.000468
0.002346 -6e-06 -0.00049
0.002334 -5e-06 -0.000511
0.002323 -5e-06 -0.000533
0.002913 0.000707 -0.000497
0.002288 -3e-06 -0.000598
0.002278 -4e-06 -0.000621
0.002255 -3e-06 -0.000664
0.002244 -3e-06 -0.000686
0.002232 -2e-06 -0.000708
0.002221 -2e-06 -0.00073
0.00221 -2e-06 -0.000752
0.002199 -1e-06 -0.000774
0.002188 -1e-06 -0.000796
0.002177 -1e-06 -0.000818
0.002165 -1e-06 -0.00084
0.002156 -1e-06 -0.000863
0.002144 -0.0 -0.000884
0.002935 0.000689 -0.0006
0.002089 1e-06 -0.000994
0.002081 -1e-06 -0.001018
0.002068 0.0 -0.001039
0.001977 -2e-06 -0.001241
0.001967 -3e-06 -0.001264
0.001936 -3e-06 -0.001331
0.001926 -4e-06 -0.001353
0.001917 -4e-06 -0.001377
0.001906 -4e-06 -0.001398
0.001899 -5e-06 -0.001422
0.001887 -4e-06 -0.001444
0.001877 -5e-06 -0.001467
0.001865 -5e-06 -0.001488
0.001828 -8e-06 -0.00158
0.002316 -1e-06 -0.000393
0.002304 -0.0 -0.000415
0.002295 -1e-06 -0.000438
0.002282 -0.0 -0.000459
0.002272 -0.0 -0.000481
0.002946 0.000548 -0.000602
0.002954 0.000548 -0.000554
0.00224 0.0 -0.000548
0.00223 -1e-06 -0.000571
0.002217 1e-06 -0.000591
0.002208 -0.0 -0.000614
0.002655 0.000737 -0.000314
0.002931 0.000696 -0.000525
0.002161 2e-06 -0.000701
0.002149 3e-06 -0.000723
0.00214 2e-06 -0.000746
0.002129 2e-06 -0.000768
0.002117 3e-06 -0.000789
0.002105 3e-06 -0.000811
0.002096 3e-06 -0.000834
0.002706 0.000624 -0.000338
0.002935 0.000522 -0.000651
0.002451 0.000683 0.000853
0.002032 2e-06 -0.000967
0.002022 3e-06 -0.00099
0.001927 2e-06 -0.00119
0.001914 4e-06 -0.001211
0.001905 3e-06 -0.001234
0.001846 0.0 -0.00137
0.001834 1e-06 -0.001391
0.001824 0.0 -0.001414
0.001817 -1e-06 -0.001438
0.001806 -1e-06 -0.00146
0.001796 -2e-06 -0.001483
0.00226 1e-06 -0.000366
0.002246 2e-06 -0.000387
0.002235 2e-06 -0.000409
0.002227 1e-06 -0.000432
0.002214 3e-06 -0.000453
0.002205 2e-06 -0.000476
0.002193 2e-06 -0.000498
0.002183 2e-06 -0.00052
0.002171 3e-06 -0.000542
0.002162 2e-06 -0.000565
0.002151 2e-06 -0.000587
0.002867 0.00064 0.000135
0.002754 0.000653 -0.000371
0.002923 0.000725 -0.000549
0.002099 1e-06 -0.000699
0.00209 1e-06 -0.000722
0.00208 0.0 -0.000744
0.002069 1e-06 -0.000766
0.002058 1e-06 -0.000788
0.002945 0.00063 -0.000602
0.002867 0.000585 0.000134
0.002026 1e-06 -0.000855
0.002882 0.00056 -0.000467
0.002941 0.000521 -0.000627
0.001995 -0.0 -0.000922
0.001985 -0.0 -0.000944
0.001973 -0.0 -0.000966
0.001919 1e-06 -0.001077
0.001908 1e-06 -0.001099
0.001898 1e-06 -0.001121
0.001887 1e-06 -0.001144
0.001876 1e-06 -0.001166
0.001865 2e-06 -0.001187
0.00179 2e-06 -0.001343
0.001779 2e-06 -0.001365
0.001768 2e-06 -0.001387
0.001747 2e-06 -0.001432
0.001736 2e-06 -0.001453
0.001727 1e-06 -0.001477
0.001718 0.0 -0.0015
0.002484 0.000721 0.000882
0.002194 2e-06 -0.000362
0.002186 1e-06 -0.000385
0.002175 1e-06 -0.000407
0.002166 -0.0 -0.00043
0.002155 0.0 -0.000452
0.002145 -0.0 -0.000475
0.002136 -1e-06 -0.000498
0.002126 -1e-06 -0.00052
0.002116 -2e-06 -0.000543
0.002107 -2e-06 -0.000566
0.002923 0.000633 -0.000698
0.002705 0.000678 -0.000338
0.002626 0.000688 2.5e-05
0.002802 0.000575 -0.000404
0.002755 0.000707 -0.000371
0.002048 -5e-06 -0.000701
0.002038 -5e-06 -0.000724
0.002027 -5e-06 -0.000746
0.002017 -6e-06 -0.000769
0.002007 -6e-06 -0.000791
0.001997 -6e-06 -0.000814
0.001987 -6e-06 -0.000836
0.001976 -7e-06 -0.000858
0.001966 -7e-06 -0.000881
0.001955 -6e-06 -0.000903
0.001945 -7e-06 -0.000925
0.001935 -7e-06 -0.000948
0.001924 -7e-06 -0.00097
0.001913 -7e-06 -0.000992
0.001902 -7e-06 -0.001014
0.001891 -6e-06 -0.001036
0.001881 -6e-06 -0.001059
0.00187 -6e-06 -0.001081
0.001857 -6e-06 -0.001102
0.001847 -5e-06 -0.001124
0.001834 -5e-06 -0.001146
0.001824 -5e-06 -0.001168
0.001811 -4e-06 -0.001189
0.001754 -2e-06 -0.001298
0.001743 -1e-06 -0.00132
0.001731 -1e-06 -0.001342
0.001675 1e-06 -0.001451
0.001663 1e-06 -0.001473
0.002575 0.000701 0.000967
0.002151 -3e-06 -0.000341
0.002142 -4e-06 -0.000364
0.002134 -5e-06 -0.000387
0.002124 -6e-06 -0.00041
0.002116 -6e-06 -0.000434
0.002107 -7e-06 -0.000456
0.002098 -8e-06 -0.000479
0.002946 0.00066 -0.000552
0.002934 0.000658 -0.00065
0.002927 0.00066 -0.000674
0.002914 0.000635 -0.000722
0.002801 0.000629 -0.000404
0.002843 0.000608 -0.000435
0.002935 0.000631 -0.000651
0.002024 -1.4e-05 -0.000663
0.002014 -1.4e-05 -0.000685
0.002004 -1.5e-05 -0.000708
0.001994 -1.5e-05 -0.00073
0.001985 -1.6e-05 -0.000753
0.001974 -1.6e-05 -0.000776
0.001964 -1.6e-05 -0.000798
0.001954 -1.6e-05 -0.00082
0.001943 -1.6e-05 -0.000843
0.001933 -1.7e-05 -0.000865
0.001923 -1.7e-05 -0.000887
0.001912 -1.7e-05 -0.00091
0.001902 -1.7e-05 -0.000932
0.001891 -1.7e-05 -0.000954
0.00188 -1.7e-05 -0.000976
0.001869 -1.6e-05 -0.000998
0.001858 -1.6e-05 -0.00102
0.001847 -1.6e-05 -0.001042
0.001835 -1.6e-05 -0.001064
0.001824 -1.5e-05 -0.001086
0.001813 -1.5e-05 -0.001108
0.001801 -1.4e-05 -0.001129
0.001789 -1.4e-05 -0.001151
0.001777 -1.3e-05 -0.001172
0.002416 0.000701 0.000824
0.002541 0.000751 -1.1e-05
0.000379 -1.7e-05 0.002097
0.002754 0.000687 7.9e-05
0.002712 0.000705 6.1e-05
0.002832 0.000654 0.000116
0.002924 0.000578 -0.000699
0.002917 0.000579 -0.000722
0.002941 0.000575 -0.000627
0.002383 0.000723 0.00072
0.002946 0.000575 -0.000602
0.002844 0.000553 -0.000436
0.00258 0.000707 8e-06
0.002538 0.000726 -1e-05
0.002917 0.000525 -0.000723
0.001993 -2.5e-05 -0.000648
0.001984 -2.6e-05 -0.000671
0.001973 -2.6e-05 -0.000693
0.001964 -2.7e-05 -0.000716
0.001955 -2.7e-05 -0.000739
0.001945 -2.8e-05 -0.000761
0.001935 -2.8e-05 -0.000784
0.001925 -2.8e-05 -0.000806
0.001915 -2.9e-05 -0.000829
0.001904 -2.9e-05 -0.000851
0.001894 -2.9e-05 -0.000873
0.001883 -2.9e-05 -0.000896
0.001873 -2.9e-05 -0.000918
0.001862 -2.9e-05 -0.00094
0.001851 -2.9e-05 -0.000962
0.00184 -2.9e-05 -0.000984
0.001828 -2.8e-05 -0.001006
0.001816 -2.7e-05 -0.001028
0.001806 -2.7e-05 -0.00105
0.001794 -2.7e-05 -0.001072
0.001782 -2.6e-05 -0.001093
0.00177 -2.6e-05 -0.001115
0.001758 -2.5e-05 -0.001136
0.001747 -2.4e-05 -0.001158
0.002941 0.000494 -0.000627
0.002936 0.000494 -0.000651
0.00293 0.000495 -0.000675
0.002924 0.000496 -0.000699
0.002918 0.000497 -0.000723
0.002906 0.000501 -0.000745
0.002873 0.000514 -0.000763
0.002337 0.000752 -0.000876
0.002323 0.000758 -0.000899
0.002922 0.000537 0.000171
0.002895 0.000547 0.000155
0.002867 0.000558 0.000135
0.002831 0.000573 0.000116
0.002793 0.000589 9.7e-05
0.002752 0.000606 7.9e-05
0.002711 0.000624 6.1e-05
0.002671 0.000641 4.3e-05
0.002626 0.000661 2.5e-05
0.002581 0.00068 7e-06
0.002537 0.000699 -1e-05
0.002513 0.000708 -3.1e-05
0.002498 0.000714 -5.4e-05
0.002992 0.000599 0.000323
0.002979 0.0006 0.00042
0.002948 0.000612 0.000466
0.002971 0.000602 0.000444
0.002902 0.000632 0.000485
0.002984 0.000599 0.000396
0.002549 0.00066 0.000939
0.002654 0.000623 -0.000304
0.002705 0.000597 -0.000338
0.002756 0.000571 -0.000371
0.002801 0.000548 -0.000404
0.002843 0.000526 -0.000436
0.002881 0.000506 -0.000467
0.002918 0.000487 -0.000498
0.002948 0.000471 -0.000528
0.002952 0.000467 -0.000554
0.00295 0.000466 -0.000578
0.002946 0.000466 -0.000603
0.002941 0.000467 -0.000627
0.002935 0.000467 -0.000651
0.00293 0.000468 -0.000675
0.002924 0.000469 -0.000699
0.002918 0.00047 -0.000723
0.002906 0.000474 -0.000745
0.002873 0.000487 -0.000763
0.002331 0.000728 -0.000875
0.002315 0.000734 -0.000897
0.002304 0.000738 -0.000921
0.002295 0.00074 -0.000944
0.002289 0.000741 -0.000968
0.002921 0.000511 0.000171
0.002895 0.000519 0.000155
0.002867 0.000531 0.000135
0.002831 0.000546 0.000116
0.002792 0.000562 9.7e-05
0.002753 0.000579 7.9e-05
0.002711 0.000597 6.1e-05
0.002669 0.000615 4.3e-05
0.002625 0.000634 2.5e-05
0.002581 0.000653 7e-06
0.002537 0.000672 -1e-05
0.002513 0.000681 -3.1e-05
0.002498 0.000686 -5.4e-05
0.002488 0.000689 -7.7e-05
0.002945 0.000667 0.000466
0.002974 0.000656 0.00042
0.002988 0.00066 0.000248
0.002951 0.00068 0.000194
0.002987 0.000599 0.000372
0.002995 0.000463 0.000298
0.002704 0.00057 -0.000338
0.002756 0.000543 -0.000371
0.002801 0.00052 -0.000404
0.002843 0.000499 -0.000436
0.00288 0.000479 -0.000467
0.002917 0.00046 -0.000498
0.002948 0.000444 -0.000528
0.002954 0.000439 -0.000554
0.002951 0.000439 -0.000578
0.002946 0.000439 -0.000603
0.002941 0.00044 -0.000627
0.002935 0.00044 -0.000651
0.00293 0.000441 -0.000675
0.002924 0.000442 -0.000699
0.002918 0.000443 -0.000723
0.002906 0.000446 -0.000745
0.002873 0.00046 -0.000763
0.00233 0.000702 -0.000875
0.002314 0.000707 -0.000897
0.002295 0.000713 -0.000944
0.00229 0.000713 -0.000968
0.002386 0.000719 0.00077
0.002894 0.000492 0.000155
0.002867 0.000504 0.000135
0.002832 0.000518 0.000116
0.002792 0.000535 9.7e-05
0.002752 0.000552 7.9e-05
0.00271 0.00057 6.1e-05
0.002668 0.000588 4.3e-05
0.002626 0.000606 2.5e-05
0.002579 0.000626 8e-06
0.002537 0.000644 -1e-05
0.002513 0.000654 -3.1e-05
0.002498 0.000659 -5.4e-05
0.002488 0.000662 -7.7e-05
0.002482 0.000663 -0.000101
0.002946 0.00071 0.000193
0.002801 0.00073 0.00052
0.002977 0.000666 0.000222
0.002994 0.000572 0.000298
0.002382 0.000722 0.000745
0.002758 0.000515 -0.000372
0.002802 0.000493 -0.000404
0.002844 0.000471 -0.000436
0.00288 0.000452 -0.000467
0.002917 0.000433 -0.000498
0.002947 0.000417 -0.000528
0.002955 0.000411 -0.000554
0.002952 0.000411 -0.000579
0.002947 0.000411 -0.000603
0.002942 0.000412 -0.000627
0.002937 0.000412 -0.000651
0.002931 0.000413 -0.000675
0.002925 0.000414 -0.000699
0.002918 0.000416 -0.000723
0.002906 0.000419 -0.000745
0.002874 0.000432 -0.000763
0.002295 0.000686 -0.000944
0.002291 0.000686 -0.000968
0.002483 0.00064 0.000881
0.002895 0.000465 0.000155
0.002867 0.000476 0.000135
0.002831 0.000492 0.000116
0.002792 0.000508 9.7e-05
0.002752 0.000525 7.9e-05
0.00271 0.000543 6.1e-05
0.002668 0.000561 4.3e-05
0.002625 0.000579 2.5e-05
0.002579 0.000599 8e-06
0.002537 0.000617 -1e-05
0.002513 0.000627 -3.1e-05
0.002498 0.000632 -5.4e-05
0.002488 0.000635 -7.7e-05
0.002482 0.000636 -0.000101
0.00248 0.000634 -0.000126
0.002903 0.000686 0.000486
0.002564 0.000689 0.000575
0.002996 0.000573 0.000273
0.00247 0.000727 0.000588
0.002802 0.000466 -0.000404
0.002843 0.000445 -0.000436
0.00288 0.000425 -0.000467
0.002917 0.000406 -0.000498
0.002948 0.000389 -0.000528
0.002955 0.000384 -0.000554
0.002951 0.000384 -0.000578
0.002946 0.000385 -0.000603
0.002941 0.000385 -0.000627
0.002936 0.000386 -0.000651
0.00293 0.000387 -0.000675
0.002924 0.000387 -0.000699
0.002918 0.000388 -0.000723
0.002906 0.000392 -0.000745
0.002873 0.000405 -0.000763
0.002295 0.000659 -0.000944
0.002923 0.000428 0.000171
0.002895 0.000438 0.000155
0.002868 0.000449 0.000135
0.002831 0.000464 0.000116
0.002792 0.000481 9.7e-05
0.002752 0.000498 7.9e-05
0.002709 0.000516 6.1e-05
0.002667 0.000534 4.3e-05
0.002624 0.000553 2.5e-05
0.002579 0.000572 8e-06
0.002537 0.00059 -1e-05
0.002512 0.0006 -3.1e-05
0.002497 0.000605 -5.4e-05
0.002488 0.000608 -7.7e-05
0.002482 0.000608 -0.000101
0.00248 0.000607 -0.000126
0.002744 0.000729 0.000541
0.002994 0.0006 0.000298
0.00295 0.000599 0.000193
0.002658 0.00071 -0.000309
0.002758 0.000461 -0.000372
0.002803 0.000438 -0.000404
0.002844 0.000417 -0.000436
0.00288 0.000398 -0.000467
0.002918 0.000378 -0.000498
0.002946 0.000363 -0.000528
0.002954 0.000357 -0.000554
0.002951 0.000357 -0.000579
0.002946 0.000357 -0.000603
0.002941 0.000358 -0.000627
0.002935 0.000359 -0.000651
0.00293 0.000359 -0.000675
0.002924 0.00036 -0.000699
0.002918 0.000361 -0.000723
0.002906 0.000365 -0.000745
0.002875 0.000378 -0.000763
0.00296 0.000719 0.000393
0.002895 0.000411 0.000154
0.002868 0.000422 0.000134
0.002831 0.000437 0.000116
0.002792 0.000454 9.7e-05
0.002752 0.000471 7.9e-05
0.002709 0.000489 6.1e-05
0.002668 0.000507 4.3e-05
0.002624 0.000525 2.5e-05
0.00258 0.000544 7e-06
0.002537 0.000563 -1e-05
0.002512 0.000573 -3.1e-05
0.002497 0.000578 -5.4e-05
0.002488 0.000581 -7.7e-05
0.002482 0.000581 -0.000101
0.00248 0.00058 -0.000126
0.002991 0.000657 0.000273
0.002994 0.000603 0.000248
0.000355 -1.6e-05 0.002104
0.002483 0.000753 -0.000161
0.002513 0.000745 -0.00023
0.002708 0.00046 -0.000338
0.002757 0.000434 -0.000372
0.002802 0.000411 -0.000404
0.002845 0.000389 -0.000436
0.00288 0.000371 -0.000467
0.002917 0.000351 -0.000498
0.002947 0.000336 -0.000528
0.002954 0.00033 -0.000554
0.002951 0.00033 -0.000579
0.002946 0.00033 -0.000603
0.002941 0.000331 -0.000627
0.002936 0.000331 -0.000651
0.00293 0.000332 -0.000675
0.002925 0.000333 -0.000699
0.002918 0.000334 -0.000723
0.002906 0.000338 -0.000745
0.002874 0.00035 -0.000763
0.002415 0.000729 0.000824
0.002895 0.000384 0.000153
0.002866 0.000395 0.000135
0.002831 0.00041 0.000116
0.00279 0.000427 9.7e-05
0.002752 0.000443 7.9e-05
0.002707 0.000463 6.1e-05
0.002668 0.000479 4.3e-05
0.002625 0.000498 2.5e-05
0.00258 0.000517 7e-06
0.002537 0.000536 -1e-05
0.002512 0.000545 -3.1e-05
0.002497 0.000551 -5.4e-05
0.002487 0.000553 -7.7e-05
0.002482 0.000554 -0.000101
0.00248 0.000553 -0.000126
0.002992 0.000627 0.000323
0.002987 0.000572 0.000371
0.000331 -1.5e-05 0.002109
0.002997 0.000493 0.000249
0.002204 0.000599 0.002055
0.002707 0.000433 -0.000338
0.002756 0.000408 -0.000371
0.002803 0.000384 -0.000404
0.002843 0.000363 -0.000436
0.002882 0.000343 -0.000467
0.002918 0.000324 -0.000498
0.002946 0.000309 -0.000528
0.002954 0.000303 -0.000554
0.002951 0.000303 -0.000579
0.002946 0.000303 -0.000603
0.002941 0.000304 -0.000627
0.002935 0.000304 -0.000651
0.00293 0.000305 -0.000675
0.002924 0.000306 -0.000699
0.002918 0.000307 -0.000723
0.002905 0.000311 -0.000745
0.002983 0.000473 0.000222
0.002896 0.000356 0.000153
0.002866 0.000368 0.000135
0.002832 0.000382 0.000115
0.002792 0.000399 9.7e-05
0.002753 0.000416 7.9e-05
0.002709 0.000435 6.1e-05
0.002667 0.000453 4.3e-05
0.002625 0.000471 2.5e-05
0.00258 0.00049 7e-06
0.002537 0.000509 -1e-05
0.002512 0.000518 -3.1e-05
0.002497 0.000524 -5.4e-05
0.002487 0.000526 -7.7e-05
0.002482 0.000527 -0.000101
0.00248 0.000526 -0.000126
0.002969 0.00063 0.000444
0.002984 0.000572 0.000396
0.002518 0.000731 0.000911
0.002386 0.00073 0.000767
0.002451 0.000711 0.000853
0.002706 0.000406 -0.000338
0.002757 0.00038 -0.000372
0.002804 0.000356 -0.000404
0.002843 0.000336 -0.000436
0.002881 0.000316 -0.000467
0.002917 0.000297 -0.000498
0.002947 0.000281 -0.000528
0.002954 0.000276 -0.000554
0.00295 0.000276 -0.000578
0.002945 0.000276 -0.000603
0.00294 0.000277 -0.000627
0.002934 0.000278 -0.000651
0.002929 0.000278 -0.000675
0.002923 0.000279 -0.000699
0.002917 0.00028 -0.000723
0.002905 0.000284 -0.000745
0.002549 0.000633 0.000939
0.002895 0.000329 0.000154
0.002866 0.000341 0.000135
0.002831 0.000356 0.000116
0.002793 0.000372 9.7e-05
0.002753 0.000389 7.9e-05
0.00271 0.000407 6.1e-05
0.002667 0.000425 4.3e-05
0.002625 0.000444 2.5e-05
0.00258 0.000463 7e-06
0.002537 0.000481 -1e-05
0.002513 0.000491 -3.1e-05
0.002497 0.000497 -5.4e-05
0.002487 0.000499 -7.7e-05
0.002482 0.0005 -0.000101
0.00248 0.000498 -0.000126
0.002994 0.000627 0.000298
0.0029 0.000605 0.000485
0.002995 0.000545 0.000298
0.000505 0.000613 0.002967
0.002415 0.000674 0.000824
0.002707 0.000379 -0.000338
0.002757 0.000353 -0.000372
0.002804 0.000329 -0.000404
0.002844 0.000308 -0.000436
0.00288 0.000289 -0.000467
0.002918 0.00027 -0.000498
0.002947 0.000254 -0.000528
0.002953 0.000249 -0.000554
0.00295 0.000249 -0.000578
0.002945 0.000249 -0.000603
0.00294 0.00025 -0.000627
0.002935 0.00025 -0.000651
0.002929 0.000251 -0.000675
0.002923 0.000252 -0.000699
0.002917 0.000253 -0.000723
0.002922 0.000293 0.000171
0.002894 0.000302 0.000155
0.002867 0.000313 0.000135
0.002831 0.000328 0.000115
0.002791 0.000345 9.7e-05
0.002753 0.000362 7.9e-05
0.00271 0.00038 6.1e-05
0.002667 0.000398 4.3e-05
0.002624 0.000417 2.5e-05
0.00258 0.000436 7e-06
0.002537 0.000454 -1e-05
0.002512 0.000464 -3.1e-05
0.002497 0.000469 -5.4e-05
0.002487 0.000472 -7.7e-05
0.002482 0.000473 -0.000101
0.00248 0.000471 -0.000126
0.002978 0.000628 0.00042
0.002948 0.000584 0.000466
0.002902 0.000577 0.000485
0.002483 0.000667 0.000881
0.002709 0.00035 -0.000339
0.002758 0.000325 -0.000372
0.002803 0.000302 -0.000404
0.002844 0.000281 -0.000436
0.002881 0.000261 -0.000467
0.002917 0.000242 -0.000498
0.002947 0.000227 -0.000528
0.002953 0.000222 -0.000554
0.002951 0.000221 -0.000579
0.002946 0.000221 -0.000603
0.002941 0.000222 -0.000627
0.002935 0.000223 -0.000651
0.00293 0.000224 -0.000675
0.002924 0.000225 -0.000699
0.002917 0.000226 -0.000723
0.002922 0.000266 0.00017
0.002894 0.000275 0.000155
0.002866 0.000287 0.000135
0.00283 0.000302 0.000116
0.002791 0.000318 9.7e-05
0.002753 0.000334 7.8e-05
0.00271 0.000353 6.1e-05
0.002667 0.000371 4.3e-05
0.002624 0.00039 2.5e-05
0.00258 0.000409 7e-06
0.002537 0.000427 -1e-05
0.002512 0.000437 -3.1e-05
0.002497 0.000442 -5.4e-05
0.002488 0.000445 -7.7e-05
0.002482 0.000445 -0.000101
0.002481 0.000444 -0.000126
0.002854 0.00068 0.000504
0.002611 0.00067 0.000568
0.002974 0.000547 0.000444
0.002619 0.000698 -0.000293
0.002693 0.000611 0.000549
0.002707 0.000324 -0.000338
0.002757 0.000298 -0.000372
0.002804 0.000274 -0.000404
0.002844 0.000254 -0.000436
0.002881 0.000234 -0.000467
0.002919 0.000215 -0.000498
0.002946 0.0002 -0.000528
0.002952 0.000195 -0.000554
0.00295 0.000194 -0.000579
0.002946 0.000194 -0.000603
0.002941 0.000195 -0.000627
0.002935 0.000196 -0.000651
0.00293 0.000196 -0.000675
0.002924 0.000197 -0.000699
0.002916 0.000199 -0.000723
0.002451 0.000657 0.000853
0.002894 0.000248 0.000155
0.002866 0.00026 0.000135
0.00283 0.000274 0.000116
0.002793 0.00029 9.7e-05
0.002752 0.000308 7.9e-05
0.002708 0.000326 6.1e-05
0.002667 0.000344 4.3e-05
0.002623 0.000363 2.5e-05
0.002579 0.000382 7e-06
0.002537 0.0004 -1.1e-05
0.002513 0.000409 -3.1e-05
0.002497 0.000415 -5.4e-05
0.002488 0.000418 -7.7e-05
0.002482 0.000418 -0.000101
0.002481 0.000417 -0.000126
0.002983 0.000626 0.000396
0.002854 0.000626 0.000504
0.00299 0.000545 0.000347
0.0029 0.000524 0.000485
0.002571 0.000649 0.000966
0.002708 0.000297 -0.000338
0.002758 0.000271 -0.000372
0.002804 0.000247 -0.000404
0.002842 0.000227 -0.000436
0.002882 0.000207 -0.000467
0.002918 0.000188 -0.000498
0.002945 0.000173 -0.000528
0.002951 0.000168 -0.000554
0.002949 0.000168 -0.000578
0.002945 0.000168 -0.000603
0.00294 0.000168 -0.000627
0.002934 0.000169 -0.000651
0.002929 0.00017 -0.000675
0.002923 0.000171 -0.000699
0.002916 0.000172 -0.000723
0.002903 0.000176 -0.000744
0.002621 0.000724 -0.000293
0.002896 0.00022 0.000154
0.002866 0.000233 0.000134
0.002829 0.000248 0.000116
0.002793 0.000263 9.7e-05
0.002752 0.00028 7.9e-05
0.002709 0.000299 6.1e-05
0.002666 0.000317 4.3e-05
0.002622 0.000336 2.5e-05
0.00258 0.000354 7e-06
0.002537 0.000372 -1.1e-05
0.002513 0.000382 -3.2e-05
0.002497 0.000388 -5.4e-05
0.002488 0.00039 -7.7e-05
0.002482 0.000391 -0.000101
0.002481 0.00039 -0.000126
0.002993 0.000631 0.000248
0.002989 0.000572 0.000347
0.002993 0.000545 0.000323
0.002495 0.000723 -0.000209
0.00295 0.00049 0.000193
0.002708 0.000269 -0.000339
0.002758 0.000244 -0.000372
0.002804 0.00022 -0.000404
0.002843 0.0002 -0.000436
0.002883 0.000179 -0.000467
0.002919 0.00016 -0.000499
0.002944 0.000147 -0.000528
0.002948 0.000143 -0.000553
0.002947 0.000141 -0.000578
0.002944 0.000141 -0.000603
0.002939 0.000141 -0.000627
0.002934 0.000142 -0.000651
0.002928 0.000143 -0.000675
0.002921 0.000144 -0.000699
0.002913 0.000146 -0.000722
0.002901 0.00015 -0.000745
0.002482 0.000752 -0.000136
0.002894 0.000194 0.000155
0.002866 0.000205 0.000135
0.002829 0.000221 0.000116
0.002792 0.000236 9.7e-05
0.002751 0.000254 7.9e-05
0.002708 0.000272 6.1e-05
0.002667 0.00029 4.3e-05
0.002622 0.000309 2.5e-05
0.002579 0.000327 7e-06
0.002537 0.000345 -1.1e-05
0.002513 0.000355 -3.1e-05
0.002497 0.000361 -5.4e-05
0.002488 0.000363 -7.7e-05
0.002482 0.000364 -0.000101
0.002481 0.000362 -0.000126
0.002902 0.000659 0.000485
0.00298 0.000572 0.00042
0.002948 0.000557 0.000466
0.002997 0.000491 0.000273
0.002854 0.000544 0.000504
0.002708 0.000242 -0.000339
0.002757 0.000217 -0.000372
0.002805 0.000193 -0.000405
0.002845 0.000172 -0.000436
0.002883 0.000152 -0.000468
0.002919 0.000133 -0.000499
0.00294 0.000121 -0.000527
0.002944 0.000117 -0.000553
0.002943 0.000116 -0.000577
0.00294 0.000116 -0.000602
0.002936 0.000116 -0.000626
0.002931 0.000116 -0.00065
0.002925 0.000117 -0.000674
0.002918 0.000119 -0.000698
0.002909 0.000121 -0.000722
0.002897 0.000124 -0.000744
0.002383 0.00075 0.000721
0.002894 0.000167 0.000155
0.002866 0.000178 0.000134
0.00283 0.000193 0.000116
0.002792 0.000209 9.7e-05
0.002751 0.000227 7.9e-05
0.002708 0.000245 6.1e-05
0.002666 0.000263 4.3e-05
0.00262 0.000283 2.6e-05
0.002579 0.0003 7e-06
0.002537 0.000318 -1.1e-05
0.002513 0.000328 -3.2e-05
0.002497 0.000333 -5.4e-05
0.002488 0.000336 -7.7e-05
0.002482 0.000337 -0.000101
0.00248 0.000335 -0.000126
0.002995 0.000628 0.000273
0.002972 0.000574 0.000444
0.002984 0.000544 0.000396
0.002982 0.000555 0.000222
0.00271 0.000214 -0.000339
0.002759 0.000189 -0.000372
0.002805 0.000166 -0.000405
0.002844 0.000145 -0.000436
0.002882 0.000125 -0.000467
0.002918 0.000106 -0.000498
0.002935 9.7e-05 -0.000526
0.002937 9.3e-05 -0.000552
0.002936 9.2e-05 -0.000576
0.002933 9.2e-05 -0.000601
0.00293 9.2e-05 -0.000625
0.002925 9.2e-05 -0.000649
0.002919 9.3e-05 -0.000673
0.002911 9.5e-05 -0.000697
0.002903 9.7e-05 -0.000721
0.002891 0.0001 -0.000743
0.002868 0.000109 -0.000763
0.002389 0.000748 0.000696
0.002895 0.000139 0.000155
0.002866 0.000151 0.000135
0.002829 0.000166 0.000116
0.002791 0.000182 9.7e-05
0.002751 0.000199 7.9e-05
0.002709 0.000217 6.1e-05
0.002666 0.000236 4.3e-05
0.002621 0.000255 2.5e-05
0.002579 0.000273 7e-06
0.002537 0.000291 -1.1e-05
0.002513 0.000301 -3.2e-05
0.002497 0.000306 -5.4e-05
0.002488 0.000309 -7.7e-05
0.002482 0.000309 -0.000101
0.002481 0.000308 -0.000126
0.002989 0.000626 0.000347
0.002551 0.000741 0.000939
0.002746 0.000434 0.001241
0.002486 0.000746 -8.5e-05
0.002481 0.000727 -0.000161
0.002709 0.000187 -0.000339
0.002758 0.000162 -0.000372
0.002804 0.000139 -0.000405
0.002844 0.000118 -0.000436
0.002882 9.8e-05 -0.000467
0.002915 8.1e-05 -0.000498
0.002926 7.3e-05 -0.000525
0.002927 7.1e-05 -0.00055
0.002926 7e-05 -0.000575
0.002923 6.9e-05 -0.000599
0.002919 6.9e-05 -0.000623
0.002915 7e-05 -0.000648
0.002908 7.1e-05 -0.000672
0.002901 7.2e-05 -0.000695
0.002893 7.4e-05 -0.000719
0.002882 7.7e-05 -0.000742
0.002864 8.4e-05 -0.000763
0.002517 0.00065 0.00091
0.002894 0.000112 0.000155
0.002864 0.000124 0.000135
0.00283 0.000139 0.000116
0.00279 0.000155 9.7e-05
0.002749 0.000173 7.9e-05
0.00271 0.00019 6.1e-05
0.002665 0.000209 4.3e-05
0.002622 0.000228 2.5e-05
0.002579 0.000246 7e-06
0.002538 0.000263 -1.1e-05
0.002513 0.000273 -3.2e-05
0.002497 0.000279 -5.4e-05
0.002488 0.000282 -7.7e-05
0.002482 0.000282 -0.000101
0.00248 0.000281 -0.000126
0.002801 0.000703 0.000523
0.000308 -1.5e-05 0.002116
0.002735 0.000434 0.001264
0.002981 0.000518 0.00042
0.00248 0.000726 -0.000136
0.002709 0.00016 -0.000339
0.002757 0.000135 -0.000372
0.002803 0.000112 -0.000404
0.002845 9e-05 -0.000436
0.002881 7.2e-05 -0.000467
0.002907 5.7e-05 -0.000497
0.002914 5.2e-05 -0.000523
0.002914 5e-05 -0.000548
0.002912 4.9e-05 -0.000572
0.00291 4.8e-05 -0.000597
0.002906 4.8e-05 -0.000621
0.002901 4.9e-05 -0.000645
0.002895 5e-05 -0.000669
0.002888 5.1e-05 -0.000693
0.00288 5.3e-05 -0.000717
0.00287 5.6e-05 -0.00074
0.002855 6.1e-05 -0.000762
0.00292 7.6e-05 0.000171
0.002893 8.5e-05 0.000155
0.002864 9.7e-05 0.000135
0.00283 0.000112 0.000116
0.002789 0.000129 9.7e-05
0.002749 0.000146 7.9e-05
0.002708 0.000163 6.1e-05
0.002666 0.000182 4.3e-05
0.00262 0.000201 2.6e-05
0.00258 0.000218 7e-06
0.002537 0.000237 -1.1e-05
0.002513 0.000246 -3.2e-05
0.002497 0.000252 -5.4e-05
0.002488 0.000254 -7.7e-05
0.002482 0.000255 -0.000101
0.002481 0.000254 -0.000126
0.002947 0.000639 0.000466
0.002951 0.000626 0.000194
0.002987 0.000544 0.000372
0.002987 0.000463 0.000371
0.002759 0.000107 -0.000372
0.002803 8.5e-05 -0.000404
0.002845 6.3e-05 -0.000436
0.002875 4.7e-05 -0.000466
0.002893 3.7e-05 -0.000494
0.002897 3.3e-05 -0.00052
0.002897 3.1e-05 -0.000545
0.002895 3e-05 -0.00057
0.002892 3e-05 -0.000594
0.002888 2.9e-05 -0.000618
0.002883 3e-05 -0.000643
0.002877 3.1e-05 -0.000667
0.002871 3.2e-05 -0.00069
0.002863 3.4e-05 -0.000714
0.002901 0.000496 0.000485
0.002894 5.8e-05 0.000155
0.002864 7e-05 0.000135
0.002829 8.5e-05 0.000116
0.002788 0.000102 9.7e-05
0.00275 0.000119 7.9e-05
0.002708 0.000136 6.1e-05
0.002664 0.000155 4.3e-05
0.002621 0.000174 2.5e-05
0.002578 0.000192 7e-06
0.002537 0.000209 -1.1e-05
0.002513 0.000219 -3.2e-05
0.002497 0.000225 -5.4e-05
0.002488 0.000227 -7.7e-05
0.002482 0.000228 -0.000101
0.00248 0.000227 -0.000126
0.002986 0.000626 0.000372
0.000283 -1.4e-05 0.002122
0.002981 0.000545 0.00042
0.002987 0.00049 0.000371
0.002516 0.000677 0.00091
0.00271 0.000105 -0.000339
0.002758 8.1e-05 -0.000372
0.002802 5.8e-05 -0.000404
0.002839 3.9e-05 -0.000435
0.002863 2.6e-05 -0.000464
0.002872 1.9e-05 -0.000491
0.002875 1.6e-05 -0.000516
0.002874 1.5e-05 -0.000541
0.002871 1.4e-05 -0.000566
0.002868 1.4e-05 -0.00059
0.002864 1.4e-05 -0.000614
0.00286 1.4e-05 -0.000639
0.002854 1.5e-05 -0.000663
0.002848 1.5e-05 -0.000687
0.002382 0.000749 0.000745
0.002888 3.3e-05 0.000155
0.002863 4.3e-05 0.000135
0.002828 5.8e-05 0.000116
0.002789 7.5e-05 9.7e-05
0.002748 9.2e-05 7.9e-05
0.002708 0.000109 6.1e-05
0.002664 0.000128 4.3e-05
0.002622 0.000146 2.5e-05
0.002577 0.000165 8e-06
0.002536 0.000183 -1.1e-05
0.002512 0.000192 -3.2e-05
0.002497 0.000197 -5.4e-05
0.002488 0.0002 -7.8e-05
0.002482 0.000201 -0.000102
0.002481 0.000199 -0.000126
0.00298 0.000655 0.000396
0.002996 0.0006 0.000273
0.002854 0.000598 0.000504
0.002534 0.000735 -0.000254
0.002974 0.000492 0.000444
0.002707 7.9e-05 -0.000339
0.002756 5.4e-05 -0.000372
0.002798 3.3e-05 -0.000404
0.002826 1.8e-05 -0.000433
0.002838 1e-05 -0.00046
0.002842 7e-06 -0.000486
0.00284 6e-06 -0.00051
0.002832 5e-06 -0.000559
0.002828 5e-06 -0.000584
0.002825 5e-06 -0.000608
0.00282 5e-06 -0.000632
0.002816 5e-06 -0.000656
0.002904 0.000713 0.000486
0.002871 1.4e-05 0.000159
0.002853 2.1e-05 0.000137
0.002824 3.2e-05 0.000116
0.002787 4.8e-05 9.8e-05
0.00275 6.4e-05 7.9e-05
0.002705 8.3e-05 6.1e-05
0.002664 0.000101 4.3e-05
0.002623 0.000118 2.5e-05
0.002577 0.000138 8e-06
0.002536 0.000155 -1.1e-05
0.002513 0.000165 -3.2e-05
0.002497 0.00017 -5.4e-05
0.002488 0.000173 -7.8e-05
0.002482 0.000174 -0.000102
0.00248 0.000172 -0.000126
0.002913 0.000699 0.000165
0.002575 0.000728 0.000967
0.000259 -1.3e-05 0.002127
0.002947 0.000476 0.000466
0.002753 2.9e-05 -0.000371
0.002782 1.3e-05 -0.000401
0.002792 7e-06 -0.000428
0.002788 6e-06 -0.000452
0.002778 7e-06 -0.0005
0.002774 7e-06 -0.000525
0.002771 7e-06 -0.000549
0.002766 7e-06 -0.000573
0.002763 7e-06 -0.000598
0.00276 7e-06 -0.000622
0.002757 6e-06 -0.000647
0.002835 6e-06 0.000189
0.002828 8e-06 0.000166
0.002822 8e-06 0.000142
0.002809 1.3e-05 0.000119
0.002785 2.2e-05 9.8e-05
0.002749 3.7e-05 7.9e-05
0.002709 5.4e-05 6e-05
0.002623 9.1e-05 2.5e-05
0.002576 0.000112 8e-06
0.002536 0.000129 -1.1e-05
0.002513 0.000138 -3.2e-05
0.002497 0.000143 -5.4e-05
0.002488 0.000146 -7.8e-05
0.002482 0.000146 -0.000102
0.00248 0.000145 -0.000126
0.002991 0.000655 0.000298
0.002913 0.000645 0.000165
0.002489 0.000746 0.000882
0.002997 0.000464 0.000273
0.002737 9e-06 -0.000369
0.002742 5e-06 -0.000394
0.002737 5e-06 -0.000419
0.002733 5e-06 -0.000443
0.002728 6e-06 -0.000467
0.002723 6e-06 -0.000491
0.00272 6e-06 -0.000516
0.002717 6e-06 -0.00054
0.002712 6e-06 -0.000564
0.002699 6e-06 -0.000637
0.002696 6e-06 -0.000661
0.002691 7e-06 -0.000686
0.002687 6e-06 -0.00071
0.002777 6e-06 0.000199
0.002775 5e-06 0.000174
0.002771 5e-06 0.00015
0.002767 5e-06 0.000126
0.00276 7e-06 0.000102
0.002741 1.4e-05 8e-05
0.002709 2.7e-05 6.1e-05
0.002622 6.4e-05 2.5e-05
0.002575 8.5e-05 8e-06
0.002536 0.000101 -1.1e-05
0.002512 0.00011 -3.2e-05
0.002497 0.000116 -5.4e-05
0.002487 0.000119 -7.8e-05
0.002482 0.000119 -0.000102
0.00248 0.000118 -0.000126
0.002914 0.000671 0.000165
0.00093 -7e-06 0.001959
0.002548 0.000715 0.000939
0.002517 0.000704 0.00091
0.00269 6e-06 -0.000336
0.002699 -0.0 -0.000362
0.002697 -1e-06 -0.000387
0.002693 -1e-06 -0.000411
0.002688 -1e-06 -0.000435
0.002684 -1e-06 -0.00046
0.002681 -1e-06 -0.000484
0.002676 -1e-06 -0.000508
0.002671 -0.0 -0.000533
0.002668 -0.0 -0.000557
0.002664 0.0 -0.000581
0.002659 0.0 -0.000605
0.002654 0.0 -0.00063
0.00265 0.0 -0.000654
0.002645 1e-06 -0.000678
0.002626 3e-06 -0.000775
0.002621 5e-06 -0.000798
0.002627 0.000749 -0.000292
0.002726 1e-06 0.000183
0.002724 0.0 0.000158
0.002723 -1e-06 0.000133
0.002718 -0.0 0.000109
0.00271 1e-06 8.5e-05
0.002695 7e-06 6.3e-05
0.002621 3.8e-05 2.5e-05
0.002574 5.8e-05 8e-06
0.002536 7.4e-05 -1.1e-05
0.002512 8.4e-05 -3.2e-05
0.002496 8.9e-05 -5.4e-05
0.002487 9.2e-05 -7.8e-05
0.002482 9.2e-05 -0.000102
0.002854 0.000707 0.000504
0.002951 0.000653 0.000194
0.002996 0.000575 0.000249
0.002997 0.000546 0.000273
0.002981 0.00049 0.00042
0.002636 0.0 -0.000377
0.002631 1e-06 -0.000401
0.002628 1e-06 -0.000425
0.002623 1e-06 -0.00045
0.002619 1e-06 -0.000474
0.002616 1e-06 -0.000498
0.002614 -0.0 -0.000523
0.002611 -1e-06 -0.000548
0.002608 -1e-06 -0.000572
0.002601 0.0 -0.000596
0.002598 -0.0 -0.00062
0.002595 -1e-06 -0.000645
0.002591 -1e-06 -0.000669
0.002575 -1e-06 -0.000766
0.00257 -0.0 -0.00079
0.002012 0.00073 0.00149
0.002987 0.000518 0.000371
0.002666 1e-06 0.000168
0.00266 1e-06 0.000143
0.002657 1e-06 0.000119
0.002651 2e-06 9.5e-05
0.002646 3e-06 7.1e-05
0.002637 4e-06 4.7e-05
0.002618 1.2e-05 2.6e-05
0.002535 4.7e-05 -1.1e-05
0.002512 5.7e-05 -3.2e-05
0.002496 6.2e-05 -5.4e-05
0.002487 6.5e-05 -7.8e-05
0.002481 6.5e-05 -0.000101
0.002965 0.000659 0.000443
0.002579 0.000754 0.000968
0.002913 0.000617 0.000165
0.002495 0.000715 -6e-05
0.002481 0.000724 -0.000111
0.002574 4e-06 -0.000342
0.00257 4e-06 -0.000366
0.002569 3e-06 -0.000391
0.00256 2e-06 -0.000464
0.002554 3e-06 -0.000488
0.00255 3e-06 -0.000512
0.002545 3e-06 -0.000537
0.002532 4e-06 -0.000609
0.002528 4e-06 -0.000634
0.002526 3e-06 -0.000658
0.002523 2e-06 -0.000683
0.002302 8.6e-05 -0.000921
0.002488 0.000752 -0.000185
0.002956 0.000691 0.000442
0.00259 6e-06 0.00013
0.002586 6e-06 0.000106
0.002582 5e-06 8.1e-05
0.00258 5e-06 5.7e-05
0.002575 3e-06 3.3e-05
0.002565 6e-06 9e-06
0.002535 2e-05 -1.1e-05
0.00251 3e-05 -3.1e-05
0.002495 3.5e-05 -5.4e-05
0.002486 3.8e-05 -7.7e-05
0.002481 3.9e-05 -0.000101
0.002694 0.000717 0.0013
0.002982 0.00061 0.000222
0.002982 0.000583 0.000222
0.002992 0.000491 0.000322
0.002486 0.000726 -0.000185
0.002984 0.00049 0.000396
0.002486 0.000721 -8.6e-05
0.002516 5e-06 -0.000332
0.002512 5e-06 -0.000356
0.002507 5e-06 -0.000381
0.002503 5e-06 -0.000405
0.002498 6e-06 -0.000429
0.002496 5e-06 -0.000453
0.002492 5e-06 -0.000478
0.002488 5e-06 -0.000502
0.002475 5e-06 -0.000575
0.002471 5e-06 -0.000599
0.002466 6e-06 -0.000623
0.00246 7e-06 -0.000647
0.002457 6e-06 -0.000672
0.002001 -2.5e-05 -0.000621
0.002311 5.6e-05 -0.000897
0.002301 5.9e-05 -0.000921
0.002293 6.2e-05 -0.000944
0.002288 6.2e-05 -0.000968
0.002288 6e-05 -0.000993
0.00229 5.7e-05 -0.001019
0.002544 7e-06 0.000238
0.002542 6e-06 0.000213
0.00299 0.000463 0.000347
0.000482 0.000612 0.002975
0.002705 0.000716 0.001278
0.002529 3e-06 9e-05
0.002528 2e-06 6.6e-05
0.002523 2e-06 4.1e-05
0.002522 1e-06 1.7e-05
0.002517 1e-06 -8e-06
0.002508 4e-06 -3.1e-05
0.002495 8e-06 -5.4e-05
0.002485 1.1e-05 -7.7e-05
0.002479 1.2e-05 -0.000101
0.002574 0.00062 0.000967
0.002497 0.000741 -6e-05
0.00295 0.000517 0.000193
0.00299 0.00049 0.000347
0.002648 0.000726 0.001361
0.002754 0.000489 0.001218
0.002482 -3e-06 -0.000276
0.002477 -2e-06 -0.000301
0.002474 -3e-06 -0.000325
0.00247 -3e-06 -0.000349
0.002467 -3e-06 -0.000374
0.002463 -3e-06 -0.000398
0.002459 -3e-06 -0.000422
0.002455 -3e-06 -0.000447
0.00245 -3e-06 -0.000471
0.002446 -3e-06 -0.000495
0.002442 -3e-06 -0.00052
0.002432 -2e-06 -0.000568
0.002428 -2e-06 -0.000592
0.002424 -2e-06 -0.000616
0.002419 -1e-06 -0.000641
0.002414 -1e-06 -0.000665
0.002311 2.9e-05 -0.000897
0.002301 3.2e-05 -0.000921
0.002293 3.4e-05 -0.000944
0.002288 3.3e-05 -0.000993
0.00229 3e-05 -0.001019
0.002501 1e-06 0.000245
0.002498 0.0 0.00022
0.002497 -1e-06 0.000196
0.002966 0.000717 0.000369
0.002854 0.000571 0.000504
0.002948 0.00053 0.000466
0.00295 0.000572 0.000193
0.000907 -7e-06 0.001967
0.002483 -6e-06 4.8e-05
0.002481 -6e-06 2.3e-05
0.002969 0.000717 0.000345
0.002652 0.000627 0.000558
0.002913 0.00059 0.000165
0.002466 -7e-06 -7.4e-05
0.002463 -8e-06 -9.8e-05
0.002459 -8e-06 -0.000123
0.002452 -6e-06 -0.000172
0.002449 -8e-06 -0.000196
0.002996 0.000547 0.000249
0.002548 0.000607 0.000939
0.002436 -8e-06 -0.000269
0.002432 -8e-06 -0.000293
0.002428 -8e-06 -0.000317
0.002424 -8e-06 -0.000342
0.00242 -8e-06 -0.000366
0.002415 -8e-06 -0.00039
0.002414 -9e-06 -0.000415
0.002408 -8e-06 -0.000439
0.002403 -7e-06 -0.000463
