4.2e-05 9.7e-05 -0.002987
1.7e-05 9.8e-05 -0.002986
-7e-06 9.9e-05 -0.002982
-3.2e-05 0.000102 -0.002977
-5.6e-05 0.000109 -0.00296
-8e-05 0.000123 -0.002929
-0.000105 0.00014 -0.002893
-0.000129 0.000159 -0.002852
-0.000344 0.000365 -0.002408
-0.000368 0.000366 -0.002405
-0.000393 0.000366 -0.002404
-0.000417 0.000365 -0.002406
-0.000442 0.000362 -0.002413
-0.000467 0.000355 -0.002426
-0.000492 0.000344 -0.00245
-0.000517 0.000323 -0.002495
-0.000568 0.00028 -0.002587
-0.000593 0.000264 -0.00262
-0.000618 0.000249 -0.002653
-0.000643 0.000235 -0.002683
-0.000668 0.000221 -0.002712
0.000247 0.000584 -0.002794
0.000591 0.000325 -0.002447
0.000567 0.000339 -0.002418
0.000543 0.000345 -0.002403
0.000519 0.00035 -0.002393
0.000494 0.000351 -0.002389
0.00047 0.000351 -0.002389
0.000949 0.00064 -0.002837
0.000857 0.000621 -0.002782
0.000998 0.000555 -0.002831
0.000857 0.000567 -0.002781
0.000247 0.000557 -0.002794
0.00075 0.000575 -0.002673
0.000188 0.0001 -0.002925
0.000165 8.4e-05 -0.002958
0.000141 7.9e-05 -0.002968
0.000116 7.7e-05 -0.002973
9.1e-05 7.6e-05 -0.002975
6.7e-05 7.5e-05 -0.002977
4.2e-05 7.5e-05 -0.002977
1.7e-05 7.5e-05 -0.002976
-7e-06 7.6e-05 -0.002973
-3.2e-05 7.8e-05 -0.002968
-5.6e-05 8.4e-05 -0.002956
-8e-05 9.7e-05 -0.002928
-0.000105 0.000113 -0.002892
-0.000314 -2.1e-05 -0.00207
-0.00029 -2.2e-05 -0.002071
-0.000344 0.000338 -0.002408
-0.000368 0.000339 -0.002405
-0.000393 0.000339 -0.002404
-0.000417 0.000338 -0.002406
-0.000442 0.000335 -0.002413
-0.000467 0.000328 -0.002426
-0.000492 0.000317 -0.00245
-0.000517 0.000296 -0.002494
-0.000543 0.000272 -0.002546
-0.000568 0.000253 -0.002586
-0.000593 0.000237 -0.002621
-0.000618 0.000222 -0.002652
-0.000643 0.000207 -0.002684
-0.000668 0.000194 -0.002712
0.000616 0.000284 -0.002477
0.000592 0.000298 -0.002446
0.000566 0.000311 -0.002418
0.000543 0.000318 -0.002403
0.000519 0.000323 -0.002393
0.000494 0.000324 -0.002389
0.000996 0.000667 -0.002824
0.000199 0.000707 -0.002897
0.000789 0.000658 -0.00272
0.00095 0.000556 -0.002841
0.00121 0.00074 -0.002116
0.000336 0.000718 -0.00247
0.000262 0.000599 -0.002756
0.000788 0.00055 -0.002719
0.000189 7.4e-05 -0.002921
0.000166 6.2e-05 -0.002947
0.000141 5.8e-05 -0.002956
0.000116 5.6e-05 -0.00296
9.1e-05 5.5e-05 -0.002962
6.7e-05 5.4e-05 -0.002964
4.2e-05 5.4e-05 -0.002964
1.8e-05 5.4e-05 -0.002963
-7e-06 5.5e-05 -0.00296
-3.2e-05 5.7e-05 -0.002956
-5.6e-05 6.1e-05 -0.002947
-8e-05 7e-05 -0.002926
-0.000105 8.7e-05 -0.002891
-0.000129 0.000105 -0.002851
-0.000152 0.000133 -0.00279
-0.000344 0.00031 -0.002408
-0.000368 0.000312 -0.002405
-0.000393 0.000312 -0.002404
-0.000417 0.000311 -0.002406
-0.000442 0.000307 -0.002413
-0.000467 0.000301 -0.002426
-0.000492 0.00029 -0.00245
-0.000517 0.000268 -0.002495
-0.000543 0.000246 -0.002543
-0.000568 0.000225 -0.002587
-0.000593 0.00021 -0.00262
-0.000618 0.000194 -0.002653
-0.000642 0.00018 -0.002685
0.000616 0.000257 -0.002476
0.000592 0.00027 -0.002447
0.000567 0.000284 -0.002418
0.000543 0.000291 -0.002402
0.000519 0.000296 -0.002393
0.000494 0.000297 -0.002389
0.000972 0.000667 -0.002829
0.000182 0.000694 -0.002929
0.000825 0.000637 -0.002757
0.00089 0.000579 -0.002807
0.000889 0.000525 -0.002807
0.000324 0.000697 -0.002519
0.00119 0.000761 -0.002136
0.0002 0.000652 -0.002897
0.000189 5e-05 -0.002914
0.000166 4.2e-05 -0.002932
0.000141 3.8e-05 -0.00294
0.000116 3.6e-05 -0.002943
9.2e-05 3.5e-05 -0.002946
6.7e-05 3.4e-05 -0.002947
4.2e-05 3.4e-05 -0.002947
1.8e-05 3.5e-05 -0.002946
-7e-06 3.6e-05 -0.002944
-3.1e-05 3.7e-05 -0.00294
-5.6e-05 4e-05 -0.002932
-8e-05 4.7e-05 -0.002918
-0.000105 6e-05 -0.00289
-0.000129 7.8e-05 -0.00285
-0.000152 0.000106 -0.00279
-0.000344 0.000283 -0.002408
-0.000368 0.000285 -0.002404
-0.000393 0.000285 -0.002403
-0.000417 0.000284 -0.002406
-0.000442 0.00028 -0.002413
-0.000467 0.000274 -0.002426
-0.000492 0.000263 -0.00245
-0.000517 0.000242 -0.002495
-0.000543 0.000219 -0.002543
-0.000568 0.000198 -0.002587
-0.000593 0.000182 -0.002621
-0.000618 0.000167 -0.002654
-0.000643 0.000153 -0.002683
-0.000669 0.000139 -0.002713
0.000613 0.00023 -0.002479
0.000591 0.000244 -0.002447
0.000567 0.000257 -0.002418
0.000543 0.000265 -0.002402
0.000519 0.000269 -0.002392
0.000494 0.00027 -0.002389
0.00092 0.000675 -0.002826
0.00111 0.000618 -0.002777
0.000998 0.000582 -0.002831
0.000921 0.000565 -0.00283
0.001045 0.000447 -0.002815
0.0002 0.000544 -0.002897
0.001091 0.000477 -0.002796
0.001212 0.000763 -0.002125
0.000189 3.1e-05 -0.002898
0.000166 2.4e-05 -0.002912
0.000141 2.1e-05 -0.002918
0.000117 1.9e-05 -0.002921
9.2e-05 1.8e-05 -0.002923
6.7e-05 1.8e-05 -0.002924
4.3e-05 1.8e-05 -0.002924
1.8e-05 1.8e-05 -0.002924
-7e-06 1.9e-05 -0.002922
-3.1e-05 2e-05 -0.002919
-5.6e-05 2.2e-05 -0.002913
-8e-05 2.7e-05 -0.002902
-0.000104 3.7e-05 -0.002882
-0.000152 8e-05 -0.002788
-0.000368 0.000258 -0.002404
-0.000393 0.000258 -0.002403
-0.000417 0.000257 -0.002406
-0.000442 0.000253 -0.002413
-0.000467 0.000247 -0.002426
-0.000492 0.000236 -0.002449
-0.000517 0.000215 -0.002493
-0.000543 0.000193 -0.002541
-0.000568 0.000171 -0.002587
-0.000593 0.000155 -0.002621
-0.000618 0.00014 -0.002653
-0.000644 0.000126 -0.002683
-0.000669 0.000112 -0.002713
0.000199 0.000571 -0.002897
0.00059 0.000216 -0.002447
0.000566 0.00023 -0.002418
0.000543 0.000237 -0.002402
0.000519 0.000242 -0.002392
0.000494 0.000243 -0.002389
0.000857 0.000702 -0.002783
0.00183 0.000559 -0.002377
0.001022 0.000582 -0.002823
0.001045 0.000556 -0.002814
0.000262 0.000653 -0.002757
-0.000265 -2.2e-05 -0.002072
0.000751 0.000602 -0.002674
0.001068 0.000612 -0.002804
0.001105 0.000712 -0.002754
0.000142 9e-06 -0.002886
0.000117 8e-06 -0.002887
9.2e-05 8e-06 -0.002887
4.3e-05 7e-06 -0.002888
1.9e-05 7e-06 -0.002888
-6e-06 8e-06 -0.002886
-3.1e-05 8e-06 -0.002886
-5.5e-05 1e-05 -0.002882
-8e-05 1.3e-05 -0.002875
-0.000104 1.9e-05 -0.002862
-0.000128 3e-05 -0.002838
-0.000368 0.000231 -0.002404
-0.000393 0.000231 -0.002403
-0.000418 0.000229 -0.002406
-0.000442 0.000226 -0.002412
-0.000467 0.00022 -0.002426
-0.000492 0.000209 -0.002449
-0.000517 0.000188 -0.002493
-0.000568 0.000143 -0.002588
-0.000593 0.000128 -0.002621
-0.000618 0.000113 -0.002652
-0.000644 9.9e-05 -0.002684
-0.000669 8.5e-05 -0.002713
0.000616 0.000175 -0.002477
0.000592 0.000189 -0.002447
0.000566 0.000203 -0.002418
0.000543 0.00021 -0.002402
0.000519 0.000214 -0.002392
0.000494 0.000216 -0.002388
0.00089 0.000687 -0.002808
0.001466 0.000579 -0.00221
0.001045 0.000583 -0.002814
0.001022 0.000555 -0.002823
0.000277 0.000613 -0.002719
0.001656 0.000593 -0.00233
0.000215 0.000583 -0.002864
0.000788 0.000577 -0.002718
0.000305 0.000676 -0.002633
0.000118 9e-06 -0.002827
9.3e-05 9e-06 -0.002827
6.9e-05 1e-05 -0.002825
4.4e-05 9e-06 -0.002825
1.9e-05 9e-06 -0.002826
-5e-06 9e-06 -0.002825
-3e-05 8e-06 -0.002827
-5.4e-05 8e-06 -0.002827
-7.9e-05 9e-06 -0.002826
-0.000104 1e-05 -0.002823
-0.000128 1.5e-05 -0.002812
-0.000152 3e-05 -0.002778
-0.000368 0.000204 -0.002404
-0.000393 0.000204 -0.002403
-0.000418 0.000203 -0.002405
-0.000442 0.000199 -0.002413
-0.000467 0.000193 -0.002425
-0.000492 0.000181 -0.00245
-0.000517 0.000161 -0.002493
-0.000543 0.000138 -0.002542
-0.000568 0.000116 -0.002589
-0.000593 0.000101 -0.002621
-0.000618 8.6e-05 -0.002653
-0.000644 7.2e-05 -0.002683
-0.000669 5.8e-05 -0.002712
0.000616 0.000148 -0.002477
0.000592 0.000162 -0.002446
0.000567 0.000176 -0.002418
0.000543 0.000183 -0.002402
0.000519 0.000187 -0.002392
0.000494 0.000189 -0.002388
0.00102 0.000667 -0.002817
0.000222 0.000719 -0.002867
0.000217 0.000692 -0.002864
0.000215 0.000665 -0.002863
0.000291 0.000686 -0.002675
0.000262 0.000626 -0.002757
0.001656 0.000538 -0.00233
0.001022 0.000446 -0.002824
0.000231 0.000624 -0.00283
0.001134 0.000696 -0.002188
0.000975 0.000527 -0.002839
9.4e-05 8e-06 -0.00277
7e-05 8e-06 -0.002769
4.5e-05 8e-06 -0.002769
2e-05 9e-06 -0.002768
-4e-06 8e-06 -0.002769
-2.9e-05 8e-06 -0.00277
-5.4e-05 8e-06 -0.002769
-7.8e-05 8e-06 -0.002767
-0.000103 8e-06 -0.002769
-0.000127 8e-06 -0.002767
-0.000152 1.3e-05 -0.002756
-0.000344 0.000175 -0.002407
-0.000368 0.000176 -0.002404
-0.000393 0.000177 -0.002402
-0.000418 0.000175 -0.002405
-0.000442 0.000172 -0.002412
-0.000467 0.000165 -0.002426
-0.000492 0.000155 -0.002449
-0.000518 0.000133 -0.002494
-0.000543 0.00011 -0.002543
-0.000568 8.9e-05 -0.002588
-0.000593 7.4e-05 -0.002621
-0.000618 5.9e-05 -0.002652
-0.000643 4.5e-05 -0.002683
0.000613 0.000121 -0.002478
0.000591 0.000135 -0.002447
0.000566 0.000149 -0.002418
0.000543 0.000156 -0.002402
0.000519 0.00016 -0.002392
0.000494 0.000161 -0.002388
0.00047 0.000161 -0.002388
0.000921 0.000647 -0.002829
0.000998 0.000609 -0.00283
0.000262 0.000707 -0.002756
0.000277 0.000641 -0.002718
0.001694 0.000523 -0.002346
0.001135 0.000537 -0.002658
-0.00024 -2.3e-05 -0.002075
0.000969 0.0007 -0.002817
0.000169 3e-06 -0.002723
0.000144 3e-06 -0.002723
0.00095 0.000529 -0.002842
9.5e-05 3e-06 -0.002723
7e-05 3e-06 -0.002723
4.6e-05 2e-06 -0.002724
2.1e-05 2e-06 -0.002724
-4e-06 2e-06 -0.002724
-2.8e-05 2e-06 -0.002724
-5.3e-05 2e-06 -0.002723
-7.8e-05 2e-06 -0.002722
-0.000102 2e-06 -0.002722
-0.000127 2e-06 -0.002721
-0.000151 4e-06 -0.002718
-0.000344 0.000148 -0.002406
-0.000368 0.000149 -0.002403
-0.000393 0.00015 -0.002402
-0.000418 0.000148 -0.002405
-0.000442 0.000144 -0.002413
-0.000467 0.000138 -0.002426
-0.000492 0.000127 -0.002449
-0.000518 0.000106 -0.002494
-0.000543 8.4e-05 -0.002542
-0.000568 6.2e-05 -0.002588
-0.000593 4.7e-05 -0.00262
-0.000618 3.2e-05 -0.002651
-0.000643 2e-05 -0.002678
0.000998 0.000527 -0.002831
0.00059 0.000108 -0.002445
0.000567 0.000122 -0.002417
0.000543 0.000129 -0.002401
0.000519 0.000133 -0.002392
0.000494 0.000134 -0.002388
0.00047 0.000134 -0.002388
0.001089 0.000643 -0.00279
0.000231 0.000733 -0.002829
0.00089 0.000606 -0.002807
0.000247 0.000638 -0.002793
0.000291 0.000631 -0.002677
0.000305 0.000649 -0.002632
0.00017 2e-06 -0.00267
0.000145 1e-06 -0.002671
-0.000216 -2.4e-05 -0.002076
-0.000191 -2.4e-05 -0.002077
-0.000167 -2.5e-05 -0.002079
-0.000344 0.000121 -0.002406
-0.000368 0.000122 -0.002403
-0.000393 0.000123 -0.002402
-0.000418 0.000121 -0.002405
-0.000442 0.000117 -0.002412
-0.000467 0.000111 -0.002425
-0.000492 0.0001 -0.002449
-0.000518 8e-05 -0.002493
-0.000543 5.6e-05 -0.002542
-0.000568 3.4e-05 -0.002589
-0.000593 1.9e-05 -0.00262
-0.000618 9e-06 -0.002641
0.000975 0.000445 -0.002839
0.000591 8.1e-05 -0.002446
0.000568 9.5e-05 -0.002416
0.000543 0.000102 -0.0024
0.000519 0.000106 -0.002391
0.000494 0.000107 -0.002388
0.00047 0.000107 -0.002388
0.000445 0.000105 -0.002392
0.000825 0.000691 -0.002758
0.000921 0.000592 -0.00283
0.000231 0.000597 -0.002828
-0.000142 -2.5e-05 -0.00208
-0.000117 -2.5e-05 -0.00208
-9.3e-05 -2.5e-05 -0.002081
-6.8e-05 -2.5e-05 -0.002082
-4.3e-05 -2.6e-05 -0.002083
-2e-06 5e-06 -0.0026
-2.6e-05 5e-06 -0.002601
-1.9e-05 -2.5e-05 -0.002082
-0.000368 9.5e-05 -0.002404
-0.000393 9.5e-05 -0.002402
-0.000418 9.4e-05 -0.002405
-0.000442 9e-05 -0.002412
-0.000467 8.4e-05 -0.002425
-0.000492 7.3e-05 -0.002448
-0.000518 5.3e-05 -0.002491
-0.000543 2.7e-05 -0.002546
-0.000568 1.1e-05 -0.00258
0.000616 4.1e-05 -0.002474
0.000592 5.4e-05 -0.002444
0.000568 6.8e-05 -0.002415
0.000543 7.5e-05 -0.002399
0.000519 7.9e-05 -0.00239
0.000494 8e-05 -0.002387
0.000469 8e-05 -0.002387
0.000445 7.8e-05 -0.002391
0.001655 0.000702 -0.002329
0.000232 0.000706 -0.002829
0.000336 0.000745 -0.002469
0.000319 5e-06 -0.002547
0.000295 7e-06 -0.002543
0.00027 9e-06 -0.002537
0.000245 8e-06 -0.002538
0.000221 1e-05 -0.002535
0.000196 9e-06 -0.002536
0.000172 9e-06 -0.002537
6e-06 -2.5e-05 -0.002083
-1e-06 9e-06 -0.002535
-2.5e-05 9e-06 -0.002534
-7.5e-05 9e-06 -0.002533
3e-05 -2.5e-05 -0.002083
-0.000368 6.8e-05 -0.002403
-0.000393 6.8e-05 -0.002402
-0.000418 6.7e-05 -0.002405
-0.000442 6.3e-05 -0.002412
-0.000467 5.7e-05 -0.002425
-0.000492 4.6e-05 -0.002448
5.5e-05 -2.5e-05 -0.002083
8e-05 -2.5e-05 -0.002083
0.000616 1.5e-05 -0.002471
0.000592 2.7e-05 -0.002445
0.000568 4.1e-05 -0.002414
0.000543 4.8e-05 -0.0024
0.000519 5.2e-05 -0.00239
0.000494 5.3e-05 -0.002387
0.000469 5.3e-05 -0.002387
0.000445 5.1e-05 -0.002391
0.00042 4.7e-05 -0.002398
0.000394 4.2e-05 -0.002409
0.000788 0.000604 -0.002719
0.00032 3e-06 -0.002492
0.000296 7e-06 -0.002484
0.000271 8e-06 -0.002482
0.000246 7e-06 -0.002484
0.000222 7e-06 -0.002484
0.000197 7e-06 -0.002483
0.000172 7e-06 -0.002483
0.000148 6e-06 -0.002484
0.000123 6e-06 -0.002484
0.001022 0.000528 -0.002823
4.9e-05 5e-06 -0.002485
2.5e-05 5e-06 -0.002484
-0.0 5e-06 -0.002484
-2.5e-05 5e-06 -0.002483
-4.9e-05 5e-06 -0.002483
-7.4e-05 5e-06 -0.002482
-9.9e-05 4e-06 -0.002482
-0.000123 5e-06 -0.002482
-0.000148 5e-06 -0.002482
-0.000393 4.1e-05 -0.002402
-0.000418 4e-05 -0.002405
-0.000442 3.6e-05 -0.002412
-0.000467 3e-05 -0.002425
-0.000492 1.8e-05 -0.002449
-0.000518 5e-06 -0.002476
-0.000542 6e-06 -0.002475
-0.000567 8e-06 -0.00247
-0.000591 8e-06 -0.00247
0.000104 -2.5e-05 -0.002083
0.000617 7e-06 -0.002428
0.000592 9e-06 -0.002424
0.000568 1.4e-05 -0.002413
0.000543 2.1e-05 -0.002398
0.001045 0.000611 -0.002813
0.000494 2.7e-05 -0.002386
0.000469 2.6e-05 -0.002386
0.000445 2.4e-05 -0.002391
0.00042 2e-05 -0.002399
0.000395 1.4e-05 -0.002411
0.001695 0.000577 -0.002346
0.00067 0.000632 -0.002569
0.00104 0.000701 -0.002795
0.000296 -1e-06 -0.002443
0.000271 -1e-06 -0.002445
0.000247 -2e-06 -0.002445
0.000222 -3e-06 -0.002446
0.000197 -1e-06 -0.002446
0.000944 0.000702 -0.00282
0.000148 -4e-06 -0.002448
0.000124 -4e-06 -0.002448
9.9e-05 -4e-06 -0.002448
0.001123 0.000721 -0.002728
0.000917 0.000708 -0.002815
2.5e-05 -5e-06 -0.002447
0.0 -5e-06 -0.002448
-2.4e-05 -5e-06 -0.002448
-4.9e-05 -5e-06 -0.002447
-9.8e-05 -4e-06 -0.002445
-0.000123 -5e-06 -0.002445
-0.000147 -4e-06 -0.002444
-0.000172 -4e-06 -0.002444
-0.000393 1.4e-05 -0.002403
-0.000418 1.2e-05 -0.002405
-0.000443 9e-06 -0.002412
-0.000467 4e-06 -0.002422
-0.000492 1e-06 -0.002429
-0.000517 2e-06 -0.002425
-0.000541 4e-06 -0.002421
-0.000566 5e-06 -0.002418
-0.00059 6e-06 -0.002415
-0.000615 8e-06 -0.002413
0.001068 0.00053 -0.002806
0.000593 -1e-06 -0.002389
0.000568 -2e-06 -0.00239
0.000543 -1e-06 -0.002388
0.001188 0.000737 -0.00213
0.000494 -0.0 -0.002385
0.000469 -0.0 -0.002385
0.001852 0.000368 -0.002366
0.00042 -4e-06 -0.002392
0.000395 -7e-06 -0.002398
0.00034 0.000751 -0.002576
0.000354 0.000728 -0.002442
0.000711 0.000602 -0.002623
0.000375 0.000734 -0.002423
0.000248 -5e-06 -0.002392
0.000223 -4e-06 -0.00239
0.001768 0.000631 -0.002372
0.00109 0.000614 -0.002793
0.000124 -4e-06 -0.002388
0.0001 -4e-06 -0.002389
7.5e-05 -4e-06 -0.002388
5.1e-05 -4e-06 -0.002387
2.6e-05 -4e-06 -0.002386
1e-06 -3e-06 -0.002385
-2.3e-05 -5e-06 -0.002389
-4.8e-05 -3e-06 -0.002384
-9.7e-05 -4e-06 -0.002385
-0.000122 -5e-06 -0.002387
-0.000146 -5e-06 -0.002386
-0.000393 -3e-06 -0.002381
-0.000418 -5e-06 -0.002384
-0.000442 -5e-06 -0.002384
-0.000467 -6e-06 -0.002385
-0.000491 -6e-06 -0.002386
-0.000516 -6e-06 -0.002385
-0.000541 -6e-06 -0.002384
-0.000565 -5e-06 -0.002381
-0.00059 -4e-06 -0.002378
-0.000614 -3e-06 -0.002376
0.001871 0.000505 -0.002351
0.000305 0.000703 -0.002632
0.000277 0.000668 -0.002718
0.000215 0.000611 -0.002864
0.001108 0.000678 -0.002767
0.001084 0.000706 -0.002772
0.000396 -3e-06 -0.002332
0.000372 -1e-06 -0.002326
0.000323 -0.0 -0.002325
0.000298 -1e-06 -0.002325
0.000273 -1e-06 -0.002325
0.000224 -0.0 -0.002323
0.000199 2e-06 -0.002319
0.000175 1e-06 -0.00232
0.000888 0.000717 -0.002802
0.001045 0.000529 -0.002814
0.001062 0.000703 -0.002785
7.6e-05 2e-06 -0.002317
5.2e-05 1e-06 -0.002318
2.7e-05 1e-06 -0.002318
2e-06 3e-06 -0.002314
-4.7e-05 1e-06 -0.002318
-7.2e-05 1e-06 -0.002318
-0.000121 1e-06 -0.002316
-0.000145 1e-06 -0.002315
0.000129 -2.4e-05 -0.002082
-0.000269 1e-06 -0.002315
-0.000293 0.0 -0.002315
-0.000392 -2e-06 -0.002319
-0.000417 -2e-06 -0.002319
-0.000441 -2e-06 -0.002317
-0.000466 -2e-06 -0.002318
-0.00054 -3e-06 -0.00232
-0.000564 -2e-06 -0.002317
-0.000589 -3e-06 -0.002317
0.00052 1e-06 -0.002267
0.000496 1e-06 -0.002266
0.000471 2e-06 -0.002264
0.001125 0.00069 -0.002736
0.000373 2e-06 -0.002262
0.000348 3e-06 -0.00226
0.000323 3e-06 -0.002259
0.000299 3e-06 -0.002258
0.000274 4e-06 -0.002256
0.00025 4e-06 -0.002256
0.001862 0.000597 -0.002357
0.0002 4e-06 -0.002256
0.000176 4e-06 -0.002255
0.000857 0.000731 -0.002781
0.000102 3e-06 -0.002256
7.7e-05 4e-06 -0.002254
5.3e-05 4e-06 -0.002254
2.8e-05 4e-06 -0.002253
3e-06 4e-06 -0.002252
-7.1e-05 4e-06 -0.002251
-9.5e-05 4e-06 -0.002251
-0.00012 5e-06 -0.002249
-0.000144 5e-06 -0.00225
-0.000292 3e-06 -0.00225
-0.000366 3e-06 -0.002251
-0.000391 2e-06 -0.002253
-0.000416 2e-06 -0.002251
-0.00044 2e-06 -0.002252
-0.000465 1e-06 -0.002249
-0.000539 1e-06 -0.002252
-0.000563 1e-06 -0.002252
-0.000588 1e-06 -0.002253
-0.000637 -0.0 -0.002254
-0.000662 -1e-06 -0.002255
0.00062 3e-06 -0.002205
0.000595 3e-06 -0.002203
0.000571 4e-06 -0.002202
0.000154 -2.4e-05 -0.002081
0.000521 6e-06 -0.002198
0.000497 5e-06 -0.002199
0.000472 5e-06 -0.002198
0.000448 5e-06 -0.002199
0.000824 0.000528 -0.002756
0.000374 5e-06 -0.002196
0.000349 5e-06 -0.002197
0.000324 4e-06 -0.002198
0.0003 4e-06 -0.002199
0.000275 4e-06 -0.002198
0.00025 3e-06 -0.002199
0.000226 4e-06 -0.002198
0.000201 4e-06 -0.002197
0.000247 0.00072 -0.002793
0.00109 0.000531 -0.002795
0.001017 0.0007 -0.002804
0.000103 3e-06 -0.002197
7.8e-05 3e-06 -0.002197
5.3e-05 2e-06 -0.002199
2.9e-05 3e-06 -0.002197
4e-06 3e-06 -0.002197
-9.4e-05 2e-06 -0.002197
-0.000119 3e-06 -0.002195
-0.000144 3e-06 -0.002195
-0.000168 3e-06 -0.002194
-0.000193 3e-06 -0.002194
-0.000341 4e-06 -0.00219
-0.000365 4e-06 -0.002189
-0.00039 5e-06 -0.002187
-0.000415 4e-06 -0.002189
-0.000439 5e-06 -0.002187
-0.000464 4e-06 -0.002186
0.000178 -2.4e-05 -0.002081
-0.000587 4e-06 -0.002188
-0.000612 4e-06 -0.002186
-0.000636 3e-06 -0.002189
0.001695 0.000496 -0.002346
0.000596 4e-06 -0.002143
0.000572 5e-06 -0.002142
0.000522 3e-06 -0.002145
0.000498 3e-06 -0.002144
0.000473 2e-06 -0.002146
0.000448 2e-06 -0.002145
0.00089 0.00066 -0.002807
0.000399 1e-06 -0.002147
0.000374 1e-06 -0.002148
0.00035 0.0 -0.002149
0.000325 -0.0 -0.00215
0.0003 -1e-06 -0.00215
0.000276 -1e-06 -0.002151
0.000251 -2e-06 -0.002152
0.000227 -2e-06 -0.002152
0.000202 -2e-06 -0.002153
0.000177 -2e-06 -0.002153
0.000947 0.00067 -0.002831
0.000128 -3e-06 -0.002153
0.000103 -3e-06 -0.002152
7.9e-05 -3e-06 -0.002153
5.4e-05 -3e-06 -0.002153
2.9e-05 -3e-06 -0.002152
5e-06 -3e-06 -0.002151
-2e-05 -4e-06 -0.002152
-4.4e-05 -4e-06 -0.002152
-6.9e-05 -4e-06 -0.002151
-9.4e-05 -4e-06 -0.002151
-0.000118 -3e-06 -0.00215
-0.000143 -3e-06 -0.00215
-0.000168 -3e-06 -0.002149
-0.000192 -3e-06 -0.002148
-0.000217 -3e-06 -0.002148
-0.000242 -3e-06 -0.002147
-0.00034 -1e-06 -0.002143
-0.000365 -0.0 -0.002141
-0.000389 0.0 -0.002139
-0.000414 0.0 -0.002139
-0.000438 1e-06 -0.002138
-0.000611 3e-06 -0.002129
-0.000635 3e-06 -0.002127
0.001146 0.000665 -0.002395
0.000315 0.0007 -0.002577
0.000324 0.000725 -0.002518
0.000374 0.000707 -0.002422
0.001732 0.000644 -0.002359
0.000498 -3e-06 -0.002099
0.001088 0.000672 -0.002785
0.001066 0.000669 -0.002798
0.000857 0.000676 -0.002782
0.0004 -6e-06 -0.002106
0.000375 -7e-06 -0.002107
0.00035 -8e-06 -0.002108
0.000326 -9e-06 -0.002109
0.000301 -9e-06 -0.00211
0.000276 -1e-05 -0.002112
0.000252 -1e-05 -0.002112
0.000227 -1.1e-05 -0.002113
0.000202 -1.2e-05 -0.002114
0.000178 -1.2e-05 -0.002115
0.000153 -1.2e-05 -0.002115
0.000128 -1.3e-05 -0.002116
0.000104 -1.3e-05 -0.002115
7.9e-05 -1.3e-05 -0.002116
5.5e-05 -1.4e-05 -0.002117
3e-05 -1.4e-05 -0.002117
5e-06 -1.4e-05 -0.002116
-1.9e-05 -1.4e-05 -0.002116
-4.4e-05 -1.4e-05 -0.002116
-6.9e-05 -1.4e-05 -0.002115
-9.3e-05 -1.4e-05 -0.002115
-0.000118 -1.4e-05 -0.002115
-0.000142 -1.3e-05 -0.002113
-0.000167 -1.3e-05 -0.002112
-0.000192 -1.3e-05 -0.002112
-0.000216 -1.3e-05 -0.002111
-0.000241 -1.2e-05 -0.002109
-0.000266 -1.2e-05 -0.002108
-0.00029 -1.1e-05 -0.002107
-0.000339 -1e-05 -0.002103
-0.000364 -9e-06 -0.002101
-0.000389 -9e-06 -0.002099
-0.000413 -8e-06 -0.002097
-0.000438 -7e-06 -0.002094
0.000215 0.000556 -0.002864
0.000231 0.00057 -0.002829
0.001514 0.0005 -0.00224
0.000397 0.000711 -0.00241
0.001022 0.000474 -0.002823
0.00183 0.000368 -0.002378
0.000889 0.000552 -0.002807
0.000326 0.000749 -0.002524
0.0002 0.000598 -0.002897
0.000921 0.000538 -0.00283
0.000215 0.000638 -0.002863
0.001045 0.000501 -0.002815
0.000824 0.000555 -0.002757
0.000291 0.000658 -0.002676
0.000993 0.000699 -0.002812
0.000252 -2.2e-05 -0.002079
0.000228 -2.3e-05 -0.00208
0.000203 -2.3e-05 -0.00208
0.000201 0.000516 -0.002898
0.00114 0.000469 -0.00262
0.001943 0.00071 -0.002166
0.00121 0.000713 -0.002116
0.001188 0.000709 -0.002129
0.001802 0.000592 -0.00238
0.001465 0.000552 -0.002209
0.001116 0.000443 -0.002769
0.001185 0.000679 -0.00213
0.002386 0.000548 -0.00167
0.001856 0.000756 -0.00159
0.001068 0.000421 -0.002806
0.001045 0.00042 -0.002815
0.001022 0.000419 -0.002823
0.000998 0.000418 -0.002832
0.000975 0.000418 -0.002839
0.00095 0.00042 -0.002842
0.000921 0.000429 -0.00283
0.000889 0.000443 -0.002807
0.000857 0.000459 -0.002782
0.000824 0.000474 -0.002757
0.000789 0.000495 -0.00272
0.00075 0.00052 -0.002673
0.000711 0.000548 -0.002623
0.000629 0.000608 -0.002512
0.000419 0.000685 -0.0024
0.000396 0.000684 -0.002409
0.000374 0.00068 -0.002423
0.000354 0.000674 -0.002441
0.000336 0.000664 -0.002469
0.000324 0.000644 -0.002517
0.000315 0.000618 -0.002578
0.000304 0.000595 -0.002632
0.000291 0.000576 -0.002677
0.000277 0.000559 -0.002719
0.000262 0.000544 -0.002758
0.000247 0.000529 -0.002795
0.000232 0.000515 -0.00283
0.000216 0.000502 -0.002864
0.000201 0.000489 -0.002898
0.001564 0.00061 -0.002275
0.00161 0.000642 -0.002303
0.001939 0.000508 -0.002294
0.00254 0.000621 -0.001609
0.001516 0.000689 -0.002243
0.001656 0.000457 -0.00233
0.001125 0.000659 -0.00222
0.001887 0.000634 -0.001949
0.001068 0.000394 -0.002806
0.001045 0.000393 -0.002815
0.001022 0.000392 -0.002823
0.000998 0.000391 -0.002832
0.000975 0.000391 -0.002839
0.00095 0.000393 -0.002842
0.000921 0.000402 -0.002829
0.000889 0.000416 -0.002806
0.000857 0.000431 -0.002782
0.000824 0.000447 -0.002756
0.000789 0.000468 -0.00272
0.00075 0.000493 -0.002674
0.000711 0.000521 -0.002624
0.00067 0.00055 -0.002568
0.000443 0.000657 -0.002394
0.000419 0.000658 -0.0024
0.000396 0.000656 -0.002409
0.000374 0.000653 -0.002422
0.000354 0.000647 -0.002441
0.000336 0.000636 -0.00247
0.000324 0.000616 -0.002519
0.000315 0.000591 -0.002577
0.000304 0.000568 -0.002632
0.000291 0.000549 -0.002676
0.000277 0.000532 -0.002719
0.000262 0.000517 -0.002757
0.000247 0.000502 -0.002794
0.000232 0.000488 -0.00283
0.000217 0.000475 -0.002865
0.002348 0.000615 -0.001668
0.001139 0.000633 -0.002619
0.001935 0.000698 -0.002126
0.001801 0.000647 -0.002378
0.001467 0.000714 -0.002211
0.001146 0.000555 -0.002537
0.001935 0.000671 -0.002125
0.001956 0.0006 -0.002244
0.001079 0.000412 -0.002802
0.001842 0.000737 -0.001843
0.001068 0.000367 -0.002806
0.001045 0.000366 -0.002815
0.001022 0.000365 -0.002824
0.000998 0.000364 -0.002832
0.000975 0.000364 -0.002839
0.00095 0.000365 -0.002842
0.000921 0.000375 -0.002829
0.000889 0.000389 -0.002806
0.000857 0.000404 -0.002781
0.000824 0.00042 -0.002756
0.000788 0.000441 -0.002719
0.00075 0.000466 -0.002674
0.000711 0.000494 -0.002623
0.00067 0.000523 -0.002569
0.000467 0.000629 -0.002389
0.000443 0.00063 -0.002394
0.000419 0.00063 -0.0024
0.000396 0.000629 -0.002409
0.000374 0.000626 -0.002422
0.000354 0.00062 -0.002441
0.000336 0.000609 -0.00247
0.000324 0.000589 -0.002519
0.000315 0.000563 -0.002578
0.000304 0.00054 -0.002632
0.000291 0.000522 -0.002677
0.000277 0.000505 -0.002718
0.000262 0.00049 -0.002757
0.000247 0.000475 -0.002794
0.000233 0.000461 -0.00283
0.000218 0.000447 -0.002866
0.001731 0.000482 -0.002358
0.001146 0.000664 -0.002536
0.001851 0.000613 -0.002364
0.00193 0.000678 -0.002286
0.001134 0.000619 -0.002658
0.0011 0.000439 -0.00279
0.000278 -2.2e-05 -0.002075
0.001129 0.000442 -0.002697
0.002523 0.000648 -0.001627
0.00161 0.000615 -0.002303
0.001139 0.000688 -0.002618
0.001068 0.000339 -0.002807
0.001045 0.000338 -0.002816
0.001022 0.000337 -0.002824
0.000998 0.000337 -0.002832
0.000975 0.000336 -0.00284
0.00095 0.000338 -0.002842
0.000921 0.000348 -0.002829
0.000889 0.000362 -0.002806
0.000856 0.000378 -0.00278
0.000824 0.000392 -0.002757
0.000788 0.000414 -0.002718
0.00075 0.000439 -0.002673
0.000711 0.000466 -0.002623
0.00067 0.000496 -0.002568
0.000629 0.000526 -0.002514
0.000467 0.000602 -0.002389
0.000443 0.000603 -0.002394
0.000419 0.000603 -0.0024
0.000396 0.000602 -0.002409
0.000374 0.000599 -0.002422
0.000354 0.000593 -0.002441
0.000336 0.000582 -0.00247
0.000324 0.000561 -0.00252
0.000315 0.000535 -0.00258
0.000304 0.000513 -0.002632
0.000291 0.000495 -0.002676
0.000277 0.000478 -0.002718
0.000262 0.000462 -0.002757
0.000247 0.000447 -0.002795
0.000233 0.000434 -0.00283
0.000218 0.00042 -0.002866
0.001515 0.000636 -0.002242
0.001656 0.00062 -0.00233
0.001829 0.000614 -0.002375
0.001802 0.000619 -0.002379
0.000638 -1.8e-05 0.002018
0.001944 0.000628 -0.002166
0.000302 -2.2e-05 -0.00207
0.001228 0.000678 -0.002106
0.001871 0.000559 -0.00235
0.001137 0.000744 -0.002615
0.001068 0.000312 -0.002807
0.001045 0.000311 -0.002816
0.001022 0.00031 -0.002824
0.000999 0.000309 -0.002833
0.000975 0.000309 -0.00284
0.00095 0.000311 -0.002842
0.000921 0.000321 -0.002828
0.000889 0.000335 -0.002806
0.000856 0.00035 -0.002781
0.000824 0.000366 -0.002756
0.000788 0.000387 -0.002717
0.00075 0.000412 -0.002672
0.000711 0.000439 -0.002623
0.00067 0.000469 -0.002568
0.000326 -2.3e-05 -0.002064
0.000443 0.000576 -0.002394
0.000419 0.000576 -0.0024
0.000396 0.000575 -0.002409
0.000374 0.000571 -0.002422
0.000354 0.000566 -0.002441
0.000336 0.000554 -0.002471
0.000324 0.000534 -0.002519
0.000316 0.000508 -0.002581
0.000304 0.000486 -0.002632
0.000291 0.000467 -0.002678
0.000277 0.00045 -0.002719
0.000262 0.000435 -0.002757
0.000248 0.00042 -0.002795
0.000233 0.000406 -0.002831
0.000218 0.000393 -0.002866
0.001148 0.000618 -0.002445
0.0011 0.000576 -0.002789
0.001695 0.000659 -0.002346
0.001656 0.000675 -0.00233
0.000615 -1.8e-05 0.002025
0.001313 0.000631 -0.002104
0.00035 -2.4e-05 -0.002059
0.001123 0.000456 -0.002733
0.001768 0.000441 -0.002371
0.001116 0.000607 -0.002768
0.001799 0.000677 -0.002374
0.001068 0.000285 -0.002806
0.001045 0.000284 -0.002815
0.001022 0.000283 -0.002824
0.000998 0.000282 -0.002833
0.000975 0.000282 -0.002839
0.00095 0.000284 -0.002842
0.000921 0.000294 -0.002828
0.000889 0.000307 -0.002807
0.000856 0.000323 -0.002781
0.000824 0.000338 -0.002756
0.000788 0.00036 -0.002718
0.00075 0.000385 -0.002672
0.00071 0.000412 -0.002622
0.00067 0.000443 -0.002567
0.000443 0.000549 -0.002394
0.000419 0.000549 -0.0024
0.000396 0.000548 -0.002409
0.000374 0.000544 -0.002422
0.000354 0.000538 -0.002442
0.000336 0.000527 -0.002471
0.000324 0.000507 -0.002519
0.000315 0.000481 -0.00258
0.000305 0.000458 -0.002633
0.000291 0.00044 -0.002677
0.000277 0.000424 -0.002718
0.000262 0.000408 -0.002758
0.000247 0.000393 -0.002795
0.000232 0.000379 -0.00283
0.000217 0.000366 -0.002866
0.001414 0.000633 -0.002174
0.00266 0.00069 -0.000831
0.001135 0.000674 -0.002657
0.001131 0.000659 -0.002696
0.001129 0.000605 -0.002696
0.001135 0.000564 -0.002658
0.00128 0.000642 -0.002097
0.000374 -2.4e-05 -0.002053
0.001124 0.00074 -0.00222
0.001954 0.000509 -0.002275
0.001139 0.000715 -0.002618
0.00109 0.000259 -0.002796
0.001068 0.000258 -0.002806
0.001045 0.000257 -0.002815
0.001021 0.000256 -0.002823
0.000998 0.000255 -0.002832
0.000975 0.000255 -0.002839
0.00095 0.000257 -0.002841
0.000921 0.000267 -0.002828
0.000889 0.00028 -0.002806
0.000856 0.000296 -0.002781
0.000824 0.000311 -0.002756
0.000788 0.000333 -0.002717
0.00071 0.000385 -0.002622
0.00067 0.000414 -0.002569
0.000398 -2.4e-05 -0.002048
0.000443 0.000522 -0.002394
0.000419 0.000522 -0.0024
0.000396 0.000521 -0.002409
0.000374 0.000517 -0.002422
0.000354 0.000511 -0.002442
0.000336 0.0005 -0.002471
0.000324 0.00048 -0.00252
0.000315 0.000454 -0.002579
0.000305 0.000431 -0.002634
0.000291 0.000413 -0.002676
0.000277 0.000397 -0.002718
0.000262 0.000381 -0.002758
0.000247 0.000366 -0.002795
0.000231 0.000352 -0.00283
0.000217 0.000338 -0.002866
0.000201 0.000325 -0.0029
0.001768 0.000414 -0.00237
0.001116 0.000552 -0.002768
0.001563 0.000692 -0.002274
0.001515 0.000716 -0.002243
0.001143 0.000648 -0.002578
0.001129 0.000496 -0.002696
0.001694 0.000414 -0.002346
0.001206 0.000706 -0.002118
0.002554 0.000568 -0.001589
0.001124 0.000619 -0.002734
0.001768 0.000685 -0.002372
0.001068 0.000231 -0.002806
0.001045 0.00023 -0.002815
0.001021 0.000229 -0.002823
0.000998 0.000228 -0.002831
0.000974 0.000228 -0.002838
0.00095 0.00023 -0.002841
0.000921 0.000239 -0.002828
0.000889 0.000254 -0.002806
0.000856 0.000269 -0.002781
0.000824 0.000284 -0.002756
0.000788 0.000305 -0.002719
0.00071 0.000359 -0.002622
0.00067 0.000387 -0.002569
0.000443 0.000495 -0.002393
0.000419 0.000495 -0.0024
0.000396 0.000493 -0.002409
0.000374 0.00049 -0.002423
0.000354 0.000484 -0.002442
0.000336 0.000473 -0.002471
0.000324 0.000453 -0.002519
0.000316 0.000426 -0.002581
0.000305 0.000403 -0.002635
0.000291 0.000386 -0.002676
0.000277 0.00037 -0.002717
0.000262 0.000353 -0.002758
0.000247 0.000338 -0.002795
0.000231 0.000325 -0.00283
0.000216 0.000311 -0.002866
0.000201 0.000298 -0.002899
0.000185 0.000286 -0.002932
0.001655 0.00043 -0.002329
0.001768 0.000522 -0.002371
0.001803 0.000564 -0.00238
0.001435 0.000732 -0.002254
0.001418 0.000739 -0.002179
0.001879 0.000651 -0.00234
0.001731 0.0004 -0.002358
0.001767 0.000387 -0.00237
0.001146 0.000501 -0.002536
0.001148 0.000518 -0.002492
0.001148 0.000708 -0.002492
0.001824 0.000673 -0.002367
0.001068 0.000204 -0.002806
0.001045 0.000203 -0.002815
0.001022 0.000202 -0.002824
0.000998 0.000201 -0.002832
0.000974 0.000201 -0.002838
0.000949 0.000203 -0.00284
0.00092 0.000212 -0.002828
0.000889 0.000226 -0.002806
0.000856 0.000242 -0.002781
0.000824 0.000257 -0.002756
0.000788 0.000278 -0.002719
0.00071 0.000332 -0.00262
0.00067 0.00036 -0.002568
0.000627 0.000393 -0.002507
0.000422 -2.5e-05 -0.002042
0.000443 0.000467 -0.002393
0.000419 0.000468 -0.0024
0.000396 0.000466 -0.002409
0.000374 0.000463 -0.002422
0.000354 0.000457 -0.002442
0.000336 0.000446 -0.002471
0.000324 0.000425 -0.00252
0.000315 0.000399 -0.00258
0.000305 0.000376 -0.002634
0.000291 0.000359 -0.002676
0.000277 0.000342 -0.002718
0.000262 0.000326 -0.002758
0.000247 0.000311 -0.002795
0.000231 0.000298 -0.00283
0.000216 0.000284 -0.002865
0.000199 0.000271 -0.002898
0.000184 0.000259 -0.002931
0.001564 0.000529 -0.002275
0.001852 0.000503 -0.002366
0.001768 0.000576 -0.002371
0.001732 0.00059 -0.002359
0.001148 0.000681 -0.002492
0.001564 0.000556 -0.002276
0.001802 0.000374 -0.00238
0.001143 0.000567 -0.002578
0.001099 0.000603 -0.002788
0.001846 0.000671 -0.002357
0.001067 0.000177 -0.002805
0.001045 0.000176 -0.002815
0.001021 0.000175 -0.002824
0.000998 0.000174 -0.002831
0.000974 0.000175 -0.002837
0.000949 0.000177 -0.002839
0.00092 0.000185 -0.002828
0.000889 0.000199 -0.002805
0.000857 0.000214 -0.002782
0.000824 0.00023 -0.002755
0.000788 0.00025 -0.00272
0.000749 0.000277 -0.002671
0.00071 0.000304 -0.002621
0.000467 0.000439 -0.002389
0.000443 0.00044 -0.002394
0.000419 0.00044 -0.0024
0.000396 0.000439 -0.002409
0.000374 0.000436 -0.002422
0.000354 0.000429 -0.002442
0.000336 0.000418 -0.002471
0.000325 0.000398 -0.002521
0.000315 0.000372 -0.00258
0.000305 0.000349 -0.002634
0.000291 0.000332 -0.002677
0.000277 0.000315 -0.002718
0.000262 0.000299 -0.002758
0.000247 0.000284 -0.002795
0.000231 0.000271 -0.00283
0.000215 0.000257 -0.002865
0.000199 0.000244 -0.002898
0.000182 0.000232 -0.00293
0.001134 0.000723 -0.002188
0.001732 0.000536 -0.002359
0.001563 0.000665 -0.002274
0.001695 0.000632 -0.002346
0.001373 0.000741 -0.0022
0.001252 0.000621 -0.002099
0.001852 0.000476 -0.002366
0.001143 0.000594 -0.002578
0.001465 0.000525 -0.002209
0.002386 0.000656 -0.001669
0.001732 0.000699 -0.00236
0.001067 0.000151 -0.002803
0.001044 0.000149 -0.002813
0.001021 0.000148 -0.002822
0.000997 0.000148 -0.002828
0.000973 0.000149 -0.002834
0.000948 0.000151 -0.002836
0.00092 0.000158 -0.002827
0.000889 0.000172 -0.002805
0.000856 0.000187 -0.002781
0.000824 0.000202 -0.002756
0.000788 0.000224 -0.002719
0.000749 0.000251 -0.002669
0.00071 0.000278 -0.002619
0.000467 0.000412 -0.002389
0.000443 0.000413 -0.002393
0.000419 0.000413 -0.0024
0.000396 0.000412 -0.002409
0.000374 0.000408 -0.002422
0.000354 0.000402 -0.002442
0.000336 0.000391 -0.002471
0.000325 0.00037 -0.002521
0.000316 0.000344 -0.002581
0.000305 0.000322 -0.002635
0.000291 0.000304 -0.002678
0.000276 0.000289 -0.002716
0.000262 0.000272 -0.002758
0.000247 0.000257 -0.002795
0.000231 0.000243 -0.00283
0.000215 0.000229 -0.002865
0.000199 0.000217 -0.002898
0.000182 0.000205 -0.002929
0.000165 0.000193 -0.002961
0.002305 0.000687 -0.001663
0.00183 0.000504 -0.002378
0.001656 0.000647 -0.00233
0.001732 0.000617 -0.002359
0.001383 0.000751 -0.002169
0.001124 0.000686 -0.002219
0.001228 0.000624 -0.002106
0.001871 0.000478 -0.002351
0.001139 0.000579 -0.002619
0.001146 0.00061 -0.002536
0.001564 0.000475 -0.002275
0.001695 0.000605 -0.002346
0.002487 0.000556 -0.001322
0.001066 0.000126 -0.002799
0.001043 0.000124 -0.002809
0.00102 0.000123 -0.002818
0.000996 0.000123 -0.002824
0.000972 0.000124 -0.002829
0.000947 0.000125 -0.002833
0.00092 0.000132 -0.002826
0.000888 0.000145 -0.002805
0.000856 0.00016 -0.002782
0.000824 0.000176 -0.002756
0.000787 0.000198 -0.002716
0.000749 0.000224 -0.002669
0.000709 0.000251 -0.002619
0.000669 0.00028 -0.002567
0.000628 0.000311 -0.002509
0.000467 0.000385 -0.002389
0.000443 0.000386 -0.002393
0.000419 0.000386 -0.002399
0.000396 0.000385 -0.002409
0.000374 0.000381 -0.002422
0.000354 0.000375 -0.002442
0.000336 0.000364 -0.002471
0.000325 0.000343 -0.002521
0.000316 0.000317 -0.002582
0.000304 0.000295 -0.002633
0.000291 0.000277 -0.002677
0.000277 0.000261 -0.002718
0.000262 0.000245 -0.002757
0.000247 0.00023 -0.002794
0.000231 0.000216 -0.002831
0.000215 0.000202 -0.002865
0.000199 0.00019 -0.002898
0.000182 0.000177 -0.00293
0.000165 0.000166 -0.002961
0.001148 0.000647 -0.002165
0.0011 0.000548 -0.002789
0.000591 -1.8e-05 0.002031
0.00161 0.000669 -0.002303
0.001852 0.000531 -0.002366
0.001253 0.000675 -0.002099
0.000446 -2.5e-05 -0.002036
0.002206 0.000728 -0.00164
0.002534 0.000752 -3.5e-05
0.00161 0.000697 -0.002302
0.001135 0.000728 -0.002658
0.001064 0.000102 -0.002792
0.001041 0.0001 -0.002803
0.001018 9.9e-05 -0.002811
0.000994 9.9e-05 -0.002818
0.00097 0.0001 -0.002823
0.000946 0.000101 -0.002827
0.000919 0.000106 -0.002824
0.000889 0.000118 -0.002805
0.000856 0.000133 -0.002781
0.000824 0.000148 -0.002756
0.000749 0.000196 -0.002671
0.000709 0.000224 -0.002618
0.000628 0.000283 -0.002509
0.000467 0.000357 -0.002389
0.000443 0.000359 -0.002393
0.000419 0.000359 -0.0024
0.000396 0.000357 -0.002409
0.000374 0.000354 -0.002422
0.000354 0.000348 -0.002442
0.000336 0.000337 -0.002471
0.000325 0.000315 -0.002523
0.000316 0.000289 -0.002583
0.000305 0.000268 -0.002634
0.000291 0.00025 -0.002677
0.000277 0.000233 -0.002718
0.000262 0.000218 -0.002757
0.000246 0.000203 -0.002793
0.000231 0.000189 -0.002831
0.000215 0.000175 -0.002865
0.0002 0.000162 -0.002899
0.000184 0.00015 -0.002931
0.001146 0.000638 -0.002396
0.001139 0.000606 -0.002619
0.001139 0.00066 -0.002618
0.002489 0.000623 -0.001663
0.001564 0.000638 -0.002275
0.001148 0.000645 -0.002445
0.001871 0.000369 -0.002351
0.00183 0.000531 -0.002378
0.001894 0.000679 -0.00232
0.001061 7.9e-05 -0.002783
0.001038 7.8e-05 -0.002793
0.001015 7.7e-05 -0.002801
0.000992 7.6e-05 -0.002809
0.000968 7.7e-05 -0.002814
0.000943 7.8e-05 -0.002818
0.000917 8.2e-05 -0.002817
0.000888 9.1e-05 -0.002805
0.000856 0.000106 -0.002781
0.000824 0.000121 -0.002755
0.000788 0.000143 -0.002718
0.00047 -2.5e-05 -0.00203
0.000493 0.000327 -0.002389
0.000467 0.00033 -0.002389
0.000443 0.000331 -0.002393
0.000419 0.000332 -0.0024
0.000396 0.00033 -0.002409
0.000374 0.000327 -0.002423
0.000354 0.00032 -0.002442
0.000337 0.000309 -0.002473
0.000325 0.000288 -0.002522
0.000316 0.000262 -0.002583
0.000305 0.00024 -0.002634
0.000291 0.000223 -0.002676
0.000277 0.000206 -0.002718
0.000262 0.000191 -0.002757
0.000246 0.000176 -0.002794
0.000231 0.000161 -0.002831
0.000215 0.000148 -0.002864
0.000199 0.000135 -0.002898
0.001139 0.000663 -0.002337
0.001901 0.000621 -0.002326
0.002564 0.000729 -0.00084
0.001915 0.000677 -0.002041
0.001415 0.000714 -0.002174
0.001148 0.000702 -0.002164
0.001134 0.000641 -0.002189
0.001802 0.000429 -0.00238
0.001611 0.000506 -0.002304
0.001078 0.000576 -0.002801
0.001655 0.00073 -0.002328
0.001058 5.8e-05 -0.002771
0.001035 5.7e-05 -0.00278
0.001012 5.6e-05 -0.002789
0.000988 5.5e-05 -0.002796
0.000964 5.6e-05 -0.002802
0.00094 5.7e-05 -0.002806
0.000914 6e-05 -0.002807
0.000887 6.6e-05 -0.002801
0.000856 7.9e-05 -0.002779
0.000823 9.4e-05 -0.002755
0.000788 0.000115 -0.002718
0.000749 0.000141 -0.002671
0.000494 -2.6e-05 -0.002024
0.000492 0.0003 -0.002389
0.000467 0.000303 -0.002389
0.000443 0.000304 -0.002393
0.000419 0.000304 -0.0024
0.000396 0.000303 -0.002409
0.000374 0.000299 -0.002423
0.000354 0.000293 -0.002443
0.000337 0.000281 -0.002473
0.000325 0.000261 -0.002522
0.000316 0.000235 -0.002582
0.000305 0.000213 -0.002634
0.00029 0.000197 -0.002676
0.000277 0.000179 -0.002718
0.000262 0.000163 -0.002757
0.000246 0.000149 -0.002793
0.000231 0.000134 -0.002831
0.000215 0.000121 -0.002865
0.000199 0.000108 -0.002898
0.001078 0.000549 -0.002801
0.001147 0.000719 -0.002396
0.001146 0.000719 -0.002535
0.001147 0.000736 -0.002491
0.001803 0.000537 -0.00238
0.001852 0.000395 -0.002366
0.001206 0.000679 -0.002117
0.001253 0.000702 -0.002099
0.00183 0.000422 -0.002378
0.001147 0.000573 -0.002491
0.000567 -1.8e-05 0.002039
0.001076 4e-05 -0.002745
0.001053 3.8e-05 -0.002755
0.001031 3.7e-05 -0.002765
0.001007 3.6e-05 -0.002773
0.000984 3.6e-05 -0.00278
0.00096 3.6e-05 -0.002786
0.000935 3.7e-05 -0.00279
0.000911 3.9e-05 -0.002793
0.000884 4.4e-05 -0.00279
0.000855 5.3e-05 -0.002777
0.000823 6.8e-05 -0.002754
0.000787 8.9e-05 -0.002717
0.000749 0.000115 -0.002669
0.000668 0.000173 -0.002563
0.000628 0.000202 -0.002509
0.000492 0.000273 -0.002389
0.000467 0.000276 -0.002389
0.000443 0.000277 -0.002393
0.000419 0.000277 -0.002399
0.000396 0.000276 -0.002409
0.000374 0.000272 -0.002423
0.000354 0.000266 -0.002442
0.000336 0.000255 -0.002471
0.000325 0.000234 -0.002521
0.000316 0.000207 -0.002584
0.000305 0.000186 -0.002634
0.00029 0.00017 -0.002675
0.000277 0.000152 -0.002718
0.000262 0.000136 -0.002758
0.000247 0.000122 -0.002794
0.000231 0.000107 -0.002831
0.000215 9.3e-05 -0.002866
0.000199 8.1e-05 -0.002898
0.001078 0.00044 -0.002802
0.001148 0.000699 -0.002445
0.001564 0.000719 -0.002275
0.001142 0.000703 -0.002577
0.001466 0.000687 -0.00221
0.001149 0.00059 -0.002446
0.000518 -2.6e-05 -0.002018
0.001228 0.000705 -0.002107
0.001129 0.000577 -0.002697
0.001123 0.000592 -0.002733
0.001696 0.000712 -0.002347
0.001071 2.3e-05 -0.002725
0.001048 2.1e-05 -0.002735
0.001025 2e-05 -0.002744
0.001001 1.9e-05 -0.002751
0.000978 1.9e-05 -0.002758
0.000954 1.9e-05 -0.002764
0.00093 2e-05 -0.00277
0.000905 2.2e-05 -0.002773
0.000879 2.5e-05 -0.002773
0.000852 3.1e-05 -0.002766
0.000821 4.3e-05 -0.002748
0.000787 6.2e-05 -0.002716
0.000749 8.7e-05 -0.00267
0.000709 0.000115 -0.002619
0.000627 0.000175 -0.002508
0.000492 0.000246 -0.002388
0.000467 0.000249 -0.002389
0.000443 0.00025 -0.002393
0.000419 0.00025 -0.0024
0.000396 0.000249 -0.002409
0.000374 0.000245 -0.002423
0.000354 0.000239 -0.002442
0.000336 0.000228 -0.002471
0.000324 0.000208 -0.00252
0.000305 0.000158 -0.002635
0.00029 0.000142 -0.002675
0.000276 0.000125 -0.002717
0.000262 0.000109 -0.002757
0.000247 9.4e-05 -0.002794
0.000231 8e-05 -0.002831
0.000215 6.6e-05 -0.002865
0.000199 5.5e-05 -0.002896
0.001148 0.000626 -0.002493
0.001732 0.000563 -0.002359
0.001125 0.000646 -0.002734
0.001915 0.000595 -0.002041
0.001361 0.000743 -0.002134
0.001732 0.000509 -0.002359
0.001831 0.000395 -0.002379
0.001116 0.00058 -0.002768
0.001129 0.000714 -0.002695
0.001085 1.3e-05 -0.002685
0.001062 1e-05 -0.002695
0.001039 9e-06 -0.002704
0.001016 8e-06 -0.002712
0.000992 9e-06 -0.002718
0.000968 9e-06 -0.002724
0.000945 8e-06 -0.002731
0.000921 9e-06 -0.002737
0.000897 9e-06 -0.002742
0.000872 1.1e-05 -0.002745
0.000846 1.5e-05 -0.002744
0.000818 2.3e-05 -0.002734
0.000786 3.7e-05 -0.002712
0.000749 6.1e-05 -0.002669
0.000492 0.000219 -0.002388
0.000467 0.000222 -0.002389
0.000443 0.000223 -0.002393
0.000419 0.000223 -0.002399
0.000396 0.000222 -0.002409
0.000374 0.000218 -0.002423
0.000354 0.000212 -0.002442
0.000336 0.000201 -0.002472
0.000324 0.00018 -0.002521
0.000305 0.000131 -0.002635
0.00029 0.000115 -0.002676
0.000276 9.8e-05 -0.002718
0.000262 8.2e-05 -0.002757
0.000246 6.7e-05 -0.002794
0.000231 5.3e-05 -0.002829
0.000214 4.1e-05 -0.002862
0.000196 3.1e-05 -0.002888
0.000175 2.6e-05 -0.002905
0.001253 0.000648 -0.002099
0.001515 0.000662 -0.002243
0.001146 0.000691 -0.002536
0.002512 0.000564 -0.00165
0.001329 0.000753 -0.002129
0.001852 0.000422 -0.002366
0.001123 0.000483 -0.002733
0.001146 0.000637 -0.002535
0.001147 0.000692 -0.002396
0.00161 0.000588 -0.002303
0.001149 0.000536 -0.002446
0.002156 0.000695 -0.001628
0.001731 0.000427 -0.002359
0.001694 0.000442 -0.002346
0.000929 8e-06 -0.002675
0.000905 9e-06 -0.00268
0.000881 9e-06 -0.002686
0.000857 1e-05 -0.002692
0.000809 1.1e-05 -0.002702
0.000781 1.8e-05 -0.002694
0.000627 0.000121 -0.002507
0.000492 0.000191 -0.002388
0.000467 0.000195 -0.002389
0.000443 0.000196 -0.002393
0.000419 0.000196 -0.002399
0.000396 0.000195 -0.002409
0.000374 0.000191 -0.002422
0.000354 0.000185 -0.002442
0.000336 0.000174 -0.002471
0.000325 0.000153 -0.002522
0.000316 0.000127 -0.002582
0.000305 0.000104 -0.002635
0.000291 8.7e-05 -0.002676
0.000277 7e-05 -0.002718
0.000262 5.5e-05 -0.002757
0.000246 4.1e-05 -0.002792
0.000229 2.8e-05 -0.002825
0.000211 2e-05 -0.00285
0.00019 1.4e-05 -0.002867
0.000168 1.2e-05 -0.002879
0.001513 0.000583 -0.002239
0.001143 0.000621 -0.002577
0.001129 0.000632 -0.002696
0.001143 0.000676 -0.002577
0.001819 0.000759 -0.001623
0.001149 0.000755 -0.002166
0.00113 0.00055 -0.002696
0.001148 0.000653 -0.002493
0.001148 0.000672 -0.002446
0.001134 0.000669 -0.002188
0.001871 0.000396 -0.002351
0.001891 0.000397 -0.002336
0.001166 0.000705 -0.002146
0.000937 9e-06 -0.002611
0.000913 9e-06 -0.002618
0.000889 9e-06 -0.002624
0.000865 9e-06 -0.00263
0.000842 9e-06 -0.002637
0.000794 9e-06 -0.002649
0.000771 9e-06 -0.002656
0.000743 1.5e-05 -0.00265
0.000668 6.5e-05 -0.002561
0.000627 9.4e-05 -0.002508
0.000467 0.000168 -0.002389
0.000442 0.000169 -0.002393
0.000419 0.000169 -0.002399
0.000396 0.000167 -0.002409
0.000374 0.000164 -0.002422
0.000354 0.000157 -0.002442
0.000336 0.000147 -0.002471
0.000325 0.000125 -0.002522
0.000315 0.0001 -0.002581
0.000305 7.7e-05 -0.002636
0.00029 6.1e-05 -0.002675
0.000277 4.3e-05 -0.002719
0.000261 2.9e-05 -0.002754
0.000244 1.8e-05 -0.002784
0.000224 1.1e-05 -0.002805
0.000201 1e-05 -0.002814
0.000178 8e-06 -0.002823
0.000154 9e-06 -0.002829
0.00013 9e-06 -0.002836
0.001467 0.000605 -0.002211
0.002491 0.000567 -0.001664
0.001925 0.000633 -0.002083
0.001938 0.000591 -0.002294
0.002255 0.000653 -0.001651
0.001166 0.000759 -0.002146
0.001891 0.00037 -0.002336
0.001148 0.000545 -0.002492
0.001514 0.000527 -0.002241
0.001134 0.000592 -0.002657
0.001944 0.000546 -0.002166
0.001891 0.000452 -0.002335
0.001123 0.000511 -0.002733
0.001129 0.000523 -0.002696
0.002462 0.000689 -0.000845
0.001611 0.000451 -0.002304
0.001137 0.000583 -0.002334
0.001951 0.000559 -0.002206
0.000901 3e-06 -0.002574
0.000878 2e-06 -0.002582
0.000854 2e-06 -0.002589
0.00083 2e-06 -0.002595
0.000807 2e-06 -0.002602
0.000783 2e-06 -0.002609
0.000759 2e-06 -0.002616
0.000734 4e-06 -0.002617
0.000705 1.4e-05 -0.002603
0.000467 0.00014 -0.002388
0.000442 0.000142 -0.002393
0.000419 0.000142 -0.002399
0.000396 0.00014 -0.002409
0.000374 0.000137 -0.002422
0.000354 0.00013 -0.002442
0.000336 0.00012 -0.002471
0.000324 0.0001 -0.002519
0.000305 4.9e-05 -0.002636
0.000291 3.2e-05 -0.002678
0.000276 1.8e-05 -0.002715
0.000257 8e-06 -0.002738
0.000234 7e-06 -0.00275
0.000211 7e-06 -0.002757
0.000186 8e-06 -0.002761
0.000162 9e-06 -0.002765
0.000138 9e-06 -0.002772
0.000115 8e-06 -0.00278
0.001148 0.000675 -0.002165
0.001123 0.000565 -0.002733
0.002047 0.000634 -0.001596
0.001851 0.000558 -0.002365
0.001116 0.000498 -0.002769
0.001146 0.000528 -0.002537
0.001414 0.000688 -0.002173
0.001466 0.00066 -0.00221
0.001888 0.000688 -0.00195
0.002458 0.000577 -0.001668
0.001358 0.000691 -0.00213
0.000544 -1.7e-05 0.002046
0.00052 -1.7e-05 0.002053
0.001786 0.000711 -0.001726
0.001933 0.000715 -0.002262
0.001206 0.000652 -0.002117
0.000815 3e-06 -0.002538
0.000791 2e-06 -0.002545
0.000767 2e-06 -0.002552
0.00072 3e-06 -0.002564
0.000695 5e-06 -0.002567
0.000541 -2.6e-05 -0.002011
0.000442 0.000115 -0.002392
0.000419 0.000115 -0.002399
0.000396 0.000113 -0.002408
0.000374 0.00011 -0.002422
0.000354 0.000103 -0.002442
0.000336 9.2e-05 -0.002471
0.000316 4.4e-05 -0.002585
0.000305 2.2e-05 -0.002636
0.000289 9e-06 -0.00267
0.000269 3e-06 -0.00269
0.000198 1e-06 -0.002712
0.000126 4e-06 -0.002727
0.000102 4e-06 -0.002733
0.0011 0.000412 -0.00279
0.00114 0.000497 -0.002619
0.001871 0.000532 -0.00235
0.00183 0.000586 -0.002377
0.001851 0.000585 -0.002365
0.00183 0.00045 -0.002378
0.000565 -2.6e-05 -0.002005
0.001314 0.000739 -0.002105
0.001359 0.000718 -0.00213
0.001148 0.000599 -0.002492
0.001166 0.000732 -0.002146
0.001314 0.000712 -0.002105
0.001466 0.000632 -0.002211
0.000497 -1.7e-05 0.00206
0.000589 -2.6e-05 -0.001998
0.000612 -2.6e-05 -0.001991
0.000749 6e-06 -0.002487
0.000636 -2.6e-05 -0.001984
0.00066 -2.5e-05 -0.001977
0.000442 8.8e-05 -0.002392
0.000418 8.8e-05 -0.002399
0.000395 8.6e-05 -0.002408
0.000374 8.3e-05 -0.002421
0.000354 7.6e-05 -0.002442
0.000336 6.5e-05 -0.002471
0.000683 -2.5e-05 -0.001969
0.000316 1.8e-05 -0.002583
0.000299 6e-06 -0.002613
0.000276 4e-06 -0.002624
0.000252 4e-06 -0.002631
0.000183 1e-06 -0.002656
0.000158 3e-06 -0.002659
0.001116 0.000416 -0.002769
0.001768 0.000549 -0.002371
0.001135 0.000701 -0.002657
0.001827 0.000643 -0.002373
0.001871 0.000586 -0.00235
0.001802 0.000401 -0.00238
0.001137 6e-06 -0.002319
0.001114 6e-06 -0.002325
0.001089 7e-06 -0.002329
0.001018 8e-06 -0.002348
0.000994 8e-06 -0.002355
0.001872 0.000423 -0.002351
0.001891 0.000424 -0.002336
0.000779 1.1e-05 -0.002408
0.000755 1.1e-05 -0.002415
0.000707 1.1e-05 -0.002427
0.000683 1.1e-05 -0.002433
0.00066 1.1e-05 -0.002442
0.000637 1e-05 -0.00245
0.000442 6.1e-05 -0.002392
0.000419 6.1e-05 -0.002399
0.000395 5.9e-05 -0.002408
0.000373 5.6e-05 -0.002421
0.000353 5e-05 -0.00244
0.000336 3.9e-05 -0.00247
0.000707 -2.4e-05 -0.001962
0.000259 6e-06 -0.002563
0.000236 5e-06 -0.002573
0.000212 6e-06 -0.002577
0.00073 -2.4e-05 -0.001955
0.000164 6e-06 -0.002589
0.000141 6e-06 -0.002597
0.000754 -2.4e-05 -0.001947
9.3e-05 6e-06 -0.002611
7e-05 5e-06 -0.002619
0.001768 0.000468 -0.002371
0.002487 0.000651 -0.001661
0.001143 0.000748 -0.002531
0.001852 0.000684 -0.002349
0.001944 0.000682 -0.002166
0.001186 0.000734 -0.002131
0.001124 3e-06 -0.00227
0.001098 7e-06 -0.002267
0.001073 9e-06 -0.002269
0.001125 0.000631 -0.002221
0.002386 0.000521 -0.00167
0.001001 9e-06 -0.002289
0.000978 8e-06 -0.002297
0.000954 8e-06 -0.002304
0.000931 8e-06 -0.002312
0.000907 8e-06 -0.002318
0.0011 0.000521 -0.00279
0.001937 0.000741 -0.00216
0.001868 0.000656 -0.0019
0.002657 0.000699 -0.000355
0.000777 -2.3e-05 -0.00194
0.000766 6e-06 -0.002362
