0.002157 -3e-06 2.3e-05
0.002161 -3e-06 -2e-06
0.002162 -3e-06 -2.6e-05
0.002164 -2e-06 -5.1e-05
0.002166 -2e-06 -7.6e-05
0.002669 0.000547 0.001396
0.002189 0.000418 0.002042
0.002776 0.000683 0.000558
0.002702 0.00071 0.00058
0.002679 0.000628 0.001374
0.002622 0.000642 0.001428
0.00201 -5e-06 0.000774
0.002015 -6e-06 0.00075
0.002021 -7e-06 0.000726
0.002025 -8e-06 0.000702
0.002691 0.000627 0.001352
0.002712 0.000626 0.001308
0.002717 0.000698 0.001203
0.002723 0.00069 0.001232
0.0027 0.000711 0.001169
0.002053 -1.2e-05 0.000556
0.002057 -1.3e-05 0.000532
0.002061 -1.4e-05 0.000507
0.002065 -1.4e-05 0.000483
0.00207 -1.5e-05 0.000459
0.002074 -1.5e-05 0.000434
0.002076 -1.5e-05 0.00041
0.00208 -1.5e-05 0.000386
0.002084 -1.6e-05 0.000361
0.002087 -1.6e-05 0.000337
0.00209 -1.6e-05 0.000312
0.002093 -1.6e-05 0.000288
0.002097 -1.6e-05 0.000264
0.0021 -1.6e-05 0.000239
0.002102 -1.6e-05 0.000214
0.002105 -1.6e-05 0.00019
0.002107 -1.5e-05 0.000166
0.00211 -1.5e-05 0.000141
0.002113 -1.5e-05 0.000117
0.002115 -1.5e-05 9.2e-05
0.002117 -1.4e-05 6.7e-05
0.002119 -1.4e-05 4.3e-05
0.002121 -1.3e-05 1.8e-05
0.002123 -1.3e-05 -6e-06
0.002124 -1.2e-05 -3.1e-05
0.002125 -1.1e-05 -5.6e-05
0.002469 0.000722 0.000614
0.002712 0.000491 0.001308
0.002652 0.000556 0.001094
0.00228 0.000626 0.001415
0.00204 0.000757 0.001422
0.002611 0.000608 0.00105
0.002723 0.000517 0.001285
0.002736 0.000521 0.001237
0.002777 0.000655 0.000558
0.002654 0.000522 0.001416
0.002662 0.000699 0.00059
0.002702 0.000545 0.00133
0.002611 0.000636 0.00105
0.00268 0.000438 0.001374
0.002691 0.000437 0.001352
0.002702 0.000437 0.00133
0.002712 0.000436 0.001308
0.002723 0.000436 0.001285
0.002733 0.000436 0.001263
0.002736 0.000439 0.001237
0.002722 0.000451 0.001204
0.002701 0.000467 0.001169
0.002678 0.000483 0.001132
0.002651 0.000502 0.001094
0.002608 0.000528 0.001049
0.002562 0.000557 0.001002
0.00251 0.000588 0.000953
0.002383 0.000693 0.000685
0.002395 0.000691 0.000663
0.002412 0.000687 0.000643
0.002435 0.00068 0.000626
0.002573 0.000625 0.000605
0.00262 0.000606 0.000598
0.002661 0.000591 0.000589
0.002703 0.000574 0.00058
0.00274 0.00056 0.000569
0.002777 0.000547 0.000558
0.002813 0.000533 0.000547
0.002849 0.000521 0.00054
0.001976 0.000679 0.001555
0.001979 0.000683 0.001529
0.001982 0.000686 0.001504
0.00199 0.000686 0.001481
0.002003 0.000684 0.00146
0.002018 0.000682 0.001439
0.002165 0.000658 0.002087
0.002369 0.000672 0.001425
0.001305 0.000311 0.002716
0.002411 0.000575 0.001427
0.002625 0.000424 0.001428
0.002654 0.000414 0.001416
0.002668 0.000412 0.001396
0.00268 0.000411 0.001374
0.00269 0.00041 0.001352
0.002701 0.00041 0.00133
0.002712 0.000409 0.001308
0.002723 0.000409 0.001285
0.002733 0.000409 0.001263
0.002736 0.000412 0.001237
0.002721 0.000424 0.001204
0.002701 0.000439 0.001169
0.002678 0.000456 0.001132
0.002652 0.000474 0.001094
0.002607 0.000502 0.001048
0.002563 0.000529 0.001002
0.002373 0.000665 0.000707
0.002382 0.000665 0.000684
0.002396 0.000663 0.000663
0.002412 0.00066 0.000643
0.002435 0.000653 0.000626
0.00247 0.00064 0.000615
0.002521 0.00062 0.000609
0.002574 0.000597 0.000606
0.002619 0.00058 0.000598
0.002662 0.000563 0.000589
0.002702 0.000547 0.00058
0.002741 0.000533 0.00057
0.002777 0.000519 0.000558
0.002813 0.000506 0.000549
0.001978 0.00065 0.001556
0.001978 0.000656 0.001529
0.001982 0.000659 0.001504
0.00199 0.000659 0.001481
0.002003 0.000657 0.001459
0.002181 0.000704 0.002004
0.002118 0.000604 0.002143
0.002045 0.000646 0.002198
0.000432 0.000453 0.002982
0.002016 0.000598 0.002201
0.002017 0.000516 0.0022
0.00217 0.000492 0.00209
0.002625 0.000396 0.001428
0.002654 0.000386 0.001416
0.002668 0.000384 0.001396
0.00268 0.000384 0.001374
0.002691 0.000383 0.001352
0.002702 0.000382 0.00133
0.002712 0.000382 0.001307
0.002722 0.000382 0.001285
0.002733 0.000381 0.001263
0.002736 0.000385 0.001237
0.002722 0.000397 0.001204
0.002701 0.000412 0.001169
0.002677 0.000429 0.001132
0.002653 0.000446 0.001095
0.002372 0.000638 0.000707
0.002382 0.000638 0.000684
0.002396 0.000636 0.000664
0.002413 0.000632 0.000644
0.002435 0.000626 0.000626
0.002469 0.000614 0.000614
0.002518 0.000594 0.000608
0.002575 0.00057 0.000606
0.002617 0.000553 0.000597
0.002663 0.000535 0.00059
0.002702 0.00052 0.00058
0.002739 0.000506 0.000569
0.002777 0.000492 0.000558
0.002814 0.000479 0.00055
0.001978 0.000623 0.001556
0.001978 0.000629 0.001529
0.001982 0.000631 0.001504
0.00199 0.000632 0.001481
0.002002 0.00063 0.001459
0.001364 0.000635 0.002685
0.002326 0.000716 0.001421
0.002136 0.000521 0.002126
0.001327 0.000448 0.002705
0.001823 0.000673 0.002134
0.002604 0.000479 0.001429
0.00201 0.000659 0.001448
0.002626 0.000368 0.001428
0.002654 0.000359 0.001416
0.002668 0.000357 0.001396
0.00268 0.000356 0.001374
0.002691 0.000355 0.001352
0.002702 0.000355 0.00133
0.002713 0.000354 0.001308
0.002723 0.000354 0.001285
0.002733 0.000354 0.001263
0.002736 0.000357 0.001237
0.002722 0.00037 0.001204
0.002701 0.000385 0.001169
0.002678 0.000402 0.001132
0.002652 0.00042 0.001094
0.002018 -2.5e-05 0.000554
0.002365 0.00061 0.00073
0.002372 0.000611 0.000707
0.002382 0.000611 0.000684
0.002396 0.000609 0.000663
0.002412 0.000605 0.000644
0.002435 0.000599 0.000627
0.002469 0.000586 0.000614
0.002575 0.000543 0.000606
0.002619 0.000525 0.000598
0.002663 0.000508 0.00059
0.002702 0.000493 0.00058
0.00274 0.000479 0.000569
0.002777 0.000465 0.000559
0.002814 0.000452 0.00055
0.001977 0.000597 0.001556
0.001978 0.000602 0.001529
0.001982 0.000604 0.001504
0.00199 0.000605 0.001481
0.002159 0.000689 0.002082
0.001417 0.000659 0.002589
0.00237 0.000699 0.001425
0.002127 0.000611 0.001832
0.002128 0.000584 0.001832
0.002009 -2.5e-05 0.000578
0.002001 -2.6e-05 0.000601
0.002026 0.000659 0.001429
0.002627 0.000341 0.001428
0.002654 0.000332 0.001416
0.002669 0.00033 0.001396
0.00268 0.000329 0.001374
0.002691 0.000328 0.001352
0.002702 0.000328 0.00133
0.002712 0.000327 0.001308
0.002723 0.000327 0.001285
0.002733 0.000327 0.001263
0.002736 0.00033 0.001237
0.002721 0.000343 0.001204
0.002701 0.000358 0.001169
0.002678 0.000374 0.001132
0.002651 0.000393 0.001094
0.002365 0.000583 0.00073
0.002372 0.000584 0.000706
0.002382 0.000584 0.000684
0.002395 0.000582 0.000663
0.002412 0.000578 0.000643
0.002435 0.000571 0.000626
0.002469 0.000559 0.000614
0.002522 0.000537 0.00061
0.002575 0.000516 0.000606
0.002619 0.000498 0.000598
0.002663 0.000481 0.00059
0.002702 0.000466 0.00058
0.00274 0.000451 0.000569
0.002777 0.000438 0.000558
0.002814 0.000424 0.000549
0.001976 0.00057 0.001555
0.001978 0.000574 0.001529
0.001413 0.000618 0.002626
0.002174 0.000718 0.001966
0.002618 0.000725 0.001406
0.002127 0.00072 0.001832
0.002232 0.000727 0.001407
0.002452 0.000614 0.001429
0.000538 0.000615 0.002828
0.001387 0.000443 0.002675
0.002452 0.000506 0.001429
0.002412 0.00052 0.001428
0.001993 -2.7e-05 0.000624
0.001143 0.000641 0.002697
0.002626 0.000314 0.001428
0.002655 0.000305 0.001416
0.002669 0.000303 0.001396
0.00268 0.000302 0.001374
0.002691 0.000301 0.001352
0.002702 0.0003 0.00133
0.002713 0.0003 0.001308
0.002724 0.000299 0.001286
0.002733 0.0003 0.001263
0.002736 0.000303 0.001237
0.002722 0.000315 0.001204
0.0027 0.000331 0.001168
0.002677 0.000348 0.001132
0.002653 0.000365 0.001095
0.002612 0.000391 0.00105
0.002365 0.000556 0.00073
0.002372 0.000557 0.000707
0.002382 0.000557 0.000684
0.002395 0.000555 0.000663
0.002412 0.000551 0.000643
0.002436 0.000544 0.000627
0.002469 0.000532 0.000614
0.002523 0.00051 0.00061
0.002575 0.000488 0.000606
0.00262 0.00047 0.000598
0.002663 0.000454 0.00059
0.002702 0.000439 0.00058
0.002739 0.000425 0.000569
0.002777 0.00041 0.000558
0.002813 0.000397 0.000547
0.002281 0.000571 0.001416
0.002165 0.000624 0.001927
0.002127 0.000693 0.001832
0.002412 0.000738 0.001428
0.002104 0.000744 0.001781
0.002568 0.000654 0.001432
0.002088 0.000427 0.002172
0.002531 0.000586 0.00143
0.002173 0.000644 0.001391
0.001903 0.000641 0.002166
0.002605 0.000505 0.001429
0.002127 0.000503 0.001832
0.002627 0.000287 0.001428
0.002654 0.000278 0.001416
0.002669 0.000276 0.001396
0.00268 0.000275 0.001374
0.002691 0.000274 0.001352
0.002702 0.000273 0.00133
0.002713 0.000273 0.001308
0.002724 0.000272 0.001286
0.002733 0.000272 0.001263
0.002736 0.000276 0.001237
0.002722 0.000288 0.001204
0.002701 0.000304 0.001169
0.002677 0.000321 0.001132
0.002651 0.000339 0.001094
0.002611 0.000364 0.00105
0.002561 0.000394 0.001002
0.002372 0.00053 0.000706
0.002382 0.00053 0.000684
0.002396 0.000528 0.000663
0.002413 0.000524 0.000644
0.002437 0.000516 0.000627
0.00247 0.000505 0.000614
0.002576 0.000461 0.000606
0.00262 0.000443 0.000598
0.002662 0.000427 0.000589
0.002701 0.000412 0.000579
0.002739 0.000398 0.000569
0.002777 0.000383 0.000558
0.002814 0.00037 0.000547
0.002848 0.000357 0.000535
0.002088 0.000536 0.002172
0.0021 0.00055 0.002161
0.002452 0.000696 0.001429
0.002492 0.000708 0.001431
0.002531 0.000694 0.001433
0.001422 0.000699 0.002552
0.002605 0.000587 0.001429
0.002492 0.000599 0.00143
0.002135 0.000494 0.002126
0.002174 0.000446 0.001966
0.001984 -2.7e-05 0.000647
0.002151 0.000479 0.001883
0.002626 0.00026 0.001428
0.002654 0.000251 0.001416
0.002668 0.000248 0.001396
0.00268 0.000248 0.001374
0.002691 0.000247 0.001352
0.002702 0.000246 0.00133
0.002713 0.000246 0.001308
0.002723 0.000245 0.001285
0.002733 0.000245 0.001263
0.002736 0.000249 0.001237
0.002722 0.000261 0.001204
0.0027 0.000277 0.001168
0.002677 0.000293 0.001132
0.002652 0.000311 0.001094
0.002611 0.000337 0.00105
0.002365 0.000501 0.00073
0.002372 0.000503 0.000706
0.002382 0.000502 0.000684
0.002395 0.000501 0.000663
0.002412 0.000497 0.000643
0.002437 0.000489 0.000627
0.00247 0.000477 0.000614
0.002523 0.000456 0.00061
0.002576 0.000434 0.000606
0.00262 0.000416 0.000598
0.002663 0.000399 0.00059
0.002702 0.000384 0.00058
0.00274 0.00037 0.000569
0.002777 0.000356 0.000558
0.002813 0.000343 0.000547
0.002849 0.00033 0.000538
0.002231 0.000646 0.001407
0.002492 0.000627 0.00143
0.002151 0.000642 0.001883
0.002183 0.000602 0.002069
0.002568 0.000681 0.001433
0.00237 0.000726 0.001425
0.002326 0.000689 0.001421
0.002369 0.000645 0.001425
0.000964 0.000434 0.002546
0.0021 0.000415 0.00216
0.002453 0.000559 0.00143
0.002625 0.000233 0.001428
0.002654 0.000224 0.001416
0.002668 0.000222 0.001396
0.002679 0.000221 0.001374
0.002691 0.00022 0.001352
0.002701 0.000219 0.00133
0.002712 0.000219 0.001307
0.002722 0.000219 0.001285
0.002732 0.000219 0.001262
0.002735 0.000222 0.001237
0.002721 0.000234 0.001204
0.002701 0.000249 0.001169
0.002676 0.000267 0.001131
0.00265 0.000285 0.001093
0.002612 0.000309 0.00105
0.001975 -2.8e-05 0.00067
0.002365 0.000474 0.00073
0.002372 0.000475 0.000707
0.002382 0.000475 0.000684
0.002395 0.000474 0.000663
0.002412 0.000469 0.000643
0.002436 0.000462 0.000627
0.00247 0.00045 0.000614
0.002521 0.000429 0.00061
0.002576 0.000406 0.000606
0.00262 0.000389 0.000598
0.002662 0.000373 0.000589
0.002701 0.000358 0.000579
0.00274 0.000343 0.000569
0.002777 0.000329 0.000558
0.002814 0.000316 0.000547
0.002848 0.000303 0.000535
0.002174 0.000698 0.001391
0.002452 0.000641 0.001429
0.002134 0.00063 0.002125
0.002152 0.000723 0.001884
0.002183 0.000676 0.002006
0.002153 0.000602 0.002108
0.00228 0.000707 0.001415
0.002231 0.0007 0.001407
0.002101 0.000528 0.001778
0.002118 0.000414 0.002143
0.000604 0.000599 0.002474
0.00237 0.000563 0.001425
0.002122 0.000693 0.001381
0.00237 0.00059 0.001426
0.002625 0.000206 0.001428
0.002653 0.000197 0.001416
0.002667 0.000195 0.001395
0.00268 0.000193 0.001374
0.002691 0.000192 0.001352
0.002702 0.000192 0.00133
0.002713 0.000191 0.001308
0.002723 0.000191 0.001285
0.002731 0.000192 0.001262
0.002735 0.000195 0.001237
0.002721 0.000207 0.001204
0.002701 0.000222 0.001169
0.002677 0.000239 0.001132
0.002651 0.000257 0.001094
0.002609 0.000283 0.001049
0.001966 -2.8e-05 0.000693
0.001958 -2.9e-05 0.000716
0.002365 0.000447 0.00073
0.002373 0.000448 0.000707
0.002382 0.000448 0.000684
0.002395 0.000446 0.000663
0.002413 0.000442 0.000644
0.002436 0.000435 0.000627
0.00247 0.000423 0.000614
0.002522 0.000402 0.00061
0.002576 0.000379 0.000606
0.002619 0.000362 0.000598
0.002661 0.000346 0.000589
0.002702 0.00033 0.00058
0.00274 0.000316 0.000569
0.002778 0.000301 0.000558
0.002814 0.000288 0.000547
0.002848 0.000276 0.000535
0.001382 0.000664 0.002668
0.002016 0.000653 0.0022
0.002117 0.000631 0.002142
0.002175 0.00069 0.001967
0.002181 0.000694 0.002036
0.001426 0.000713 0.002513
0.002183 0.000567 0.002005
0.002123 0.000747 0.001381
0.002065 0.000736 0.001398
0.001864 0.000684 0.00215
0.002151 0.000588 0.001883
0.002624 0.00018 0.001428
0.002651 0.00017 0.001415
0.002667 0.000168 0.001395
0.00268 0.000166 0.001374
0.002691 0.000165 0.001352
0.002702 0.000165 0.00133
0.002713 0.000164 0.001308
0.002722 0.000164 0.001285
0.00273 0.000165 0.001261
0.002734 0.000168 0.001236
0.002722 0.00018 0.001204
0.0027 0.000195 0.001168
0.002677 0.000212 0.001132
0.002651 0.00023 0.001094
0.002609 0.000256 0.001049
0.002373 0.000421 0.000707
0.002382 0.000421 0.000684
0.002396 0.000419 0.000663
0.002413 0.000415 0.000644
0.002436 0.000408 0.000627
0.00247 0.000396 0.000614
0.002522 0.000374 0.00061
0.002576 0.000352 0.000606
0.002619 0.000335 0.000598
0.002662 0.000318 0.000589
0.002702 0.000303 0.00058
0.00274 0.000289 0.000569
0.002778 0.000274 0.000559
0.002814 0.000261 0.000549
0.001976 0.000407 0.001555
0.001978 0.000412 0.001528
0.001982 0.000414 0.001504
0.00199 0.000414 0.001481
0.002173 0.00069 0.002061
0.001221 0.000679 0.002737
0.002041 0.000719 0.001665
0.002089 0.000758 0.001385
0.002492 0.000573 0.00143
0.002185 0.000493 0.00207
0.001422 0.000726 0.002552
0.002623 0.000153 0.001428
0.002649 0.000145 0.001414
0.002664 0.000142 0.001394
0.002678 0.00014 0.001373
0.002689 0.000139 0.001351
0.002701 0.000138 0.001329
0.002711 0.000138 0.001307
0.002719 0.000139 0.001284
0.002727 0.00014 0.00126
0.002731 0.000143 0.001235
0.00272 0.000153 0.001204
0.002701 0.000168 0.001168
0.002677 0.000185 0.001132
0.002651 0.000203 0.001094
0.002609 0.000229 0.001049
0.002373 0.000394 0.000707
0.002382 0.000394 0.000684
0.002395 0.000392 0.000663
0.002413 0.000388 0.000644
0.002436 0.000381 0.000627
0.00247 0.000369 0.000614
0.002523 0.000347 0.00061
0.002576 0.000325 0.000606
0.00262 0.000307 0.000598
0.002663 0.000291 0.00059
0.002701 0.000276 0.000579
0.00274 0.000261 0.000569
0.002777 0.000247 0.000558
0.002814 0.000234 0.000547
0.001975 0.00038 0.001555
0.001978 0.000385 0.001528
0.001982 0.000387 0.001504
0.00199 0.000387 0.001481
0.002635 0.000724 0.001388
0.002153 0.000574 0.002108
0.0021 0.000523 0.00216
0.002567 0.000573 0.001428
0.002065 0.000681 0.001398
0.002492 0.000545 0.00143
0.002136 0.000575 0.002126
0.002621 0.000127 0.001427
0.002644 0.00012 0.001412
0.00266 0.000117 0.001392
0.002673 0.000115 0.001371
0.002685 0.000114 0.001349
0.002696 0.000113 0.001327
0.002706 0.000113 0.001305
0.002715 0.000114 0.001282
0.002722 0.000115 0.001258
0.002727 0.000117 0.001233
0.002719 0.000126 0.001203
0.0027 0.000141 0.001168
0.002677 0.000158 0.001131
0.001949 -2.9e-05 0.000739
0.002373 0.000367 0.000707
0.002383 0.000366 0.000684
0.002396 0.000365 0.000663
0.002413 0.000361 0.000644
0.002436 0.000354 0.000627
0.002471 0.000341 0.000615
0.002521 0.000321 0.000609
0.002576 0.000297 0.000606
0.002621 0.00028 0.000598
0.002661 0.000264 0.000589
0.002702 0.000249 0.00058
0.00274 0.000234 0.000569
0.002778 0.00022 0.000558
0.002814 0.000207 0.000547
0.002848 0.000194 0.000535
0.001978 0.000353 0.001554
0.001978 0.000357 0.001528
0.001982 0.00036 0.001504
0.00199 0.00036 0.001481
0.002662 0.000689 0.001379
0.00215 0.000615 0.001882
0.002412 0.000629 0.001428
0.000926 0.00062 0.002507
0.00209 0.000676 0.001386
0.001411 0.000667 0.002361
0.001304 0.000555 0.002716
0.002122 0.000638 0.001381
0.002069 0.000719 0.001721
0.002616 0.000102 0.001426
0.002638 9.6e-05 0.001409
0.002653 9.3e-05 0.001389
0.002666 9.2e-05 0.001368
0.002678 9.1e-05 0.001346
0.002689 9e-05 0.001324
0.002699 9e-05 0.001302
0.002708 9e-05 0.001279
0.002715 9.1e-05 0.001255
0.002721 9.4e-05 0.00123
0.002718 0.0001 0.001202
0.0027 0.000114 0.001168
0.002677 0.000131 0.001131
0.002651 0.000149 0.001093
0.002373 0.000339 0.000707
0.002383 0.000339 0.000684
0.002396 0.000337 0.000663
0.002413 0.000334 0.000644
0.002436 0.000327 0.000627
0.002471 0.000314 0.000615
0.002522 0.000293 0.00061
0.002577 0.00027 0.000607
0.002621 0.000252 0.000598
0.002662 0.000237 0.000589
0.002702 0.000221 0.000579
0.002741 0.000206 0.000569
0.002778 0.000193 0.000558
0.002813 0.00018 0.000547
0.002848 0.000167 0.000535
0.001975 0.000326 0.001555
0.001978 0.00033 0.001528
0.001982 0.000333 0.001504
0.00199 0.000333 0.001481
0.001405 0.000418 0.002657
0.002129 0.000638 0.001833
0.002173 0.000726 0.001391
0.002185 0.000438 0.00207
0.00217 0.000411 0.00209
0.002568 0.000491 0.001429
0.002531 0.000504 0.00143
0.00223 0.000619 0.001406
0.001319 0.000666 0.002706
0.002608 7.9e-05 0.001422
0.002628 7.4e-05 0.001405
0.002642 7.2e-05 0.001384
0.002655 7e-05 0.001363
0.002668 6.9e-05 0.001342
0.002679 6.8e-05 0.00132
0.002689 6.8e-05 0.001297
0.002697 6.8e-05 0.001274
0.002705 6.9e-05 0.001251
0.002711 7.1e-05 0.001226
0.002712 7.6e-05 0.0012
0.002699 8.7e-05 0.001168
0.002676 0.000104 0.001131
0.002651 0.000122 0.001093
0.002611 0.000146 0.00105
0.001939 -2.9e-05 0.000762
0.002373 0.000312 0.000707
0.002382 0.000312 0.000684
0.002395 0.00031 0.000663
0.002413 0.000306 0.000643
0.002436 0.000299 0.000627
0.002472 0.000286 0.000615
0.002523 0.000265 0.00061
0.002577 0.000243 0.000606
0.002622 0.000225 0.000599
0.002662 0.00021 0.000589
0.002702 0.000194 0.000579
0.002741 0.00018 0.000569
0.002777 0.000166 0.000558
0.002813 0.000153 0.000546
0.002847 0.00014 0.000534
0.001405 0.000708 0.002045
0.001942 0.000653 0.00218
0.001982 0.000306 0.001504
0.002133 0.000658 0.002124
0.002083 0.000675 0.002166
0.002184 0.000547 0.00207
0.002326 0.000662 0.001421
0.002136 0.000466 0.002126
0.00193 -3e-05 0.000785
0.00192 -3e-05 0.000807
0.002568 0.000518 0.001429
0.00228 0.00068 0.001416
0.002102 0.000676 0.00215
0.002597 5.8e-05 0.001417
0.002615 5.3e-05 0.001399
0.002629 5.1e-05 0.001379
0.002642 4.9e-05 0.001358
0.002654 4.8e-05 0.001336
0.002665 4.8e-05 0.001314
0.002675 4.8e-05 0.001291
0.002684 4.8e-05 0.001268
0.002692 4.9e-05 0.001245
0.002698 5.1e-05 0.001221
0.002701 5.4e-05 0.001195
0.002696 6.2e-05 0.001166
0.002676 7.6e-05 0.001131
0.00265 9.5e-05 0.001093
0.00191 -2.9e-05 0.00083
0.002364 0.000284 0.00073
0.002372 0.000285 0.000706
0.002382 0.000285 0.000684
0.002395 0.000283 0.000663
0.002412 0.000279 0.000643
0.002436 0.000272 0.000627
0.002471 0.000259 0.000615
0.002522 0.000238 0.00061
0.002576 0.000216 0.000606
0.002622 0.000198 0.000599
0.002661 0.000183 0.000589
0.002702 0.000167 0.00058
0.002741 0.000152 0.000569
0.002777 0.000139 0.000558
0.002813 0.000126 0.000546
0.002847 0.000113 0.000534
0.002135 0.000413 0.002125
0.002165 0.000597 0.001927
0.002531 0.000667 0.001433
0.000927 0.000673 0.00251
0.002085 0.000747 0.001702
0.002177 0.000751 0.001394
0.002063 0.000764 0.001396
0.002153 0.000466 0.002108
0.002531 0.000531 0.001431
0.00228 0.000735 0.001415
0.001423 0.000569 0.002466
0.002598 3.5e-05 0.001392
0.002612 3.3e-05 0.001371
0.002625 3.1e-05 0.00135
0.002636 3e-05 0.001328
0.002647 3e-05 0.001306
0.002657 3e-05 0.001283
0.002666 3e-05 0.001261
0.002674 3.1e-05 0.001237
0.002681 3.2e-05 0.001214
0.002686 3.5e-05 0.001189
0.002685 4e-05 0.001161
0.002673 5.1e-05 0.00113
0.002647 6.9e-05 0.001092
0.001901 -3e-05 0.000853
0.001891 -3e-05 0.000875
0.002364 0.000257 0.00073
0.002372 0.000258 0.000706
0.002381 0.000258 0.000683
0.002394 0.000256 0.000662
0.002412 0.000252 0.000643
0.002436 0.000245 0.000627
0.002471 0.000232 0.000615
0.002523 0.000211 0.00061
0.002575 0.00019 0.000605
0.002622 0.000171 0.000599
0.002661 0.000156 0.000588
0.002703 0.000139 0.00058
0.00274 0.000125 0.000569
0.002777 0.000112 0.000558
0.002813 9.9e-05 0.000548
0.002151 0.000533 0.001883
0.002412 0.000656 0.001428
0.002118 0.000576 0.002143
0.002135 0.000603 0.002126
0.001272 0.00067 0.002725
0.002007 0.000749 0.001605
0.002165 0.00057 0.001927
0.002118 0.00044 0.002143
0.00188 -2.9e-05 0.000897
0.001871 -2.9e-05 0.00092
0.00084 0.000734 0.002402
0.00219 0.000553 0.002043
0.001038 0.000639 0.002613
0.002576 1.9e-05 0.001382
0.00219 0.000499 0.002043
0.0026 1.6e-05 0.001339
0.002611 1.6e-05 0.001317
0.002622 1.5e-05 0.001295
0.002631 1.5e-05 0.001273
0.002641 1.5e-05 0.00125
0.00265 1.6e-05 0.001227
0.002658 1.7e-05 0.001204
0.002664 1.9e-05 0.001179
0.002666 2.2e-05 0.001153
0.002661 3e-05 0.001124
0.002642 4.4e-05 0.00109
0.002365 0.00023 0.00073
0.002372 0.000231 0.000706
0.002381 0.000231 0.000683
0.002394 0.000229 0.000662
0.002412 0.000225 0.000643
0.002436 0.000218 0.000627
0.002471 0.000205 0.000614
0.002523 0.000184 0.00061
0.002575 0.000162 0.000605
0.002621 0.000144 0.000598
0.002662 0.000128 0.000589
0.002703 0.000112 0.00058
0.00274 9.8e-05 0.000569
0.002777 8.5e-05 0.000558
0.002814 7.1e-05 0.000549
0.002127 0.000557 0.001832
0.002531 0.000613 0.00143
0.002152 0.000629 0.002107
0.002648 0.000689 0.001399
0.001296 0.000668 0.002717
0.001863 0.000603 0.00215
0.00217 0.000519 0.00209
0.002136 0.000439 0.002126
0.002026 0.000686 0.00143
0.001442 0.000766 0.002013
0.00174 0.000654 0.0021
0.001343 0.000554 0.002698
0.001444 0.000656 0.002015
0.001645 0.000699 0.002048
0.002571 9e-06 0.0013
0.002581 9e-06 0.001278
0.00259 9e-06 0.001255
0.002598 1e-05 0.001231
0.002609 9e-06 0.001209
0.002617 1e-05 0.001186
0.002626 1.1e-05 0.001163
0.002634 1.1e-05 0.00114
0.002637 1.5e-05 0.001114
0.00263 2.4e-05 0.001084
0.002605 4.1e-05 0.001047
0.002365 0.000203 0.00073
0.002372 0.000204 0.000706
0.002381 0.000204 0.000683
0.002394 0.000202 0.000662
0.002412 0.000198 0.000643
0.002437 0.00019 0.000627
0.002471 0.000178 0.000615
0.002523 0.000157 0.00061
0.002574 0.000136 0.000605
0.002621 0.000116 0.000599
0.00266 0.000102 0.000588
0.002703 8.5e-05 0.00058
0.00274 7.1e-05 0.000569
0.002776 5.8e-05 0.000558
0.002811 4.5e-05 0.000547
0.002064 0.000654 0.001398
0.0021 0.000578 0.00216
0.002183 0.000648 0.002006
0.002165 0.000705 0.001927
0.002629 0.000691 0.001415
0.002411 0.000684 0.001428
0.002153 0.00052 0.002108
0.0021 0.000555 0.001778
0.00207 0.000583 0.001721
0.001982 0.000746 0.001553
0.00198 0.000693 0.002192
0.00186 -2.9e-05 0.000942
0.002514 1.1e-05 0.001276
0.002525 1e-05 0.001254
0.002544 1e-05 0.001208
0.002554 1e-05 0.001186
0.002563 1e-05 0.001163
0.002573 1e-05 0.00114
0.002583 1e-05 0.001118
0.00259 1.2e-05 0.001094
0.002598 1.2e-05 0.001071
0.002592 2e-05 0.001041
0.002364 0.000176 0.00073
0.002372 0.000177 0.000706
0.002381 0.000177 0.000683
0.002394 0.000175 0.000662
0.002412 0.000171 0.000643
0.002439 0.000162 0.000628
0.002471 0.000151 0.000614
0.002524 0.000129 0.00061
0.002622 8.9e-05 0.000599
0.00266 7.5e-05 0.000588
0.002703 5.8e-05 0.00058
0.002738 4.5e-05 0.000568
0.002773 3.2e-05 0.000556
0.002802 2.2e-05 0.000542
0.002824 1.5e-05 0.000525
0.001975 0.000163 0.001554
0.001977 0.000167 0.001528
0.001981 0.00017 0.001503
0.001989 0.00017 0.00148
0.002531 0.000721 0.00143
0.002531 0.00064 0.001432
0.002118 0.000522 0.002143
0.00237 0.000618 0.001425
0.001547 0.000665 0.001992
0.002183 0.00054 0.002005
0.00219 0.000526 0.002043
0.00209 0.00073 0.001386
0.002122 0.00072 0.001381
0.002369 0.000537 0.001424
0.000806 0.000613 0.002379
0.002453 8e-06 0.001277
0.002464 9e-06 0.001254
0.002474 8e-06 0.001232
0.002484 9e-06 0.001209
0.002494 8e-06 0.001187
0.002504 8e-06 0.001165
0.002513 8e-06 0.001142
0.002523 8e-06 0.001119
0.002533 8e-06 0.001096
0.002543 8e-06 0.001074
0.002553 8e-06 0.001051
0.002559 1e-05 0.001027
0.002546 2.1e-05 0.000995
0.002372 0.00015 0.000706
0.002381 0.00015 0.000683
0.002394 0.000148 0.000662
0.002413 0.000143 0.000643
0.002441 0.000134 0.000628
0.00247 0.000124 0.000614
0.002525 0.000101 0.000611
0.002622 6.2e-05 0.000599
0.002661 4.7e-05 0.000588
0.0027 3.2e-05 0.000579
0.002732 2.1e-05 0.000565
0.002756 1.4e-05 0.000549
0.002772 1.1e-05 0.000529
0.002786 8e-06 0.000508
0.001975 0.000135 0.001555
0.001977 0.00014 0.001528
0.001981 0.000143 0.001503
0.001989 0.000143 0.00148
0.00215 0.000658 0.002105
0.001362 0.000664 0.002682
0.002453 0.000668 0.00143
0.000431 0.000645 0.002979
0.002412 0.000602 0.001428
0.001413 0.000673 0.002625
0.002355 4e-06 0.001395
0.002363 3e-06 0.001372
0.001248 0.000674 0.002733
0.002165 0.000651 0.001927
0.002326 0.000553 0.001421
0.002404 3e-06 0.001282
0.002413 2e-06 0.001259
0.002424 2e-06 0.001237
0.002432 3e-06 0.001214
0.002444 2e-06 0.001192
0.002454 1e-06 0.00117
0.002463 2e-06 0.001147
0.002473 2e-06 0.001124
0.002491 3e-06 0.001078
0.0025 3e-06 0.001056
0.002511 2e-06 0.001033
0.002518 3e-06 0.00101
0.00252 7e-06 0.000984
0.002372 0.000122 0.000706
0.002381 0.000123 0.000683
0.002394 0.000121 0.000662
0.002412 0.000117 0.000643
0.002437 0.000108 0.000627
0.002468 9.8e-05 0.000613
0.002523 7.5e-05 0.00061
0.00185 -2.9e-05 0.000965
0.002622 3.5e-05 0.000599
0.002659 2.1e-05 0.000588
0.002688 1e-05 0.000574
0.002722 9e-06 0.000507
0.002733 8e-06 0.000485
0.001975 0.000108 0.001554
0.001977 0.000113 0.001528
0.001981 0.000116 0.001503
0.001989 0.000116 0.00148
0.002002 0.000114 0.001459
0.002116 0.000659 0.002141
0.002183 0.000621 0.002005
0.002118 0.000549 0.002143
0.001864 0.000657 0.00215
0.002271 1.1e-05 0.001407
0.00229 3e-06 0.001395
0.002301 2e-06 0.001372
0.00231 3e-06 0.001349
0.002318 4e-06 0.001326
0.002164 0.000461 0.001926
0.000618 0.000669 0.002437
0.002347 4e-06 0.001258
0.002358 3e-06 0.001236
0.002366 4e-06 0.001212
0.002374 5e-06 0.001189
0.002385 4e-06 0.001167
0.002404 5e-06 0.001121
0.002413 5e-06 0.001099
0.002423 5e-06 0.001076
0.002434 4e-06 0.001054
0.002444 4e-06 0.001031
0.002453 5e-06 0.001008
0.002461 5e-06 0.000985
0.002472 4e-06 0.000963
0.002372 9.5e-05 0.000706
0.002381 9.6e-05 0.000683
0.002394 9.4e-05 0.000662
0.002411 9e-05 0.000643
0.002437 8.1e-05 0.000627
0.002466 7.2e-05 0.000612
0.002614 1.1e-05 0.000596
0.002637 5e-06 0.000578
0.001975 8.1e-05 0.001554
0.001977 8.6e-05 0.001528
0.00198 8.9e-05 0.001503
0.001989 8.9e-05 0.00148
0.002002 8.7e-05 0.001458
0.001403 0.000609 0.002656
0.002151 0.000669 0.001883
0.001365 0.00058 0.002687
0.002118 0.000468 0.002143
0.00222 9e-06 0.00139
0.002231 6e-06 0.001369
0.002241 6e-06 0.001347
0.002249 7e-06 0.001323
0.002258 7e-06 0.0013
0.002276 8e-06 0.001254
0.002286 7e-06 0.001232
0.002296 8e-06 0.001209
0.002309 6e-06 0.001188
0.002314 8e-06 0.001164
0.0021 0.000387 0.00216
0.002183 0.000431 0.002005
0.002344 8e-06 0.001096
0.002351 9e-06 0.001072
0.002362 9e-06 0.00105
0.002372 8e-06 0.001028
0.002382 8e-06 0.001005
0.002392 8e-06 0.000983
0.002402 8e-06 0.00096
0.002381 6.9e-05 0.000683
0.002394 6.7e-05 0.000662
0.002412 6.2e-05 0.000643
0.002436 5.5e-05 0.000626
0.002469 4.3e-05 0.000614
0.002524 1.4e-05 0.00061
0.002558 7e-06 0.000598
0.002573 5e-06 0.000578
0.002585 4e-06 0.000556
0.001974 5.5e-05 0.001554
0.001977 5.9e-05 0.001527
0.001981 6.1e-05 0.001503
0.001989 6.2e-05 0.00148
0.002001 6e-05 0.001458
0.002187 0.000664 0.002041
0.002174 0.000636 0.001966
0.002136 0.000548 0.002126
0.002189 0.000445 0.002042
0.002151 9e-06 0.001388
0.002165 7e-06 0.001368
0.002173 8e-06 0.001344
0.002191 9e-06 0.001299
0.0022 9e-06 0.001276
0.00221 9e-06 0.001253
0.002221 8e-06 0.001231
0.00223 9e-06 0.001208
0.002238 9e-06 0.001185
0.001823 0.000619 0.002135
0.002281 7e-06 0.001096
0.00229 8e-06 0.001073
0.002301 7e-06 0.001051
0.00231 8e-06 0.001028
0.00233 7e-06 0.000983
0.00234 7e-06 0.00096
0.002381 4.2e-05 0.000683
0.002394 4e-05 0.000662
0.002411 3.6e-05 0.000642
0.002434 2.9e-05 0.000625
0.002469 1.6e-05 0.000614
0.002498 6e-06 0.000599
0.002505 7e-06 0.000575
0.002515 7e-06 0.000553
0.002525 7e-06 0.00053
0.001974 2.7e-05 0.001554
0.001976 3.2e-05 0.001527
0.00198 3.5e-05 0.001503
0.000477 0.000267 0.002958
0.002001 3.3e-05 0.001458
0.002015 3.1e-05 0.001437
0.00207 0.000692 0.001721
0.002175 0.000582 0.001966
0.002128 0.000688 0.00212
0.002107 5e-06 0.00137
0.002116 5e-06 0.001347
0.002126 4e-06 0.001324
0.002452 0.000587 0.001429
0.002568 0.000546 0.001429
0.002157 4e-06 0.001257
0.002168 3e-06 0.001235
0.002179 3e-06 0.001213
0.00219 2e-06 0.001191
0.0022 2e-06 0.001168
0.00221 1e-06 0.001146
0.00222 1e-06 0.001123
0.00223 1e-06 0.001101
0.00224 1e-06 0.001078
0.00225 1e-06 0.001056
0.00226 1e-06 0.001033
0.002269 1e-06 0.00101
0.00228 0.0 0.000988
0.002289 1e-06 0.000965
0.002299 1e-06 0.000943
0.002393 1.3e-05 0.000661
0.002408 1e-05 0.000641
0.002425 6e-06 0.000622
0.002439 4e-06 0.000601
0.002448 4e-06 0.000578
0.002456 5e-06 0.000554
0.002463 6e-06 0.000531
0.001823 0.000565 0.002134
0.001972 6e-06 0.001526
0.001978 8e-06 0.001502
0.002113 0.000739 0.001693
0.0021 0.000718 0.001778
0.001413 0.000483 0.002626
0.001645 0.000672 0.002047
0.002101 0.000441 0.002161
0.00211 0.000689 0.002137
0.002069 -3e-06 0.001353
0.00208 -4e-06 0.001331
0.002091 -4e-06 0.001309
0.002169 0.000601 0.00209
0.001404 0.000554 0.002657
0.002122 -6e-06 0.001242
0.002131 -6e-06 0.001219
0.00214 -5e-06 0.001196
0.002148 -4e-06 0.001173
0.002158 -4e-06 0.00115
0.002168 -5e-06 0.001128
0.002179 -5e-06 0.001106
0.002188 -5e-06 0.001083
0.002198 -5e-06 0.00106
0.001387 0.000552 0.002675
0.002219 -6e-06 0.001016
0.002227 -5e-06 0.000992
0.002236 -4e-06 0.000969
0.002248 -6e-06 0.000948
0.002257 -5e-06 0.000925
0.001839 -2.8e-05 0.000987
0.001828 -2.7e-05 0.001009
0.002372 -4e-06 0.000652
0.002384 -5e-06 0.000631
0.002392 -4e-06 0.000607
0.0024 -3e-06 0.000584
0.00244 1e-06 0.000467
0.002118 0.000495 0.002143
0.001782 0.000718 0.002118
0.002605 0.000451 0.001428
0.00209 0.000703 0.001386
0.002118 0.000722 0.002111
0.001979 -5e-06 0.001422
0.001989 -4e-06 0.001399
0.002144 0.000688 0.002101
0.002016 -4e-06 0.001331
0.002024 -3e-06 0.001307
0.002033 -3e-06 0.001285
0.001405 0.000445 0.002657
0.002047 0.00059 0.002201
0.002073 -3e-06 0.001194
0.002081 -2e-06 0.001171
0.002091 -2e-06 0.001148
0.0021 -2e-06 0.001125
0.00211 -2e-06 0.001103
0.002119 -2e-06 0.00108
0.00213 -2e-06 0.001058
0.002138 -1e-06 0.001034
0.002146 -1e-06 0.001011
0.002167 -1e-06 0.000966
0.002176 -1e-06 0.000944
0.001818 -2.7e-05 0.001031
0.001807 -2.6e-05 0.001054
0.000614 -1.8e-05 0.002024
0.001796 -2.6e-05 0.001076
0.002325 -3e-06 0.000606
0.002336 -3e-06 0.000583
0.002347 -4e-06 0.000561
0.002365 -8e-06 0.000542
0.002387 -5e-06 0.000471
0.002397 -5e-06 0.000449
0.002408 -5e-06 0.000427
0.002418 -5e-06 0.000404
0.002426 -2e-06 0.000381
0.00209 0.000648 0.001386
0.001882 -3e-06 0.001488
0.001424 0.000487 0.002466
0.001917 -1e-06 0.001396
0.001925 -0.0 0.001372
0.002044 0.000685 0.001413
0.001956 -1e-06 0.001305
0.001964 0.0 0.001282
0.001971 2e-06 0.001258
0.002173 0.000501 0.001965
0.00201 2e-06 0.001167
0.002016 3e-06 0.001143
0.002531 0.000558 0.00143
0.002038 2e-06 0.001099
0.002048 2e-06 0.001076
0.002057 3e-06 0.001053
0.002065 4e-06 0.00103
0.002086 2e-06 0.000986
0.002096 2e-06 0.000963
0.002103 4e-06 0.000939
0.002114 3e-06 0.000917
0.002123 4e-06 0.000894
0.002134 3e-06 0.000872
0.002143 3e-06 0.000849
0.002122 0.000665 0.001381
0.000591 -1.8e-05 0.002031
0.000567 -1.8e-05 0.002039
0.002173 0.000671 0.001391
0.002273 2e-06 0.000556
0.002283 1e-06 0.000534
0.002295 0.0 0.000512
0.002326 -1e-06 0.000445
0.00234 -3e-06 0.000424
0.002347 -2e-06 0.000401
0.002358 -2e-06 0.000378
0.002367 -2e-06 0.000356
0.002379 -3e-06 0.000334
0.001811 1e-06 0.001484
0.001819 2e-06 0.001461
0.001829 2e-06 0.001438
0.001839 2e-06 0.001416
0.001868 2e-06 0.001348
0.001884 4e-06 0.001301
0.001893 4e-06 0.001278
0.001903 4e-06 0.001255
0.002531 0.000477 0.00143
0.002183 0.000486 0.002005
0.00219 0.000472 0.002043
0.002153 0.000547 0.002108
0.00217 0.000546 0.00209
0.002064 0.000674 0.002181
0.002007 6e-06 0.001005
0.002017 5e-06 0.000983
0.002034 6e-06 0.000937
0.002046 6e-06 0.000915
0.002056 6e-06 0.000892
0.002065 6e-06 0.000869
0.002074 6e-06 0.000846
0.002084 6e-06 0.000824
0.002327 0.000634 0.001422
0.002151 0.000561 0.001883
0.002211 6e-06 0.00053
0.002226 3e-06 0.000509
0.002283 4e-06 0.000373
0.002295 3e-06 0.000351
0.002306 2e-06 0.000329
0.002318 1e-06 0.000308
0.001748 6e-06 0.001457
0.001761 5e-06 0.001436
0.00177 5e-06 0.001413
0.00178 5e-06 0.00139
0.001788 5e-06 0.001367
0.001809 5e-06 0.001322
0.001817 5e-06 0.001299
0.001828 5e-06 0.001277
0.002175 0.000609 0.001966
0.001904 0.000478 0.002165
0.002042 0.000676 0.002193
0.002493 0.000491 0.00143
0.001414 0.000537 0.002626
0.002165 0.000678 0.001927
0.002452 0.000723 0.001429
0.001979 0.000611 0.002192
0.002183 0.000458 0.002005
0.001413 0.000428 0.002626
0.001979 0.000703 0.001519
0.001823 0.000701 0.002134
0.001959 3e-06 0.000985
0.001969 2e-06 0.000962
0.002153 0.000493 0.002108
0.0021 0.000496 0.00216
0.002001 1e-06 0.000895
0.00201 2e-06 0.000872
0.00202 2e-06 0.00085
0.00203 1e-06 0.000827
0.002039 2e-06 0.000805
0.00215 5e-06 0.000531
0.002159 5e-06 0.000507
0.002168 5e-06 0.000485
0.002195 6e-06 0.000416
0.002205 6e-06 0.000393
0.002237 5e-06 0.000327
0.002245 6e-06 0.000303
0.001365 0.000553 0.002687
0.001708 4e-06 0.001413
0.00172 3e-06 0.001392
0.001729 3e-06 0.001369
0.00219 0.000581 0.002043
0.002173 0.000528 0.001965
0.0021 0.000723 0.002128
0.001773 1e-06 0.00128
0.001785 -0.0 0.001258
0.001795 -1e-06 0.001236
0.001424 0.000704 0.002467
0.002184 0.000575 0.00207
0.002101 0.000691 0.001779
0.002151 0.000696 0.001883
0.002175 0.000663 0.001967
0.002189 0.000636 0.002042
0.002182 0.00063 0.002068
0.002492 0.000681 0.001432
0.002411 0.000711 0.001428
0.002076 0.000743 0.001726
0.001405 0.000743 0.002308
0.001922 -6e-06 0.000969
0.001932 -6e-06 0.000946
0.001943 -6e-06 0.000924
0.001951 -6e-06 0.000901
0.001961 -6e-06 0.000878
0.00197 -6e-06 0.000856
0.00198 -6e-06 0.000833
0.00199 -6e-06 0.00081
0.002 -6e-06 0.000788
0.002009 -6e-06 0.000765
0.002047 -5e-06 0.000674
0.002055 -5e-06 0.000651
0.002065 -4e-06 0.000628
0.002074 -4e-06 0.000605
0.002109 -2e-06 0.000513
0.002118 -1e-06 0.00049
0.002126 -1e-06 0.000467
0.002142 1e-06 0.00042
0.002151 2e-06 0.000397
0.002159 2e-06 0.000374
0.002168 3e-06 0.000351
0.002176 4e-06 0.000327
0.002184 4e-06 0.000304
0.002193 5e-06 0.000281
0.001823 0.000592 0.002134
0.002567 0.0006 0.001428
0.002326 0.000743 0.001421
0.00159 0.000619 0.002011
0.002183 0.000594 0.002006
0.000548 0.000743 0.002782
0.002189 0.000608 0.002042
0.001737 -8e-06 0.001265
0.001748 -9e-06 0.001243
0.002492 0.000736 0.00143
0.00217 0.000574 0.00209
0.002127 0.000666 0.001832
0.002492 0.000654 0.001431
0.002568 0.000627 0.001431
0.002605 0.000614 0.00143
0.001826 -1.4e-05 0.001089
0.001837 -1.4e-05 0.001066
0.001847 -1.5e-05 0.001044
0.001858 -1.5e-05 0.001022
0.001868 -1.6e-05 0.000999
0.001878 -1.6e-05 0.000977
0.001889 -1.6e-05 0.000955
0.0019 -1.7e-05 0.000933
0.001909 -1.7e-05 0.00091
0.001919 -1.7e-05 0.000887
0.001929 -1.7e-05 0.000865
0.001939 -1.7e-05 0.000842
0.001948 -1.7e-05 0.000819
0.001958 -1.7e-05 0.000797
0.001968 -1.7e-05 0.000774
0.001977 -1.7e-05 0.000751
0.001986 -1.6e-05 0.000728
0.001995 -1.6e-05 0.000706
0.002005 -1.6e-05 0.000683
0.002013 -1.5e-05 0.000659
0.002022 -1.5e-05 0.000636
0.002031 -1.4e-05 0.000614
0.002039 -1.4e-05 0.00059
0.002048 -1.3e-05 0.000567
0.002105 -8e-06 0.000404
0.002113 -6e-06 0.000381
0.002129 -4e-06 0.000334
0.002137 -4e-06 0.000311
0.002144 -3e-06 0.000287
0.002153 0.000412 0.002108
0.002101 0.000582 0.001778
0.001739 0.000573 0.002099
0.001349 0.000504 0.002695
0.002327 0.000607 0.001422
0.002604 0.000533 0.001428
0.002165 0.000542 0.001927
0.00198 0.00073 0.001519
0.001979 0.000719 0.001552
0.002182 0.000513 0.002005
0.002136 0.000385 0.002126
0.002153 0.000384 0.002108
0.002169 0.000384 0.00209
0.002184 0.000384 0.00207
0.002189 0.000391 0.002042
0.002183 0.000404 0.002005
0.002175 0.000419 0.001966
0.002165 0.000434 0.001926
0.00215 0.000452 0.001883
0.002127 0.000476 0.001831
0.0021 0.000501 0.001778
0.00201 0.000632 0.001448
0.002025 0.000632 0.001429
0.002043 0.000631 0.001412
0.002064 0.000627 0.001397
0.00209 0.000621 0.001386
0.002123 0.000611 0.001381
0.002173 0.00059 0.00139
0.00223 0.000565 0.001406
0.00228 0.000544 0.001415
0.002327 0.000525 0.001422
0.002369 0.000509 0.001425
0.002412 0.000493 0.001428
0.002452 0.000478 0.001429
0.002492 0.000464 0.00143
0.002531 0.000449 0.001431
0.002568 0.000437 0.001429
0.002606 0.000424 0.001429
0.000456 0.000479 0.002976
0.001366 0.000822 0.001988
0.001823 0.00051 0.002134
0.001864 0.000493 0.002151
0.00084 0.000517 0.002401
0.001589 0.000729 0.002009
0.001548 0.000746 0.001992
0.000455 0.000617 0.002973
0.001425 0.000632 0.002512
0.002067 0.000644 0.002186
0.0021 0.00036 0.00216
0.002118 0.000359 0.002143
0.002136 0.000358 0.002126
0.002153 0.000357 0.002108
0.00217 0.000356 0.00209
0.002185 0.000357 0.00207
0.00219 0.000363 0.002042
0.002183 0.000377 0.002005
0.002175 0.000391 0.001966
0.002165 0.000407 0.001926
0.002151 0.000424 0.001883
0.002127 0.000448 0.001832
0.00207 0.000502 0.001721
0.00204 0.000529 0.001664
0.001986 0.0006 0.001492
0.001997 0.000603 0.001469
0.00201 0.000605 0.001448
0.002025 0.000605 0.001429
0.002043 0.000603 0.001412
0.002064 0.0006 0.001397
0.00209 0.000594 0.001386
0.002123 0.000583 0.001382
0.002171 0.000564 0.001389
0.002231 0.000537 0.001406
0.002281 0.000517 0.001416
0.002326 0.000499 0.001421
0.00237 0.000482 0.001425
0.002412 0.000466 0.001428
0.002452 0.000451 0.001429
0.002492 0.000436 0.00143
0.002531 0.000422 0.00143
0.002569 0.000409 0.001429
0.002606 0.000396 0.001429
0.000432 0.000562 0.002982
0.001458 0.000814 0.001948
0.001405 0.000735 0.002046
0.002048 0.000426 0.002202
0.001488 0.000761 0.001992
0.001464 0.000764 0.002001
0.001782 0.000691 0.002117
0.001425 0.000659 0.002512
0.002009 0.000713 0.002189
0.002118 0.000332 0.002143
0.002135 0.000331 0.002125
0.002153 0.00033 0.002108
0.00217 0.000329 0.00209
0.002185 0.00033 0.00207
0.00219 0.000336 0.002043
0.002183 0.00035 0.002005
0.002175 0.000364 0.001967
0.002165 0.000379 0.001927
0.002151 0.000397 0.001883
0.002128 0.000421 0.001832
0.0021 0.000447 0.001777
0.002071 0.000474 0.001721
0.00204 0.000502 0.001664
0.002004 0.000533 0.001603
0.001979 0.000567 0.001518
0.001986 0.000573 0.001492
0.001997 0.000576 0.001469
0.00201 0.000578 0.001448
0.002025 0.000578 0.001429
0.002043 0.000576 0.001412
0.002065 0.000572 0.001398
0.00209 0.000567 0.001386
0.002123 0.000556 0.001381
0.002172 0.000536 0.00139
0.002231 0.00051 0.001407
0.002281 0.000489 0.001416
0.002327 0.000471 0.001421
0.00237 0.000455 0.001425
0.002411 0.000439 0.001427
0.002453 0.000424 0.00143
0.002492 0.000409 0.00143
0.002532 0.000395 0.001431
0.002569 0.000382 0.001429
0.002606 0.000369 0.001429
0.00198 0.000557 0.00219
0.00159 0.000755 0.002011
0.001426 0.000823 0.001945
0.001423 0.000737 0.002029
0.001782 0.000528 0.002117
0.001739 0.000546 0.002098
0.001143 0.000587 0.002697
0.001392 0.000689 0.002246
0.001411 0.000694 0.002361
0.001823 0.000728 0.002134
0.002118 0.000305 0.002143
0.002136 0.000304 0.002125
0.002153 0.000303 0.002108
0.00217 0.000302 0.00209
0.002185 0.000302 0.00207
0.00219 0.000309 0.002042
0.002183 0.000323 0.002005
0.002175 0.000337 0.001966
0.002165 0.000352 0.001926
0.002151 0.00037 0.001883
0.002127 0.000394 0.001832
0.0021 0.00042 0.001778
0.00207 0.000448 0.00172
0.002039 0.000476 0.001663
0.002003 0.000507 0.001602
0.001982 0.000529 0.001552
0.001979 0.00054 0.001518
0.001985 0.000546 0.001492
0.001996 0.000549 0.001469
0.00201 0.00055 0.001448
0.002025 0.00055 0.001429
0.002043 0.000549 0.001412
0.002065 0.000545 0.001398
0.00209 0.000539 0.001386
0.002123 0.000529 0.001382
0.002173 0.000508 0.001391
0.002232 0.000482 0.001408
0.002281 0.000462 0.001416
0.002327 0.000444 0.001422
0.002371 0.000427 0.001426
0.002412 0.000412 0.001428
0.002453 0.000396 0.00143
0.002492 0.000382 0.00143
0.002532 0.000368 0.001431
0.002569 0.000355 0.001429
0.002606 0.000342 0.001429
0.001425 0.00055 0.002512
0.001259 0.000444 0.002737
0.001418 0.000523 0.002589
0.001903 0.000559 0.002164
0.001444 0.000737 0.002015
0.001402 0.000664 0.002304
0.001418 0.000604 0.002589
0.001418 0.000725 0.002415
0.002118 0.000277 0.002143
0.002136 0.000276 0.002126
0.002153 0.000275 0.002108
0.00217 0.000275 0.00209
0.002185 0.000275 0.00207
0.00219 0.000282 0.002042
0.002183 0.000295 0.002005
0.002174 0.00031 0.001966
0.002164 0.000325 0.001926
0.002152 0.000343 0.001884
0.002127 0.000367 0.001832
0.002099 0.000393 0.001777
0.00207 0.00042 0.00172
0.002039 0.000448 0.001663
0.002004 0.000479 0.001602
0.001982 0.000502 0.001553
0.001979 0.000513 0.001518
0.001986 0.000519 0.001492
0.001996 0.000522 0.001469
0.00201 0.000523 0.001448
0.002025 0.000523 0.001429
0.002044 0.000522 0.001412
0.002065 0.000518 0.001397
0.00209 0.000512 0.001386
0.002123 0.000502 0.001381
0.002173 0.000481 0.00139
0.002231 0.000456 0.001407
0.002282 0.000435 0.001416
0.002327 0.000416 0.001422
0.00237 0.0004 0.001425
0.002412 0.000384 0.001428
0.002454 0.000369 0.00143
0.002492 0.000355 0.00143
0.002532 0.000341 0.00143
0.002569 0.000327 0.00143
0.002606 0.000315 0.001429
0.002069 0.000479 0.002189
0.000807 0.000721 0.00238
0.001424 0.000541 0.002467
0.00139 0.000731 0.002066
0.001377 0.000725 0.002092
0.000508 0.000562 0.002896
0.001422 0.000618 0.002551
0.001781 0.000746 0.002116
0.002118 0.00025 0.002143
0.002136 0.000249 0.002126
0.002153 0.000248 0.002108
0.00217 0.000248 0.00209
0.002184 0.000248 0.00207
0.00219 0.000254 0.002043
0.002183 0.000268 0.002005
0.002175 0.000283 0.001966
0.002165 0.000298 0.001926
0.002151 0.000316 0.001883
0.002127 0.00034 0.001831
0.0021 0.000366 0.001777
0.002068 0.000394 0.001719
0.002039 0.000421 0.001663
0.002004 0.000452 0.001603
0.001981 0.000475 0.001552
0.001979 0.000486 0.001518
0.001986 0.000491 0.001492
0.001996 0.000495 0.001469
0.00201 0.000496 0.001448
0.002025 0.000496 0.001429
0.002043 0.000495 0.001412
0.002064 0.000491 0.001397
0.00209 0.000485 0.001387
0.002123 0.000475 0.001381
0.002172 0.000455 0.00139
0.002232 0.000428 0.001407
0.002282 0.000407 0.001416
0.002327 0.00039 0.001421
0.002371 0.000373 0.001426
0.002411 0.000358 0.001427
0.002453 0.000342 0.00143
0.002493 0.000328 0.00143
0.002532 0.000313 0.00143
0.00257 0.0003 0.00143
0.002607 0.000287 0.001429
0.001904 0.000505 0.002164
0.001695 0.000702 0.002078
0.001418 0.000577 0.002589
0.001489 0.000733 0.001994
0.001516 0.000728 0.00199
0.001517 0.000754 0.001992
0.001379 0.000751 0.002094
0.001403 0.00069 0.002305
0.000407 0.000646 0.002984
0.0014 0.000667 0.002651
0.002118 0.000223 0.002143
0.002136 0.000222 0.002125
0.002153 0.000221 0.002108
0.00217 0.000221 0.00209
0.002184 0.000221 0.00207
0.002189 0.000228 0.002042
0.002183 0.000241 0.002005
0.002175 0.000255 0.001966
0.002165 0.000271 0.001926
0.00215 0.000289 0.001882
0.002127 0.000312 0.001831
0.002098 0.000339 0.001776
0.002068 0.000367 0.001719
0.002039 0.000394 0.001663
0.002004 0.000425 0.001603
0.001981 0.000448 0.001552
0.001979 0.000458 0.001519
0.001986 0.000464 0.001492
0.001997 0.000467 0.001469
0.00201 0.000469 0.001448
0.002026 0.000469 0.001429
0.002043 0.000467 0.001412
0.002064 0.000464 0.001397
0.00209 0.000458 0.001386
0.002123 0.000447 0.001382
0.002172 0.000427 0.00139
0.002231 0.000401 0.001407
0.002282 0.00038 0.001416
0.002327 0.000362 0.001422
0.002371 0.000346 0.001426
0.002412 0.00033 0.001428
0.002453 0.000315 0.00143
0.002494 0.0003 0.001431
0.002531 0.000286 0.00143
0.002569 0.000273 0.001429
0.002606 0.000261 0.001429
0.001413 0.00051 0.002626
0.001422 0.000591 0.002551
0.001413 0.000564 0.002626
0.000432 0.000426 0.002982
0.001547 0.000719 0.001992
0.001393 0.000756 0.002071
0.000636 0.000568 0.002412
0.001413 0.000591 0.002626
0.001343 0.000609 0.002698
0.0021 0.000197 0.00216
0.002118 0.000196 0.002143
0.002136 0.000195 0.002126
0.002153 0.000194 0.002108
0.002169 0.000194 0.002089
0.002183 0.000195 0.002069
0.002189 0.000201 0.002042
0.002183 0.000214 0.002005
0.002174 0.000228 0.001966
0.002164 0.000244 0.001926
0.00215 0.000262 0.001882
0.001979 0.000431 0.001518
0.001986 0.000437 0.001492
0.001997 0.00044 0.001469
0.00201 0.000442 0.001448
0.002026 0.000442 0.001429
0.002043 0.00044 0.001412
0.002064 0.000437 0.001397
0.00209 0.000431 0.001386
0.002124 0.00042 0.001382
0.002172 0.0004 0.00139
0.002231 0.000374 0.001407
0.002281 0.000354 0.001415
0.002328 0.000335 0.001422
0.002371 0.000318 0.001426
0.002413 0.000302 0.001428
0.002453 0.000287 0.00143
0.002493 0.000273 0.00143
0.002532 0.000259 0.00143
0.002569 0.000246 0.001429
0.002606 0.000233 0.001429
0.001548 0.000637 0.001992
0.001423 0.000623 0.002466
0.001425 0.000605 0.002512
0.001372 0.00063 0.002129
0.001343 0.000418 0.002698
0.000508 0.000345 0.002896
0.001386 0.000579 0.002674
0.001422 0.000672 0.002552
0.0021 0.00017 0.00216
0.002118 0.000169 0.002143
0.002135 0.000168 0.002125
0.002152 0.000167 0.002107
0.002168 0.000167 0.002088
0.002182 0.000168 0.002068
0.002188 0.000174 0.002041
0.002183 0.000187 0.002005
0.002174 0.000201 0.001966
0.002164 0.000217 0.001926
0.00215 0.000235 0.001882
0.002127 0.000258 0.001831
0.002099 0.000285 0.001776
0.002071 0.000311 0.001722
0.001997 0.000413 0.001469
0.00201 0.000414 0.001448
0.002026 0.000415 0.001429
0.002043 0.000413 0.001412
0.002064 0.00041 0.001397
0.00209 0.000404 0.001386
0.002123 0.000393 0.001381
0.002173 0.000372 0.001391
0.002231 0.000347 0.001407
0.002281 0.000326 0.001416
0.002327 0.000308 0.001422
0.002371 0.000291 0.001426
0.002413 0.000275 0.001428
0.002453 0.00026 0.00143
0.002493 0.000246 0.00143
0.002531 0.000232 0.00143
0.002568 0.000219 0.001429
0.002606 0.000206 0.001429
0.001109 0.000549 0.002671
0.001343 0.000527 0.002698
0.001419 0.000644 0.002416
0.001423 0.00071 0.002029
0.001419 0.000562 0.002415
0.001372 0.000685 0.002128
0.001942 0.000598 0.002179
0.001404 0.000582 0.002656
0.001402 0.000637 0.002654
0.002099 0.000144 0.002159
0.002117 0.000142 0.002142
0.002134 0.000141 0.002124
0.002151 0.000141 0.002106
0.002166 0.000141 0.002087
0.00218 0.000143 0.002066
0.002187 0.000147 0.00204
0.002182 0.00016 0.002004
0.002174 0.000174 0.001966
0.002164 0.00019 0.001926
0.002149 0.000208 0.001882
0.002125 0.000232 0.001829
0.002097 0.000259 0.001775
0.00207 0.000284 0.001721
0.001997 0.000386 0.001469
0.00201 0.000387 0.001448
0.002025 0.000387 0.001429
0.002043 0.000386 0.001412
0.002064 0.000383 0.001397
0.00209 0.000376 0.001386
0.002123 0.000366 0.001382
0.002174 0.000345 0.001391
0.002231 0.00032 0.001406
0.002282 0.000299 0.001416
0.002327 0.000281 0.001422
0.002371 0.000264 0.001426
0.002413 0.000248 0.001428
0.002454 0.000233 0.00143
0.002493 0.000219 0.00143
0.002531 0.000205 0.00143
0.002568 0.000192 0.00143
0.002606 0.000179 0.001429
0.000605 0.000626 0.002476
0.001365 0.000526 0.002687
0.001387 0.000525 0.002675
0.002088 0.000508 0.002172
0.001365 0.000471 0.002687
0.001422 0.000765 0.002027
0.001405 0.000763 0.002045
0.001419 0.000671 0.002416
0.001236 0.000607 0.002744
0.001863 0.000739 0.00215
0.002096 0.000118 0.002156
0.002114 0.000117 0.002139
0.002131 0.000116 0.002121
0.002147 0.000116 0.002103
0.002162 0.000117 0.002083
0.002176 0.000118 0.002063
0.002185 0.000122 0.002038
0.002182 0.000133 0.002004
0.002175 0.000147 0.001966
0.002164 0.000163 0.001926
0.002149 0.000181 0.001881
0.002126 0.000205 0.00183
0.002097 0.000231 0.001775
0.002069 0.000258 0.001719
0.001996 0.000359 0.001468
0.00201 0.00036 0.001448
0.002025 0.00036 0.001429
0.002043 0.000359 0.001411
0.002064 0.000355 0.001397
0.00209 0.000349 0.001386
0.002124 0.000339 0.001382
0.002174 0.000317 0.001392
0.002231 0.000292 0.001407
0.002282 0.000272 0.001416
0.002328 0.000253 0.001422
0.002371 0.000237 0.001426
0.002413 0.000221 0.001429
0.002453 0.000206 0.00143
0.002493 0.000192 0.00143
0.002531 0.000178 0.00143
0.002568 0.000165 0.00143
0.002606 0.000152 0.00143
0.001425 0.000523 0.002513
