-0.000115 0.000673 0.002558
-9e-05 0.00068 0.002542
-6.6e-05 0.000684 0.002533
-4.1e-05 0.000687 0.002529
-1.6e-05 0.000686 0.002529
8e-06 0.000685 0.002532
3.3e-05 0.000682 0.002538
5.8e-05 0.000678 0.002548
8.2e-05 0.000669 0.002567
0.000132 0.000628 0.002655
0.000156 0.000607 0.002701
0.000181 0.000585 0.002748
0.000206 0.000565 0.00279
0.00023 0.000547 0.002828
0.000255 0.00053 0.002866
0.00028 0.000513 0.002901
0.000304 0.000498 0.002934
0.000329 0.000484 0.002965
0.000354 0.000473 0.002987
0.000378 0.000472 0.00299
0.000403 0.000473 0.002987
0.000428 0.000475 0.002984
0.000452 0.000477 0.00298
0.000477 0.000479 0.002976
0.000501 0.00048 0.002972
0.000433 0.000616 0.002983
0.000699 0.000725 0.002528
0.000861 0.000709 0.002389
0.000995 0.000622 0.00248
0.001371 0.000317 0.002681
-0.001192 0.00054 0.002613
-0.000642 0.000554 0.002928
-0.000759 0.000753 0.002447
-0.001316 0.000573 0.002687
-0.001052 0.000725 0.002486
-0.001158 0.000694 0.002585
-0.001557 0.000604 0.002495
-0.000459 0.000449 0.00298
-0.000435 0.000447 0.002984
-0.00041 0.000446 0.002985
-0.000385 0.000451 0.002977
-0.00036 0.000463 0.002951
-0.000336 0.000475 0.002924
-0.000311 0.000488 0.002896
-0.000287 0.000502 0.002866
-0.000262 0.00052 0.002828
-0.000238 0.000541 0.002783
-0.000213 0.000562 0.002737
-0.000189 0.000586 0.002686
-0.000164 0.000609 0.002637
-0.000139 0.000631 0.002589
-0.000115 0.000645 0.002559
-9e-05 0.000653 0.002541
-6.5e-05 0.000657 0.002533
-4.1e-05 0.000659 0.002529
-1.6e-05 0.000659 0.002529
8e-06 0.000658 0.002532
3.3e-05 0.000655 0.002537
5.8e-05 0.000651 0.002548
8.2e-05 0.000642 0.002567
0.000107 0.000625 0.002602
0.000132 0.000602 0.002653
0.000156 0.000579 0.002702
0.000181 0.000558 0.002747
0.000206 0.000538 0.00279
0.00023 0.00052 0.002829
0.000255 0.000503 0.002866
0.00028 0.000486 0.002901
0.000304 0.000471 0.002934
0.000329 0.000456 0.002965
0.000354 0.000446 0.002988
0.000378 0.000445 0.00299
0.000403 0.000446 0.002988
0.000428 0.000447 0.002985
0.000452 0.000449 0.002981
0.000477 0.000451 0.002977
0.000501 0.000453 0.002972
0.001415 0.000647 0.002658
0.000644 0.000597 0.002836
0.000725 0.000703 0.002446
0.001068 0.000583 0.002546
0.000889 0.000622 0.002393
-0.001158 0.000585 0.002585
-0.00055 0.00055 0.002964
-0.000728 0.000686 0.002607
-0.002402 0.0007 0.001321
-0.001158 0.000666 0.002585
-0.001316 0.000628 0.002686
-0.001224 0.000718 0.002633
-0.000459 0.000421 0.00298
-0.000435 0.00042 0.002984
-0.00041 0.000419 0.002986
-0.000385 0.000424 0.002976
-0.00036 0.000436 0.002951
-0.000336 0.000449 0.002923
-0.000312 0.000461 0.002896
-0.000287 0.000475 0.002866
-0.000262 0.000493 0.002828
-0.000238 0.000514 0.002782
-0.000213 0.000535 0.002737
-0.000164 0.000582 0.002636
-0.000139 0.000604 0.002589
-0.000115 0.000619 0.002558
-9e-05 0.000626 0.002541
-6.5e-05 0.00063 0.002533
-4.1e-05 0.000632 0.002529
-1.6e-05 0.000632 0.002529
8e-06 0.000631 0.002531
3.3e-05 0.000628 0.002537
5.8e-05 0.000623 0.002549
8.2e-05 0.000614 0.002567
0.000107 0.000599 0.0026
0.000132 0.000574 0.002655
0.000156 0.000551 0.002704
0.000181 0.000531 0.002747
0.000206 0.000511 0.00279
0.00023 0.000492 0.002829
0.000255 0.000476 0.002865
0.00028 0.000459 0.002901
0.000304 0.000444 0.002934
0.000329 0.000429 0.002966
0.000354 0.000419 0.002988
0.000378 0.000417 0.002991
0.000403 0.000419 0.002988
0.000428 0.00042 0.002985
0.000452 0.000422 0.002981
0.000477 0.000424 0.002977
0.000501 0.000426 0.002973
0.001348 0.000642 0.002691
0.000507 0.000556 0.002972
0.000788 0.000714 0.002401
0.001207 0.000515 0.002655
0.000724 0.000595 0.002445
-0.000657 0.000542 0.002889
-0.000622 0.000548 0.002947
-0.000717 0.000665 0.002657
-0.00149 0.000627 0.002618
-0.001088 0.000705 0.002519
-0.001343 0.000623 0.002689
-0.001314 0.000685 0.002679
-0.000459 0.000394 0.00298
-0.000435 0.000393 0.002983
-0.00041 0.000392 0.002985
-0.000385 0.000396 0.002976
-0.000361 0.000408 0.002951
-0.000336 0.000421 0.002923
-0.000312 0.000434 0.002895
-0.000287 0.000448 0.002866
-0.000262 0.000466 0.002827
-0.000238 0.000487 0.002783
-0.000213 0.000508 0.002737
-0.000657 0.00046 0.00289
-0.000164 0.000555 0.002636
-0.000139 0.000577 0.002588
-0.000115 0.000592 0.002557
-9e-05 0.000599 0.002541
-6.5e-05 0.000603 0.002533
-4.1e-05 0.000605 0.002528
-1.6e-05 0.000605 0.002529
8e-06 0.000604 0.002531
3.3e-05 0.000601 0.002537
5.8e-05 0.000596 0.002548
8.2e-05 0.000587 0.002567
0.000107 0.000571 0.002601
0.000156 0.000524 0.002703
0.000181 0.000504 0.002746
0.000206 0.000484 0.00279
0.00023 0.000465 0.00283
0.000255 0.000449 0.002865
0.00028 0.000432 0.0029
0.000304 0.000417 0.002934
0.000329 0.000402 0.002965
0.000354 0.000392 0.002987
0.000378 0.00039 0.00299
0.000403 0.000392 0.002987
0.000428 0.000394 0.002984
0.000452 0.000395 0.00298
0.000477 0.000397 0.002977
0.000501 0.000399 0.002973
0.001325 0.000641 0.0027
0.000531 0.000554 0.002967
0.000765 0.000713 0.002411
0.001104 0.000564 0.002576
0.001393 0.000455 0.00267
-0.001087 0.000624 0.002518
-0.001845 0.000687 0.002031
-0.000835 0.000784 0.002355
-0.001887 0.000669 0.00205
-0.001511 0.0006 0.002606
-0.000574 0.000631 0.002958
-0.000484 0.00037 0.002975
-0.000459 0.000368 0.002979
-0.000435 0.000366 0.002983
-0.00041 0.000365 0.002985
-0.000385 0.000369 0.002976
-0.000361 0.000381 0.002951
-0.000336 0.000394 0.002922
-0.000311 0.000407 0.002896
-0.000287 0.00042 0.002867
-0.000262 0.000439 0.002828
-0.000238 0.000459 0.002783
-0.000213 0.000481 0.002736
-0.000164 0.000528 0.002637
-0.000139 0.00055 0.002588
-0.000115 0.000565 0.002557
-9e-05 0.000572 0.002541
-6.5e-05 0.000576 0.002533
-4.1e-05 0.000578 0.002528
-1.6e-05 0.000578 0.002529
8e-06 0.000577 0.002531
3.3e-05 0.000574 0.002537
5.8e-05 0.000569 0.002548
8.2e-05 0.00056 0.002567
0.000107 0.000544 0.002602
0.000132 0.000518 0.002658
0.000156 0.000497 0.002703
0.000181 0.000477 0.002746
0.000206 0.000457 0.002789
0.00023 0.000438 0.002829
0.000255 0.000421 0.002866
0.00028 0.000405 0.002901
0.000304 0.000389 0.002934
0.000329 0.000375 0.002965
0.000354 0.000365 0.002987
0.000378 0.000364 0.002988
0.000403 0.000366 0.002984
0.000428 0.000368 0.002981
0.000452 0.000369 0.002978
0.000477 0.000371 0.002974
0.000502 0.000373 0.00297
0.000615 0.000624 0.002906
0.0006 0.000558 0.002938
0.000744 0.00071 0.002426
0.001032 0.000601 0.002516
0.001241 0.000282 0.002678
-0.000684 0.000549 0.002805
-0.001851 0.000736 0.00204
-0.00095 0.00075 0.002399
-0.000599 0.000575 0.002955
-0.001343 0.000595 0.002691
-0.001158 0.000721 0.002585
-0.000484 0.000342 0.002975
-0.000459 0.00034 0.002979
-0.000435 0.000339 0.002983
-0.00041 0.000338 0.002986
-0.000385 0.000342 0.002976
-0.000361 0.000354 0.002951
-0.000336 0.000367 0.002923
-0.000311 0.000379 0.002896
-0.000287 0.000393 0.002867
-0.000262 0.000412 0.002827
-0.000238 0.000433 0.002782
-0.000213 0.000454 0.002736
-0.000188 0.000476 0.002688
-0.000164 0.0005 0.002637
-0.000139 0.000524 0.002587
-0.000115 0.000537 0.002557
-9e-05 0.000545 0.002541
-6.5e-05 0.000549 0.002533
-4.1e-05 0.000551 0.002528
-1.6e-05 0.000551 0.002529
9e-06 0.00055 0.002531
3.3e-05 0.000547 0.002537
5.8e-05 0.000542 0.002548
8.2e-05 0.000533 0.002567
0.000107 0.000517 0.002602
0.000132 0.000491 0.002657
0.000156 0.00047 0.002703
0.000181 0.000449 0.002748
0.000206 0.000429 0.002789
0.00023 0.000411 0.002829
0.000255 0.000394 0.002867
0.00028 0.000378 0.002901
0.000304 0.000362 0.002935
0.000329 0.000348 0.002965
0.000354 0.000337 0.002987
0.000378 0.000337 0.002989
0.000403 0.000338 0.002986
0.000428 0.00034 0.002982
0.000452 0.000342 0.002978
0.000477 0.000344 0.002974
0.000502 0.000346 0.00297
0.000579 0.00058 0.002955
0.001104 0.000619 0.002577
0.000811 0.000714 0.002394
0.001173 0.000531 0.00263
0.000955 0.000538 0.002438
-0.00055 0.000522 0.002964
-0.000717 0.000638 0.002657
-0.001539 0.000692 0.002283
-0.000812 0.000783 0.002364
-0.000526 0.000578 0.002969
-0.000717 0.000719 0.002657
-0.001192 0.000703 0.002614
-0.000484 0.000315 0.002976
-0.000459 0.000313 0.00298
-0.000435 0.000312 0.002983
-0.00041 0.000311 0.002985
-0.000385 0.000315 0.002976
-0.000361 0.000327 0.00295
-0.000336 0.00034 0.002922
-0.000311 0.000352 0.002896
-0.000287 0.000366 0.002866
-0.000262 0.000384 0.002828
-0.000238 0.000406 0.002781
-0.000213 0.000427 0.002735
-0.000188 0.00045 0.002686
-0.000164 0.000473 0.002637
-0.000139 0.000496 0.002587
-0.000115 0.00051 0.002557
-9e-05 0.000518 0.002541
-6.5e-05 0.000522 0.002533
-4.1e-05 0.000524 0.002528
-1.6e-05 0.000524 0.002529
9e-06 0.000523 0.00253
3.3e-05 0.00052 0.002537
5.8e-05 0.000515 0.002548
8.2e-05 0.000506 0.002567
0.000107 0.00049 0.002602
0.000132 0.000464 0.002656
0.000156 0.000442 0.002703
0.000181 0.000422 0.002748
0.000206 0.000402 0.00279
0.00023 0.000384 0.002828
0.000255 0.000366 0.002867
0.00028 0.000351 0.0029
0.000304 0.000335 0.002934
0.000329 0.00032 0.002966
0.000354 0.00031 0.002987
0.000378 0.000309 0.00299
0.000403 0.000311 0.002987
0.000428 0.000312 0.002983
0.000452 0.000314 0.00298
0.000477 0.000316 0.002976
0.001272 0.000649 0.002698
0.001302 0.000558 0.00271
0.001394 0.000535 0.002672
0.000836 0.000686 0.002389
0.000677 0.000544 0.002699
0.000919 0.000612 0.002407
-0.001016 0.000664 0.002449
-0.000575 0.000521 0.00296
-0.000574 0.000549 0.002959
-0.001016 0.000719 0.002448
-0.000717 0.000692 0.002657
-0.000751 0.000743 0.002595
-0.000684 0.000712 0.002805
-0.000484 0.000287 0.002976
-0.000459 0.000286 0.00298
-0.000435 0.000284 0.002984
-0.00041 0.000284 0.002985
-0.000385 0.000288 0.002976
-0.000361 0.0003 0.00295
-0.000336 0.000313 0.002923
-0.000311 0.000325 0.002896
-0.000287 0.000339 0.002867
-0.000262 0.000357 0.002828
-0.000238 0.000378 0.002782
-0.000213 0.0004 0.002734
-0.000164 0.000446 0.002636
-0.000139 0.000469 0.002587
-0.000115 0.000484 0.002556
-9e-05 0.000491 0.002541
-6.5e-05 0.000495 0.002532
-4.1e-05 0.000496 0.002529
-1.6e-05 0.000496 0.002529
9e-06 0.000495 0.002531
3.3e-05 0.000493 0.002537
5.8e-05 0.000488 0.002548
8.2e-05 0.000479 0.002567
0.000107 0.000462 0.002602
0.000132 0.000437 0.002657
0.000156 0.000415 0.002704
0.000181 0.000394 0.002748
0.000206 0.000375 0.002789
0.00023 0.000357 0.002829
0.000255 0.000339 0.002867
0.00028 0.000323 0.0029
0.000304 0.000307 0.002935
0.000329 0.000293 0.002967
0.000354 0.000283 0.002987
0.000378 0.000282 0.002989
0.000403 0.000284 0.002986
0.000428 0.000286 0.002982
0.000452 0.000287 0.002979
0.000477 0.000289 0.002976
0.001138 0.000683 0.002604
0.001139 0.000601 0.002604
0.000658 0.00053 0.002798
0.000658 0.000502 0.002799
0.000531 0.000391 0.002967
0.000556 0.00039 0.002962
-0.001555 0.000624 0.002445
-0.000599 0.000548 0.002954
-0.000979 0.00074 0.002411
-0.000992 0.000747 0.002454
-0.001089 0.00073 0.002523
-0.000671 0.000693 0.00285
-0.000484 0.000261 0.002975
-0.000459 0.000259 0.00298
-0.000434 0.000257 0.002983
-0.00041 0.000256 0.002985
-0.000385 0.000261 0.002976
-0.000361 0.000273 0.00295
-0.000336 0.000285 0.002923
-0.000311 0.000298 0.002896
-0.000287 0.000312 0.002866
-0.000262 0.000329 0.002829
-0.000238 0.000351 0.002782
-0.000213 0.000373 0.002734
-0.000188 0.000396 0.002686
-0.000164 0.000419 0.002636
-0.000139 0.000442 0.002587
-0.000115 0.000456 0.002557
-9e-05 0.000464 0.00254
-6.5e-05 0.000467 0.002532
-4.1e-05 0.000469 0.002528
-1.6e-05 0.000469 0.002529
9e-06 0.000468 0.002531
3.3e-05 0.000465 0.002537
5.8e-05 0.00046 0.002548
8.3e-05 0.000452 0.002566
0.000107 0.000436 0.002601
0.000132 0.000409 0.002658
0.000181 0.000368 0.002747
0.000206 0.000348 0.002789
0.000231 0.00033 0.002829
0.000255 0.000312 0.002867
0.00028 0.000296 0.0029
0.000304 0.00028 0.002935
0.000329 0.000265 0.002968
0.000354 0.000256 0.002988
0.000378 0.000255 0.00299
0.000403 0.000256 0.002987
0.000428 0.000258 0.002983
0.000452 0.00026 0.00298
0.000477 0.000261 0.002976
0.00124 0.000636 0.002678
0.000919 0.000721 0.002406
0.0007 0.000642 0.00253
0.000685 0.000567 0.002644
0.001104 0.000428 0.002577
-0.00153 0.000629 0.002589
-0.000526 0.000551 0.002968
-0.001052 0.000698 0.002484
-0.000622 0.000575 0.002946
-0.000778 0.000736 0.002602
-0.001342 0.000651 0.002686
-0.000484 0.000233 0.002976
-0.000459 0.000232 0.00298
-0.000434 0.00023 0.002983
-0.00041 0.00023 0.002984
-0.000385 0.000234 0.002975
-0.000361 0.000245 0.002951
-0.000336 0.000258 0.002923
-0.000311 0.000271 0.002896
-0.000287 0.000284 0.002867
-0.000262 0.000302 0.002829
-0.000238 0.000324 0.002781
-0.000213 0.000346 0.002735
-0.000188 0.000369 0.002685
-0.000164 0.000392 0.002635
-0.000139 0.000415 0.002587
-0.000115 0.000429 0.002556
-9e-05 0.000436 0.002541
-6.5e-05 0.00044 0.002532
-4.1e-05 0.000442 0.002528
-1.6e-05 0.000442 0.002529
9e-06 0.000441 0.002531
3.3e-05 0.000438 0.002537
5.8e-05 0.000433 0.002548
8.3e-05 0.000424 0.002567
0.000107 0.000408 0.002602
0.000132 0.000382 0.002659
0.000157 0.000361 0.002704
0.000181 0.00034 0.002748
0.000206 0.00032 0.00279
0.000231 0.000302 0.002829
0.000255 0.000285 0.002866
0.00028 0.000269 0.002901
0.000305 0.000253 0.002935
0.000329 0.000238 0.002968
0.000354 0.000229 0.002987
0.000378 0.000228 0.00299
0.000403 0.000229 0.002987
0.000428 0.000231 0.002983
0.000452 0.000232 0.002979
0.000477 0.000234 0.002976
0.001103 0.000728 0.002574
0.001068 0.000665 0.002546
0.00124 0.000527 0.002678
0.000811 0.000687 0.002393
0.0007 0.000615 0.00253
0.000615 0.00038 0.002905
-0.000501 0.000525 0.002973
-0.000501 0.000552 0.002972
-0.001284 0.000585 0.00267
-0.000642 0.000581 0.002927
-0.000642 0.000609 0.002925
-0.001316 0.000655 0.002685
-0.000484 0.000206 0.002976
-0.000459 0.000204 0.00298
-0.000434 0.000203 0.002983
-0.00041 0.000203 0.002984
-0.000385 0.000207 0.002975
-0.00036 0.000218 0.002951
-0.000336 0.000231 0.002923
-0.000311 0.000244 0.002895
-0.000287 0.000257 0.002867
-0.000262 0.000275 0.002828
-0.000238 0.000297 0.002782
-0.000213 0.000318 0.002736
-0.000188 0.000342 0.002684
-0.000164 0.000365 0.002635
-0.000139 0.000388 0.002586
-0.000115 0.000402 0.002556
-9e-05 0.000409 0.002541
-6.5e-05 0.000413 0.002532
-4.1e-05 0.000415 0.002528
-1.6e-05 0.000415 0.002529
9e-06 0.000414 0.002531
3.3e-05 0.000411 0.002537
5.8e-05 0.000406 0.002548
8.3e-05 0.000397 0.002567
0.000107 0.000381 0.002601
0.000132 0.000355 0.002657
0.000157 0.000333 0.002704
0.000181 0.000312 0.002749
0.000206 0.000293 0.00279
0.000231 0.000275 0.00283
0.000255 0.000258 0.002866
0.00028 0.000242 0.002901
0.000305 0.000226 0.002935
0.000329 0.00021 0.002969
0.000354 0.000202 0.002986
0.000378 0.000201 0.002989
0.000403 0.000201 0.002988
0.000428 0.000203 0.002984
0.000452 0.000205 0.002981
0.000477 0.000207 0.002976
0.000657 0.000693 0.002798
0.001349 0.000586 0.002693
0.001273 0.00054 0.0027
0.001349 0.000505 0.002693
0.000919 0.000666 0.002406
0.0006 0.000367 0.002938
-0.000758 0.000673 0.002445
-0.000683 0.000603 0.002805
-0.001192 0.000622 0.002614
-0.000657 0.000596 0.00289
-0.000657 0.000623 0.002891
-0.001285 0.000666 0.002671
-0.000484 0.000179 0.002976
-0.000459 0.000177 0.00298
-0.000434 0.000176 0.002983
-0.00041 0.000176 0.002982
-0.000385 0.00018 0.002974
-0.000361 0.000191 0.002951
-0.000336 0.000203 0.002924
-0.000311 0.000217 0.002895
-0.000287 0.00023 0.002867
-0.000262 0.000248 0.002828
-0.000238 0.00027 0.002782
-0.000213 0.000292 0.002735
-0.000164 0.000338 0.002635
-0.000139 0.000361 0.002587
-0.000115 0.000375 0.002556
-9e-05 0.000382 0.002541
-6.5e-05 0.000386 0.002532
-4.1e-05 0.000388 0.002528
-1.6e-05 0.000388 0.002528
9e-06 0.000387 0.002531
3.3e-05 0.000384 0.002537
5.8e-05 0.000379 0.002548
8.3e-05 0.00037 0.002567
0.000107 0.000354 0.002601
0.000132 0.000327 0.00266
0.000157 0.000306 0.002704
0.000181 0.000285 0.002749
0.000206 0.000266 0.002791
0.000231 0.000247 0.002831
0.000255 0.000231 0.002865
0.00028 0.000214 0.002901
0.000305 0.000198 0.002936
0.000329 0.000183 0.002968
0.000354 0.000175 0.002985
0.000378 0.000174 0.002988
0.000403 0.000175 0.002987
0.000428 0.000176 0.002984
0.000452 0.000177 0.002981
0.000477 0.000179 0.002977
0.000432 0.000643 0.002982
0.000678 0.000678 0.002702
0.000708 0.00072 0.002476
0.000658 0.000557 0.002798
0.000668 0.000549 0.002751
0.000556 0.000417 0.002963
-0.000671 0.000558 0.002849
-0.000708 0.000642 0.002711
-0.000501 0.000579 0.002973
-0.001018 0.000742 0.002456
-0.001035 0.000741 0.002515
-0.000657 0.000678 0.002888
-0.000484 0.000152 0.002976
-0.000459 0.000151 0.002979
-0.000434 0.000149 0.002981
-0.00041 0.00015 0.00298
-0.000385 0.000153 0.002973
-0.000361 0.000163 0.002951
-0.000336 0.000177 0.002923
-0.000311 0.00019 0.002895
-0.000287 0.000203 0.002867
-0.000262 0.000221 0.002827
-0.000237 0.000243 0.002782
-0.000213 0.000265 0.002734
-0.000188 0.000286 0.002688
-0.000164 0.000312 0.002633
-0.000139 0.000334 0.002586
-0.000114 0.000347 0.002557
-9e-05 0.000355 0.002541
-6.5e-05 0.000359 0.002532
-4.1e-05 0.000361 0.002529
-1.6e-05 0.000361 0.002529
9e-06 0.000359 0.002531
3.3e-05 0.000357 0.002537
5.8e-05 0.000351 0.002548
8.3e-05 0.000343 0.002567
0.000107 0.000328 0.002599
0.000132 0.0003 0.002659
0.000157 0.000279 0.002704
0.000181 0.000258 0.002749
0.000206 0.000239 0.002791
0.000231 0.00022 0.00283
0.000255 0.000204 0.002865
0.00028 0.000187 0.002901
0.000305 0.000171 0.002935
0.000329 0.000156 0.002968
0.000354 0.00015 0.002982
0.000379 0.000148 0.002985
0.000403 0.000149 0.002985
0.000428 0.00015 0.002982
0.000452 0.000151 0.00298
0.000477 0.000152 0.002976
0.001476 0.000687 0.002608
0.000669 0.000657 0.002753
0.000657 0.000584 0.002798
0.000629 0.000529 0.00287
0.000644 0.000515 0.002835
0.000693 0.000401 0.002587
-0.000892 0.000687 0.002375
-0.000744 0.000738 0.002485
-0.000575 0.000576 0.00296
-0.001316 0.000601 0.002687
-0.001223 0.000663 0.002634
-0.001192 0.000732 0.002611
-0.000484 0.000126 0.002974
-0.000459 0.000124 0.002976
-0.000434 0.000124 0.002978
-0.00041 0.000124 0.002977
-0.000385 0.000127 0.002971
-0.000361 0.000136 0.002951
-0.000336 0.000149 0.002923
-0.000311 0.000163 0.002895
-0.000287 0.000176 0.002867
-0.000262 0.000195 0.002826
-0.000237 0.000215 0.002783
-0.000213 0.000237 0.002734
-0.000188 0.00026 0.002687
-0.000164 0.000284 0.002634
-0.000139 0.000307 0.002586
-0.000114 0.00032 0.002557
-9e-05 0.000328 0.002541
-6.5e-05 0.000332 0.002532
-4.1e-05 0.000333 0.002528
-1.6e-05 0.000333 0.002529
9e-06 0.000332 0.002532
3.3e-05 0.000329 0.002538
5.8e-05 0.000324 0.002548
8.3e-05 0.000315 0.002568
0.000132 0.000273 0.002659
0.000157 0.000252 0.002705
0.000181 0.000231 0.00275
0.000206 0.000211 0.002791
0.000231 0.000193 0.00283
0.000255 0.000176 0.002866
0.00028 0.00016 0.002901
0.000305 0.000144 0.002935
0.000329 0.00013 0.002966
0.000354 0.000124 0.002979
0.000379 0.000123 0.002982
0.000403 0.000123 0.002982
0.000428 0.000124 0.00298
0.000452 0.000125 0.002978
0.000477 0.000126 0.002974
0.001456 0.000683 0.002625
0.000555 0.00058 0.002962
0.001273 0.000567 0.0027
0.000556 0.000498 0.002963
0.000629 0.000502 0.00287
0.000724 0.000568 0.002445
-0.000918 0.000682 0.002377
-0.001124 0.000658 0.002554
-0.000738 0.000737 0.002551
-0.000696 0.000677 0.002758
-0.000621 0.000632 0.002942
-0.00067 0.000723 0.002845
-0.000484 0.000101 0.002969
-0.000459 0.0001 0.002971
-0.000434 9.9e-05 0.002972
-0.00041 0.0001 0.002971
-0.000385 0.000102 0.002966
-0.000361 0.00011 0.00295
-0.000336 0.000122 0.002923
-0.000311 0.000135 0.002895
-0.000287 0.000149 0.002866
-0.000262 0.000167 0.002827
-0.000237 0.000188 0.002783
-0.000213 0.00021 0.002734
-0.000188 0.000232 0.002687
-0.000164 0.000257 0.002633
-0.000139 0.00028 0.002585
-0.000114 0.000293 0.002556
-9e-05 0.000301 0.002541
-6.5e-05 0.000304 0.002533
-4.1e-05 0.000306 0.002529
-1.6e-05 0.000306 0.002529
9e-06 0.000305 0.002532
3.3e-05 0.000302 0.002538
5.8e-05 0.000297 0.002549
8.3e-05 0.000288 0.002568
0.000107 0.000273 0.0026
0.000132 0.000246 0.002659
0.000157 0.000224 0.002705
0.000181 0.000203 0.00275
0.000206 0.000185 0.00279
0.000231 0.000166 0.00283
0.000255 0.000149 0.002866
0.00028 0.000132 0.002902
0.000305 0.000117 0.002935
0.000329 0.000104 0.002963
0.000354 9.9e-05 0.002974
0.000379 9.8e-05 0.002976
0.000403 9.8e-05 0.002976
0.000428 9.8e-05 0.002975
0.000452 9.9e-05 0.002973
0.000477 0.000101 0.00297
0.001346 0.000671 0.002686
0.0013 0.000643 0.002704
0.001273 0.000594 0.002699
0.000531 0.0005 0.002968
0.000677 0.000571 0.002699
0.000507 0.000393 0.002972
-0.000684 0.000521 0.002806
-0.000696 0.00054 0.00276
-0.001254 0.000597 0.002653
-0.001463 0.000687 0.002622
-0.001389 0.000624 0.002673
-0.001224 0.00069 0.002634
-0.001363 0.000682 0.002673
-0.000484 7.7e-05 0.002961
-0.000459 7.7e-05 0.002963
-0.000434 7.6e-05 0.002963
-0.00041 7.7e-05 0.002962
-0.000385 7.8e-05 0.002959
-0.00036 8.3e-05 0.002948
-0.000336 9.5e-05 0.002923
-0.000311 0.000108 0.002895
-0.000287 0.000122 0.002866
-0.000262 0.00014 0.002827
-0.000237 0.000161 0.002783
-0.000213 0.000184 0.002731
-0.000188 0.000205 0.002687
-0.000164 0.00023 0.002634
-0.000139 0.000253 0.002585
-0.000114 0.000266 0.002557
-9e-05 0.000273 0.002541
-6.5e-05 0.000277 0.002532
-4.1e-05 0.000279 0.002529
-1.6e-05 0.000279 0.002529
9e-06 0.000278 0.002531
3.3e-05 0.000275 0.002537
5.8e-05 0.00027 0.002549
8.3e-05 0.000261 0.002568
0.000107 0.000246 0.0026
0.000132 0.000219 0.002658
0.000157 0.000197 0.002705
0.000181 0.000176 0.00275
0.000206 0.000158 0.00279
0.000231 0.000139 0.00283
0.000255 0.000122 0.002866
0.00028 0.000106 0.002901
0.000305 9e-05 0.002934
0.000329 7.9e-05 0.002958
0.000354 7.6e-05 0.002965
0.000379 7.5e-05 0.002968
0.000403 7.5e-05 0.002968
0.000428 7.5e-05 0.002967
0.000452 7.6e-05 0.002965
0.000457 0.000641 0.002979
0.000502 7.9e-05 0.002958
0.000526 8.2e-05 0.002953
0.000685 0.000702 0.002645
0.000861 0.000737 0.002391
0.001326 0.000503 0.002704
0.001032 0.000411 0.002515
-0.000657 0.000514 0.00289
-0.00055 0.000577 0.002964
-0.0022 0.00072 0.001308
-0.001409 0.000684 0.002654
-0.001387 0.000683 0.002664
-0.000696 0.000704 0.002759
-0.000695 0.000732 0.002757
-0.000484 5.6e-05 0.002949
-0.000459 5.5e-05 0.002951
-0.000434 5.4e-05 0.002952
-0.00041 5.5e-05 0.002951
-0.000385 5.6e-05 0.002949
-0.00036 5.9e-05 0.002941
-0.000336 6.8e-05 0.002922
-0.000311 8.1e-05 0.002896
-0.000287 9.4e-05 0.002867
-0.000262 0.000113 0.002826
-0.000237 0.000133 0.002783
-0.000213 0.000156 0.002734
-0.000188 0.000178 0.002687
-0.000164 0.000202 0.002635
-0.000139 0.000225 0.002586
-0.000114 0.000239 0.002557
-9e-05 0.000246 0.002541
-6.5e-05 0.00025 0.002532
-4.1e-05 0.000252 0.002529
-1.6e-05 0.000252 0.002529
9e-06 0.000251 0.002531
3.3e-05 0.000248 0.002537
5.8e-05 0.000243 0.002548
8.3e-05 0.000234 0.002567
0.000157 0.00017 0.002705
0.000181 0.000149 0.002749
0.000231 0.000112 0.00283
0.000255 9.5e-05 0.002866
0.00028 7.9e-05 0.002901
0.000305 6.4e-05 0.002932
0.000329 5.7e-05 0.002948
0.000354 5.4e-05 0.002954
0.000379 5.3e-05 0.002956
0.000403 5.3e-05 0.002956
0.000428 5.4e-05 0.002955
0.000452 5.5e-05 0.002953
0.001172 0.000694 0.002629
0.000502 5.8e-05 0.002946
0.000526 6e-05 0.002941
0.000686 0.000729 0.002646
0.000726 0.000729 0.002449
0.001207 0.000542 0.002655
0.000699 0.000426 0.002527
-0.000575 0.000466 0.00296
-0.000696 0.00065 0.002758
-0.000607 4.6e-05 0.002912
-0.000582 4.3e-05 0.002918
-0.001469 0.000573 0.002631
-0.000598 0.000631 0.002952
-0.001389 0.000652 0.002671
-0.000484 3.6e-05 0.002933
-0.000639 0.000667 0.002917
-0.000619 0.000662 0.002936
-0.00041 3.5e-05 0.002936
-0.000385 3.5e-05 0.002935
-0.00036 3.8e-05 0.002929
-0.000336 4.4e-05 0.002916
-0.000311 5.4e-05 0.002894
-0.000287 6.7e-05 0.002866
-0.000262 8.6e-05 0.002827
-0.000237 0.000107 0.002781
-0.000213 0.000129 0.002734
-0.000188 0.000151 0.002686
-0.000164 0.000176 0.002634
-0.000139 0.000197 0.002587
-0.000114 0.000212 0.002557
-9e-05 0.000219 0.002541
-6.5e-05 0.000223 0.002533
-4e-05 0.000225 0.002529
-1.6e-05 0.000225 0.002529
9e-06 0.000223 0.002531
3.3e-05 0.000221 0.002537
5.8e-05 0.000216 0.002548
8.3e-05 0.000207 0.002567
0.000157 0.000143 0.002704
0.000181 0.000122 0.00275
0.000206 0.000103 0.002791
0.000231 8.4e-05 0.00283
0.000255 6.7e-05 0.002867
0.00028 5.2e-05 0.0029
0.000304 4.1e-05 0.002924
0.000329 3.6e-05 0.002934
0.000669 0.000711 0.002753
0.001458 0.000652 0.002633
0.000403 3.4e-05 0.00294
0.000428 3.4e-05 0.002939
0.000452 3.5e-05 0.002937
0.001172 0.000667 0.002629
0.000502 3.8e-05 0.002931
0.000526 4e-05 0.002926
0.000578 0.000637 0.002951
0.001207 0.000623 0.002655
0.000995 0.00065 0.00248
0.000955 0.000511 0.002438
-0.000551 0.000495 0.002965
-0.000671 0.00064 0.002849
-0.000607 2.7e-05 0.002894
-0.000582 2.5e-05 0.002899
-0.001124 0.000712 0.002554
-0.001548 0.000721 0.002343
-0.000508 2e-05 0.00291
-0.000484 1.8e-05 0.002913
-0.000459 1.8e-05 0.002914
-0.000707 0.000697 0.00271
-0.00041 1.7e-05 0.002915
-0.000385 1.8e-05 0.002914
-0.00036 1.9e-05 0.00291
-0.000336 2.3e-05 0.002903
-0.000311 3e-05 0.002886
-0.000287 4.2e-05 0.002863
-0.000262 5.9e-05 0.002825
-0.000237 7.9e-05 0.002783
-0.000213 0.000102 0.002733
-0.000188 0.000125 0.002685
-0.000139 0.000171 0.002586
-0.000114 0.000185 0.002556
-9e-05 0.000192 0.002541
-6.5e-05 0.000196 0.002532
-4e-05 0.000198 0.002528
-1.6e-05 0.000197 0.002529
9e-06 0.000196 0.002531
3.3e-05 0.000193 0.002537
5.8e-05 0.000189 0.002548
8.3e-05 0.000179 0.002568
0.000107 0.000164 0.002601
0.000157 0.000116 0.002703
0.000181 9.4e-05 0.002751
0.000206 7.6e-05 0.00279
0.000231 5.7e-05 0.00283
0.000255 4.1e-05 0.002866
0.00028 2.9e-05 0.002892
0.000304 2.1e-05 0.002907
0.000678 0.000706 0.002702
0.000788 0.000742 0.002401
0.001032 0.000711 0.002515
0.000403 1.6e-05 0.002918
0.000428 1.7e-05 0.002917
0.000453 1.8e-05 0.002915
0.000669 0.00063 0.002753
0.000502 2e-05 0.00291
0.000526 2.2e-05 0.002907
0.001435 0.000679 0.00264
0.000668 0.000684 0.002752
0.000507 0.000501 0.002972
0.000744 0.000629 0.002425
-0.00082 0.000715 0.002393
-0.00063 1.6e-05 0.002862
-0.000607 1.2e-05 0.00287
-0.000582 9e-06 0.002874
-0.00055 0.000468 0.002965
-0.000477 0.000471 0.002978
-0.000508 6e-06 0.002882
-0.000484 5e-06 0.002883
-0.000459 5e-06 0.002883
-0.000798 0.000685 0.002406
-0.000946 0.000674 0.002386
-0.001016 0.000637 0.00245
-0.00036 6e-06 0.002882
-0.000575 0.000493 0.002961
-0.001468 0.000628 0.002631
-0.000777 0.000708 0.002422
-0.000262 3.3e-05 0.002822
-0.000237 5e-05 0.002786
-0.000213 7.5e-05 0.002733
-0.000188 9.7e-05 0.002686
-0.000164 0.000122 0.002633
-0.000139 0.000144 0.002586
-0.000114 0.000158 0.002556
-9e-05 0.000165 0.00254
-6.5e-05 0.000169 0.002532
-4e-05 0.00017 0.002529
-1.6e-05 0.00017 0.002529
9e-06 0.000169 0.002531
3.3e-05 0.000167 0.002537
5.8e-05 0.000161 0.002548
8.3e-05 0.000152 0.002567
0.000107 0.000137 0.0026
0.000157 8.8e-05 0.002706
0.000181 6.6e-05 0.002752
0.000206 4.9e-05 0.00279
0.000231 3.1e-05 0.002828
0.000255 1.8e-05 0.002856
0.001365 0.000705 0.002665
0.001237 0.000721 0.00267
0.000329 4e-06 0.002886
0.000354 5e-06 0.002886
0.001068 0.000692 0.002545
0.000403 3e-06 0.002888
0.000428 4e-06 0.002886
0.000677 0.000327 0.002697
0.001207 0.000297 0.002656
0.000408 0.000618 0.002986
0.000383 0.00062 0.002987
0.001207 0.000678 0.002655
0.000575 1.2e-05 0.002872
0.0006 1.5e-05 0.002865
0.000724 0.000541 0.002445
-0.000843 0.000716 0.002384
-0.000728 0.000632 0.002605
-0.000671 0.000476 0.002849
-0.000533 2e-06 0.002831
-0.000508 2e-06 0.002831
-0.000484 2e-06 0.002831
-0.000459 2e-06 0.002831
-0.000434 2e-06 0.00283
-0.000286 4e-06 0.002824
-0.000262 1.3e-05 0.002808
-0.000237 2.5e-05 0.002782
-0.000188 7e-05 0.002685
-0.000164 9.5e-05 0.002632
-0.000139 0.000117 0.002585
-0.000114 0.000131 0.002555
-9e-05 0.000138 0.00254
-6.5e-05 0.000141 0.002533
-4e-05 0.000143 0.002528
-1.6e-05 0.000143 0.002529
9e-06 0.000142 0.002531
3.3e-05 0.00014 0.002536
5.8e-05 0.000134 0.002548
8.3e-05 0.000126 0.002566
0.000107 0.000109 0.002603
0.000157 5.9e-05 0.002709
0.000181 4e-05 0.002751
0.000206 2.2e-05 0.002788
0.00023 8e-06 0.002815
0.000305 3e-06 0.002829
0.000329 4e-06 0.002828
0.000354 2e-06 0.002832
-0.000684 0.000494 0.002806
0.000555 0.000337 0.00296
0.000629 0.000556 0.00287
0.000644 0.000705 0.002837
0.000551 3e-06 0.002832
0.000576 3e-06 0.002832
0.0006 3e-06 0.002831
0.00132 0.000703 0.002684
-0.000696 0.000514 0.002759
-0.000533 5e-06 0.002766
-0.000508 5e-06 0.002766
-0.000484 4e-06 0.002768
-0.000459 4e-06 0.002768
-0.000434 4e-06 0.002768
-0.001315 0.000546 0.002687
-0.001254 0.00057 0.002652
-0.001088 0.000651 0.002519
-0.000599 0.000465 0.002956
-0.000311 3e-06 0.002771
-0.000287 2e-06 0.002774
-0.000262 2e-06 0.002774
-0.000237 5e-06 0.002763
-0.000213 2e-05 0.002735
-0.000188 4.2e-05 0.002686
-0.000139 8.9e-05 0.002586
-0.000114 0.000104 0.002555
-9e-05 0.000111 0.002539
-6.5e-05 0.000114 0.002532
-4e-05 0.000116 0.002528
-1.6e-05 0.000116 0.002529
9e-06 0.000115 0.002531
3.4e-05 0.000112 0.002536
5.8e-05 0.000107 0.002547
8.3e-05 9.8e-05 0.002566
0.000107 8.2e-05 0.002601
0.000181 1.4e-05 0.002748
0.000206 4e-06 0.00277
0.001268 0.000711 0.002683
0.001207 0.000487 0.002655
0.00028 1e-06 0.002775
0.000305 1e-06 0.002775
0.000329 2e-06 0.002774
0.000354 2e-06 0.002773
0.001068 0.000501 0.002547
0.000615 0.000271 0.002905
0.000597 0.00067 0.002932
0.000669 0.000386 0.002752
0.000531 0.000338 0.002965
0.000644 0.000569 0.002836
0.00063 0.000691 0.002872
0.000551 3e-06 0.002771
0.000576 4e-06 0.00277
-0.001926 0.000652 0.002066
-0.000607 1e-06 0.002715
-0.000582 1e-06 0.002718
-0.000558 -1e-06 0.002717
-0.000533 -1e-06 0.002719
-0.000508 -1e-06 0.002721
-0.000484 -1e-06 0.002722
-0.000459 -2e-06 0.002724
-0.000434 -3e-06 0.002725
-0.001484 0.000687 0.002609
-0.001284 0.000558 0.00267
-0.00036 -4e-06 0.002726
-0.000979 0.000659 0.002411
-0.001576 0.000722 0.001975
-0.000287 -5e-06 0.002731
-0.000262 -5e-06 0.002731
-0.001802 0.000625 0.002009
-0.000212 1e-06 0.002715
-0.000188 1.5e-05 0.002686
-0.000139 6.2e-05 0.002585
-0.000114 7.6e-05 0.002555
-9e-05 8.4e-05 0.002539
-6.5e-05 8.7e-05 0.002532
-4e-05 8.9e-05 0.002528
-1.6e-05 8.9e-05 0.002528
9e-06 8.8e-05 0.00253
3.4e-05 8.5e-05 0.002536
5.8e-05 8e-05 0.002547
8.3e-05 7.1e-05 0.002567
0.000107 5.5e-05 0.002601
0.000157 6e-06 0.002706
0.000181 -2e-06 0.002724
0.000206 -6e-06 0.002732
0.000787 0.000552 0.0024
0.000506 0.000285 0.00297
0.00028 -6e-06 0.002732
0.000305 -5e-06 0.002731
0.000329 -3e-06 0.00273
0.000658 0.000448 0.002799
0.001032 0.000521 0.002514
0.000599 0.000259 0.002938
0.000428 -3e-06 0.002726
0.000452 -2e-06 0.002725
0.000477 -2e-06 0.002723
0.000502 -1e-06 0.002723
0.000526 -1e-06 0.00272
0.000551 0.0 0.002719
0.000576 0.0 0.002719
0.000677 0.000381 0.002698
0.000889 0.000459 0.002394
-0.000708 0.000533 0.002712
-0.000631 -6e-06 0.002673
-0.000607 -7e-06 0.002675
-0.000758 0.0007 0.002445
-0.000558 -7e-06 0.002675
-0.000533 -7e-06 0.002675
-0.000508 -7e-06 0.002675
-0.000484 -7e-06 0.002675
-0.000459 -7e-06 0.002678
-0.000946 0.000702 0.002386
-0.000918 0.000709 0.002377
-0.00036 -5e-06 0.002672
-0.000336 -5e-06 0.002672
-0.002034 0.000668 0.0021
-0.001623 0.000745 0.001957
-0.001539 0.000664 0.002284
-0.000736 0.000603 0.002547
-0.000139 3.5e-05 0.002585
-0.000114 5e-05 0.002554
-9e-05 5.7e-05 0.002539
-6.5e-05 6e-05 0.002531
-4e-05 6.2e-05 0.002527
-1.6e-05 6.2e-05 0.002528
9e-06 6.1e-05 0.00253
3.4e-05 5.8e-05 0.002536
5.8e-05 5.3e-05 0.002547
8.3e-05 4.4e-05 0.002566
0.000108 2.8e-05 0.0026
0.000157 -4e-06 0.002669
0.000181 -5e-06 0.002672
0.000668 0.000495 0.002751
0.000658 0.000475 0.002799
0.000629 0.000447 0.00287
0.000615 0.000434 0.002905
0.000428 -7e-06 0.002676
0.000452 -8e-06 0.002678
0.000477 -7e-06 0.002677
0.000502 -6e-06 0.002676
0.000526 -5e-06 0.002673
0.000551 -6e-06 0.002674
0.000576 -6e-06 0.002675
0.000678 0.000624 0.002701
0.000669 0.000359 0.002752
-0.000743 0.000631 0.002482
-0.000743 0.000686 0.002481
-0.000558 -4e-06 0.002612
-0.000533 -4e-06 0.002611
-0.000508 -2e-06 0.002606
-0.000484 -4e-06 0.002611
-0.000696 0.000568 0.002759
-0.000361 -3e-06 0.002608
-0.000336 -2e-06 0.002607
-0.001488 0.000656 0.002616
-0.00082 0.000688 0.002393
-0.000726 0.000607 0.0026
-0.000163 -0.0 0.002603
-0.000139 9e-06 0.002583
-0.000114 2.2e-05 0.002554
-9e-05 3e-05 0.002539
-6.5e-05 3.4e-05 0.002531
-4e-05 3.5e-05 0.002527
-1.6e-05 3.5e-05 0.002527
9e-06 3.4e-05 0.002529
3.4e-05 3.1e-05 0.002535
5.8e-05 2.6e-05 0.002546
8.3e-05 1.7e-05 0.002566
0.000108 3e-06 0.002597
0.000132 -3e-06 0.002609
0.000157 -2e-06 0.002607
0.000181 -0.0 0.002604
-0.000758 0.000645 0.002446
0.000231 -2e-06 0.002604
0.000255 -1e-06 0.002604
0.000555 0.000227 0.002961
0.000685 0.00035 0.002643
-0.000777 0.000653 0.002422
0.00063 0.000257 0.002871
0.001273 0.000268 0.0027
0.000428 -2e-06 0.002608
0.000452 -3e-06 0.002609
0.000477 -4e-06 0.002612
0.000502 -4e-06 0.002613
0.000526 -5e-06 0.002613
0.000551 -5e-06 0.002615
0.000576 -5e-06 0.002614
0.000685 0.000648 0.002644
0.001032 0.000384 0.002515
-0.000798 0.000658 0.002406
-0.00082 0.000661 0.002393
-0.001315 0.000492 0.002686
-0.00149 0.000573 0.002619
-0.000558 -0.0 0.002543
-0.000533 -1e-06 0.002545
-0.000484 -2e-06 0.002547
-0.000434 1e-06 0.002543
-0.00041 1e-06 0.00254
-0.000707 0.000588 0.002711
-0.000361 2e-06 0.002541
-0.000336 2e-06 0.002539
-0.000311 2e-06 0.002539
-0.000502 0.000497 0.002974
-0.000237 3e-06 0.002537
-0.000213 3e-06 0.002537
-0.000188 3e-06 0.002538
-0.000163 2e-06 0.002539
-0.000139 3e-06 0.002538
-0.000114 2e-06 0.002539
-9e-05 5e-06 0.002533
-6.5e-05 8e-06 0.002527
-4e-05 1e-05 0.002523
-1.6e-05 1e-05 0.002524
9e-06 9e-06 0.002526
3.4e-05 7e-06 0.00253
0.000132 3e-06 0.002538
0.000157 3e-06 0.002538
0.000181 2e-06 0.00254
0.000231 4e-06 0.002535
0.000255 4e-06 0.002536
0.00028 3e-06 0.002538
-0.000843 0.000662 0.002384
0.000599 0.000286 0.002938
0.000403 0.0 0.002543
0.000428 1e-06 0.002542
0.000452 -0.0 0.002545
0.000477 -0.0 0.002545
0.000502 -0.0 0.002546
0.000526 1e-06 0.002543
0.000551 -0.0 0.002546
0.000576 -1e-06 0.002546
0.0007 0.000698 0.002529
0.001207 0.000379 0.002655
-0.000867 0.000662 0.002377
-0.000607 3e-06 0.002476
-0.000582 3e-06 0.002478
-0.000558 2e-06 0.002481
-0.000535 2e-06 0.002479
-0.001192 0.000595 0.002614
-0.000434 2e-06 0.00248
-0.00041 2e-06 0.002481
-0.000385 2e-06 0.002479
-0.000361 2e-06 0.002481
-0.000336 1e-06 0.002482
-0.000311 1e-06 0.002483
-0.000526 0.000496 0.00297
-0.001192 0.000567 0.002614
-0.000237 -0.0 0.002485
-0.000213 0.0 0.002485
-0.000188 0.0 0.002485
-0.000163 -0.0 0.002486
-0.000139 -1e-06 0.002487
-9e-05 -2e-06 0.00249
-6.5e-05 -2e-06 0.00249
-4e-05 -1e-06 0.002489
-1.6e-05 -2e-06 0.00249
9e-06 -2e-06 0.00249
3.4e-05 -2e-06 0.002491
5.8e-05 -2e-06 0.00249
8.3e-05 -1e-06 0.002488
0.000107 -1e-06 0.002489
0.000132 -1e-06 0.002489
0.000157 -1e-06 0.002488
0.001273 0.000376 0.002701
0.000206 -1e-06 0.002487
0.000231 -0.0 0.002487
0.000255 0.0 0.002486
0.00028 0.0 0.002485
0.001303 0.000368 0.002711
0.000889 0.000568 0.002393
0.000811 0.000579 0.002393
0.00143 0.000714 0.002625
0.000403 2e-06 0.002482
0.000428 2e-06 0.002481
-0.000892 0.00066 0.002374
0.000526 3e-06 0.002481
0.000551 2e-06 0.002482
0.001295 0.000705 0.002688
-0.000743 0.000713 0.002482
-0.000758 0.000727 0.002446
-0.000607 0.0 0.002426
-0.000582 -1e-06 0.002428
-0.001366 0.000622 0.002683
-0.000657 0.00065 0.00289
-0.001052 0.000617 0.002483
-0.000918 0.000655 0.002377
-0.000867 0.000689 0.002377
-0.001254 0.000624 0.002652
-0.000654 0.00071 0.002879
-0.000573 0.00066 0.002954
-0.001411 0.000654 0.00266
-0.000728 0.000714 0.002605
-0.000477 0.000526 0.002977
-0.000477 0.000499 0.002978
-0.001223 0.000555 0.002634
-0.001382 0.000717 0.002648
-0.000213 -1.1e-05 0.00245
-0.000188 -1.1e-05 0.002452
-0.000163 -1.2e-05 0.002452
-0.000683 0.000576 0.002805
-0.000696 0.000595 0.002759
-9e-05 -1.3e-05 0.002455
-6.5e-05 -1.2e-05 0.002454
-4e-05 -1.3e-05 0.002455
-1.6e-05 -1.3e-05 0.002455
3.4e-05 -1.3e-05 0.002456
5.8e-05 -1.3e-05 0.002456
8.3e-05 -1.3e-05 0.002456
0.000107 -1.3e-05 0.002455
0.000132 -1.2e-05 0.002454
0.000157 -1.1e-05 0.002454
0.00124 0.000445 0.002679
0.001349 0.000423 0.002693
0.000231 -1.1e-05 0.002451
0.000255 -1.1e-05 0.002451
0.00028 -1.1e-05 0.002451
0.000305 -9e-06 0.002448
0.000329 -8e-06 0.002446
0.000354 -8e-06 0.002445
0.000378 -7e-06 0.002443
0.000403 -7e-06 0.002442
0.00141 0.000708 0.002643
0.000709 0.000556 0.002476
0.000861 0.000601 0.002389
0.000836 0.000604 0.002389
0.000629 0.000719 0.00287
0.000612 0.000709 0.002899
0.000765 0.000659 0.002411
0.001139 0.000329 0.002605
0.000668 0.000304 0.002751
-0.000737 0.000684 0.002547
-0.000777 0.000735 0.002423
-0.001335 0.000717 0.002663
-0.001405 0.000718 0.002641
-0.000642 0.000499 0.002928
-0.001285 0.000531 0.00267
-0.001158 0.000557 0.002585
-0.000843 0.000689 0.002384
-0.000434 -1.3e-05 0.0024
-0.001284 0.000612 0.002671
-0.000671 0.000504 0.002849
-0.000657 0.000487 0.00289
-0.000526 0.000469 0.00297
-0.000502 0.00047 0.002974
-0.000867 0.000716 0.002378
-0.001052 0.000671 0.002484
-0.000707 0.000615 0.002711
-0.001536 0.00074 0.002233
-0.000708 0.00056 0.002712
-0.000114 -1.3e-05 0.002397
-9e-05 -1.3e-05 0.002397
-6.5e-05 -1.3e-05 0.002397
-4e-05 -1.3e-05 0.002397
-1.6e-05 -1.3e-05 0.002397
-0.000946 0.000647 0.002386
5.8e-05 -1.3e-05 0.002398
8.3e-05 -1.3e-05 0.002397
0.000107 -1.3e-05 0.002397
0.000132 -1.4e-05 0.0024
0.000157 -1.3e-05 0.002397
0.000956 0.000483 0.002439
-0.000979 0.000631 0.002411
0.000305 -1.4e-05 0.002399
0.000329 -1.4e-05 0.0024
0.000354 -1.3e-05 0.002397
0.000378 -1.3e-05 0.002399
0.000403 -1.4e-05 0.0024
0.000428 -1.4e-05 0.002402
0.0007 0.000534 0.002529
0.000919 0.000558 0.002406
0.000811 0.000606 0.002393
0.001303 0.000395 0.002711
0.000765 0.000605 0.002411
0.000744 0.000602 0.002425
0.000788 0.000606 0.0024
0.001104 0.000346 0.002578
-0.001016 0.00061 0.002449
-0.001051 0.00059 0.002483
-0.001557 0.000578 0.002494
-0.001087 0.000597 0.002517
-0.001087 0.000571 0.002516
-0.000435 -1.2e-05 0.002335
-0.00041 -1.1e-05 0.002335
-0.000385 -1.2e-05 0.002335
-0.000336 -1.1e-05 0.002335
-0.001359 0.000717 0.002656
-0.001124 0.000576 0.002554
-0.000262 -1e-05 0.002332
-0.00092 0.000732 0.002385
-0.000946 0.000729 0.002386
-0.000114 -9e-06 0.002331
-9e-05 -9e-06 0.00233
-6.5e-05 -9e-06 0.002328
-0.001124 0.000549 0.002555
8.3e-05 -8e-06 0.002327
0.000107 -8e-06 0.002329
0.000132 -9e-06 0.00233
0.000157 -9e-06 0.002331
0.000181 -9e-06 0.002332
0.000536 -3.3e-05 0.002023
0.000512 -3.3e-05 0.002029
0.000489 -3.2e-05 0.002036
0.000579 0.000227 0.002955
0.000329 -1.1e-05 0.002335
0.000354 -1.2e-05 0.002336
0.000378 -1.1e-05 0.002336
0.000403 -1.2e-05 0.002337
0.000428 -1.2e-05 0.002337
0.000862 0.000519 0.002389
0.001068 0.000446 0.002547
0.001326 0.000394 0.002704
-0.001158 0.00053 0.002585
-0.001192 0.000513 0.002614
0.000465 -3.2e-05 0.002043
0.000441 -3.2e-05 0.00205
-0.000582 -9e-06 0.002271
-0.001223 0.0005 0.002633
-0.000435 -6e-06 0.002265
-0.00041 -7e-06 0.002266
-0.000385 -7e-06 0.002268
-0.000336 -5e-06 0.002262
-0.000311 -6e-06 0.002265
-0.000287 -6e-06 0.002264
-0.000262 -6e-06 0.002265
-0.000213 -5e-06 0.002264
-0.000188 -6e-06 0.002264
-0.001254 0.000488 0.002652
-0.000867 0.000742 0.002379
-0.000892 0.00074 0.002376
9e-06 -5e-06 0.002263
3.4e-05 -5e-06 0.002262
5.8e-05 -5e-06 0.002264
8.3e-05 -5e-06 0.002264
0.000107 -5e-06 0.002262
0.000132 -5e-06 0.002263
0.000157 -6e-06 0.002265
0.000418 -3.1e-05 0.002056
0.000394 -3.1e-05 0.002063
0.00037 -3e-05 0.002068
0.000693 0.000374 0.002586
0.001138 0.000439 0.002604
0.001173 0.000422 0.00263
0.000482 0.000286 0.002975
0.000428 -7e-06 0.002268
0.000744 0.00052 0.002424
0.000765 0.000523 0.00241
0.000615 0.000543 0.002905
0.0006 0.000531 0.002938
0.001139 0.000465 0.002605
-0.001284 0.000477 0.002669
-0.001315 0.000465 0.002686
0.000346 -2.9e-05 0.002075
-0.000582 -5e-06 0.002205
-0.000558 -6e-06 0.002206
-0.000508 -5e-06 0.002205
-0.000484 -4e-06 0.002201
-0.000459 -4e-06 0.002202
-0.000435 -4e-06 0.002203
-0.001223 0.000527 0.002634
-0.000335 -4e-06 0.002201
-0.000311 -5e-06 0.002204
-0.000287 -4e-06 0.002203
-0.000262 -4e-06 0.002203
-0.000237 -4e-06 0.002203
-0.000213 -4e-06 0.002202
-0.000188 -3e-06 0.002201
-0.000718 0.000609 0.002659
-0.000642 0.000526 0.002928
-0.000622 0.000521 0.002947
-0.000737 0.000629 0.002548
-1.6e-05 -4e-06 0.002202
9e-06 -5e-06 0.002205
3.4e-05 -4e-06 0.002204
5.8e-05 -4e-06 0.002203
8.3e-05 -5e-06 0.002204
0.000107 -5e-06 0.002205
0.000132 -4e-06 0.002204
0.000157 -4e-06 0.002202
0.000181 -3e-06 0.002201
0.000644 0.000434 0.002836
0.000995 0.000513 0.002481
0.000836 0.000577 0.002389
0.000861 0.000573 0.002389
0.000378 -3e-06 0.002201
0.000403 -4e-06 0.002203
0.000428 -3e-06 0.002201
0.000452 -3e-06 0.002202
0.000477 -5e-06 0.002205
0.000502 -5e-06 0.002206
0.001349 0.000396 0.002693
0.000579 0.000526 0.002956
0.001104 0.000482 0.002577
0.000427 0.000706 0.002965
0.000625 -5e-06 0.002206
-0.000582 -4e-06 0.002144
-0.000558 -4e-06 0.002143
-0.001558 0.000504 0.002543
-0.000508 -6e-06 0.002147
-0.000484 -5e-06 0.002146
-0.000459 -6e-06 0.002148
-0.000435 -7e-06 0.002148
-0.001381 0.000577 0.002678
-0.001254 0.000515 0.002652
-0.001285 0.000503 0.00267
-0.000598 0.000603 0.002953
-0.001283 0.000725 0.00266
-0.000287 -8e-06 0.002153
-0.000262 -9e-06 0.002155
-0.000237 -1e-05 0.002156
-0.000213 -1e-05 0.002156
-0.000188 -1e-05 0.002157
-0.000164 -1.1e-05 0.002158
-0.000594 0.000691 0.002939
-0.000622 0.000603 0.002944
-0.000979 0.000686 0.002411
-0.001309 0.00072 0.002663
-4e-05 -1.2e-05 0.00216
-1.6e-05 -1.1e-05 0.002159
9e-06 -1.1e-05 0.002159
3.3e-05 -1.1e-05 0.002159
5.8e-05 -1.1e-05 0.002158
8.3e-05 -1e-05 0.002157
0.000107 -1e-05 0.002158
0.000132 -1e-05 0.002157
0.000157 -1e-05 0.002157
0.000181 -1e-05 0.002157
0.000629 0.00042 0.00287
0.001273 0.000431 0.0027
0.001326 0.000422 0.002704
0.001303 0.000422 0.002711
0.000531 0.000527 0.002968
0.000374 0.000715 0.002963
0.000354 -7e-06 0.002151
0.000378 -6e-06 0.002149
0.000403 -5e-06 0.002147
0.000428 -5e-06 0.002147
0.000452 -5e-06 0.002146
0.000477 -4e-06 0.002144
0.000502 -3e-06 0.002144
0.000526 -2e-06 0.002142
0.000551 -3e-06 0.002143
0.000575 -4e-06 0.002146
0.0006 -4e-06 0.002145
0.000625 -4e-06 0.002145
-0.000798 0.000739 0.002407
-0.000821 0.000741 0.002395
-0.000728 0.000659 0.002605
-0.001426 0.00052 0.002655
-0.000571 0.000691 0.002947
-0.00134 0.000682 0.002678
-0.001285 0.000694 0.00267
-0.001255 0.000705 0.002652
-0.000597 0.00066 0.002948
-0.000684 0.000685 0.002805
-0.000599 0.000493 0.002956
-0.000574 0.000603 0.002959
-0.001254 0.000678 0.002654
-0.000311 -1.7e-05 0.002113
-0.000287 -1.8e-05 0.002116
-0.000262 -1.9e-05 0.002117
-0.000237 -1.9e-05 0.002119
-0.000213 -2e-05 0.002119
-0.000188 -2e-05 0.00212
-0.000164 -2e-05 0.002121
-0.000139 -2.1e-05 0.002121
-0.000114 -2.1e-05 0.002122
-9e-05 -2.1e-05 0.002122
-6.5e-05 -2.1e-05 0.002122
-4e-05 -2.1e-05 0.002123
-1.6e-05 -2.1e-05 0.002124
9e-06 -2.2e-05 0.002124
3.3e-05 -2.2e-05 0.002124
5.8e-05 -2.1e-05 0.002124
8.3e-05 -2.1e-05 0.002124
0.000107 -2.1e-05 0.002123
0.000132 -2.1e-05 0.002123
0.000157 -2.1e-05 0.002122
0.000181 -2e-05 0.002121
0.000206 -2e-05 0.00212
0.000231 -1.9e-05 0.002119
0.000255 -1.9e-05 0.002118
0.00028 -1.8e-05 0.002117
0.000304 -1.8e-05 0.002116
0.000402 0.000709 0.002968
0.000354 -1.6e-05 0.002112
0.000378 -1.6e-05 0.002111
0.000403 -1.5e-05 0.00211
0.000428 -1.4e-05 0.002107
0.000452 -1.3e-05 0.002105
0.000477 -1.2e-05 0.002103
0.001371 0.000588 0.002682
0.001326 0.000585 0.002704
0.000551 -9e-06 0.002098
0.000575 -8e-06 0.002095
0.0006 -6e-06 0.002092
0.000625 -7e-06 0.002093
-0.001527 0.000658 0.002586
-0.000843 0.000743 0.002385
-0.001446 0.000656 0.002642
-0.000744 0.000658 0.002483
-0.001425 0.000603 0.002654
-0.001158 0.000612 0.002584
-0.001123 0.000631 0.002553
-0.000978 0.000715 0.002407
-0.001552 0.000563 0.002396
-0.000622 0.000466 0.002947
-0.000671 0.000531 0.002849
-0.000622 0.000493 0.002947
-0.001358 0.000606 0.002687
-0.000736 0.000657 0.002547
-0.000798 0.000712 0.002406
-0.001254 0.000543 0.002652
-0.000262 -3e-05 0.002084
-0.000237 -3.1e-05 0.002085
-0.000213 -3.2e-05 0.002088
-0.000188 -3.2e-05 0.002088
-0.000164 -3.3e-05 0.00209
-0.000139 -3.3e-05 0.00209
-0.000114 -3.3e-05 0.002091
-9e-05 -3.3e-05 0.002091
-6.5e-05 -3.4e-05 0.002091
-4e-05 -3.4e-05 0.002092
-1.6e-05 -3.4e-05 0.002091
9e-06 -3.4e-05 0.002091
3.3e-05 -3.3e-05 0.002091
5.8e-05 -3.3e-05 0.002091
8.3e-05 -3.3e-05 0.002091
0.000107 -3.3e-05 0.002089
0.000132 -3.3e-05 0.002089
0.000157 -3.2e-05 0.002088
0.000181 -3.2e-05 0.002087
0.000206 -3.1e-05 0.002086
0.000231 -3.1e-05 0.002085
0.000255 -3e-05 0.002084
0.00028 -3e-05 0.002083
0.000304 -2.9e-05 0.002082
0.001068 0.000366 0.002546
0.000744 0.000465 0.002425
0.000507 0.000257 0.002971
0.000644 0.000297 0.002836
0.000836 0.000495 0.002389
0.000956 0.000456 0.002439
0.000658 0.000366 0.0028
0.001303 0.000314 0.00271
0.000579 0.000281 0.002955
0.000677 0.000408 0.002699
0.000811 0.000524 0.002394
0.000919 0.000503 0.002406
0.00124 0.000364 0.002679
-0.002067 0.000656 0.002107
-0.001509 0.000656 0.002602
-0.001315 0.000438 0.002686
-0.001284 0.00045 0.002669
-0.001254 0.000461 0.002652
-0.001223 0.000473 0.002633
-0.001193 0.000485 0.002615
-0.001158 0.000504 0.002584
-0.001123 0.000522 0.002553
-0.001051 0.000564 0.002482
-0.001016 0.000583 0.002448
-0.000979 0.000605 0.002411
-0.000946 0.00062 0.002386
-0.000918 0.000628 0.002376
-0.000891 0.000632 0.002374
-0.000867 0.000635 0.002377
-0.000843 0.000635 0.002383
-0.00082 0.000633 0.002393
-0.000798 0.000631 0.002405
-0.000777 0.000626 0.002422
-0.000758 0.000618 0.002446
-0.000743 0.000603 0.002483
-0.000736 0.000576 0.002545
-0.000728 0.000551 0.002604
-0.000718 0.000528 0.002659
-0.000707 0.000506 0.002712
-0.000696 0.000486 0.002759
-0.000684 0.000467 0.002805
-0.000671 0.000449 0.002849
-0.000657 0.000432 0.002891
-0.000643 0.000417 0.002929
-0.000622 0.000412 0.002948
-0.000599 0.000411 0.002956
-0.000575 0.000412 0.00296
-0.00055 0.000414 0.002965
-0.000526 0.000415 0.002969
-0.000501 0.000416 0.002973
-0.000477 0.000418 0.002977
-0.001425 0.000548 0.002654
-0.00155 0.000548 0.002575
-0.002521 0.000575 0.001327
-0.001927 0.000679 0.002067
-0.001425 0.00063 0.002654
-0.001558 0.000685 0.002496
-0.001315 0.000411 0.002686
-0.001284 0.000422 0.002669
-0.001254 0.000434 0.002652
-0.001223 0.000446 0.002634
-0.001192 0.000459 0.002614
-0.001158 0.000476 0.002585
-0.001123 0.000495 0.002554
-0.001087 0.000515 0.002518
-0.001051 0.000536 0.002483
-0.001016 0.000556 0.002448
-0.000979 0.000578 0.00241
-0.000946 0.000593 0.002386
-0.000918 0.000601 0.002376
-0.000891 0.000605 0.002374
-0.000866 0.000607 0.002377
-0.000843 0.000607 0.002384
-0.00082 0.000606 0.002393
-0.000798 0.000604 0.002405
-0.000777 0.000599 0.002422
-0.000758 0.000591 0.002446
-0.000744 0.000576 0.002484
-0.000737 0.000547 0.002549
-0.000728 0.000523 0.002606
-0.000718 0.000501 0.002659
-0.000696 0.000458 0.00276
-0.000684 0.00044 0.002806
-0.00067 0.000422 0.002849
-0.000657 0.000406 0.00289
-0.000643 0.00039 0.002929
-0.000622 0.000384 0.002948
-0.000599 0.000384 0.002955
-0.000574 0.000386 0.002959
-0.00055 0.000387 0.002964
-0.000526 0.000388 0.002968
-0.000501 0.000389 0.002973
-0.000477 0.000391 0.002977
-0.002001 0.000597 0.002091
-0.001532 0.000545 0.002593
-0.001359 0.000578 0.002688
-0.002134 0.000677 0.001348
-0.002365 0.00074 0.001321
-0.002033 0.000723 0.002096
-0.001316 0.000383 0.002687
-0.001284 0.000395 0.002669
-0.001254 0.000407 0.002652
-0.001223 0.000419 0.002633
-0.001192 0.000432 0.002614
-0.001158 0.000449 0.002586
-0.001123 0.000468 0.002553
-0.001087 0.000488 0.002519
-0.001051 0.000509 0.002482
-0.001015 0.000529 0.002447
-0.000979 0.00055 0.00241
-0.000946 0.000566 0.002386
-0.000917 0.000574 0.002376
-0.000891 0.000578 0.002374
-0.000867 0.00058 0.002377
-0.000843 0.00058 0.002383
-0.00082 0.000579 0.002393
-0.000798 0.000577 0.002405
-0.000777 0.000572 0.002422
-0.000759 0.000563 0.002447
-0.000743 0.000549 0.002482
-0.000737 0.000521 0.002547
-0.000728 0.000496 0.002605
-0.000718 0.000473 0.00266
-0.000707 0.000452 0.002711
-0.000696 0.000431 0.00276
-0.000684 0.000413 0.002806
-0.000671 0.000395 0.002849
-0.000657 0.000378 0.00289
-0.000642 0.000363 0.002929
