0.002093 -3e-05 6.4e-05
0.002091 -3e-05 8.9e-05
0.002605 -3e-06 0.000201
0.002607 -2e-06 0.000176
0.002621 -3e-06 7.9e-05
0.002626 -4e-06 5.4e-05
0.002627 -3e-06 3e-05
0.002617 3e-06 4e-06
0.002485 7.3e-05 -0.000161
0.002488 7.4e-05 -0.000185
0.002495 7.2e-05 -0.000209
0.002505 6.8e-05 -0.000233
0.002524 6.1e-05 -0.000256
0.002554 4.8e-05 -0.000277
0.002598 2.8e-05 -0.000296
0.00264 1e-05 -0.000316
0.002677 0.000521 0.001373
0.002647 0.000531 0.001386
0.002694 0.000599 0.001059
0.002465 -4e-06 0.000879
0.00246 -0.0 0.000853
0.002435 1.3e-05 0.000825
0.002411 2.7e-05 0.000797
0.002398 3.4e-05 0.000771
0.002391 3.8e-05 0.000745
0.00239 4e-05 0.000721
0.002393 4e-05 0.000696
0.0024 3.8e-05 0.000672
0.002409 3.5e-05 0.000648
0.002422 3e-05 0.000625
0.002784 0.000743 0.000508
0.002762 0.00049 0.001195
0.002495 2e-06 0.000535
0.002498 2e-06 0.00051
0.002509 2e-06 0.000413
0.002511 3e-06 0.000388
0.002088 -3.1e-05 0.000114
0.002086 -3.1e-05 0.000138
0.002084 -3.2e-05 0.000163
0.002485 4.7e-05 -0.000161
0.002487 4.7e-05 -0.000185
0.002494 4.5e-05 -0.000209
0.002504 4.1e-05 -0.000233
0.002523 3.4e-05 -0.000256
0.002082 -3.2e-05 0.000187
0.002402 2e-06 0.000821
0.002401 3e-06 0.000796
0.002394 8e-06 0.000771
0.00239 1.1e-05 0.000745
0.00239 1.3e-05 0.000721
0.002393 1.3e-05 0.000696
0.0024 1.1e-05 0.000672
0.002408 8e-06 0.000648
0.00242 5e-06 0.000625
0.002433 1e-06 0.000602
0.001474 0.000456 0.002583
0.001223 0.00049 0.002705
0.002444 -1e-06 0.000529
0.002448 -2e-06 0.000504
0.000524 -2.2e-05 0.002064
0.002615 0.000649 0.000971
0.002543 0.0007 0.000565
0.002694 0.000544 0.001059
0.002702 0.000686 0.001303
0.002079 -3.2e-05 0.000212
0.002472 -3e-06 0.000334
0.002474 -3e-06 0.000309
0.002478 -3e-06 0.000285
0.002482 -4e-06 0.00026
0.002485 -4e-06 0.000236
0.002487 -4e-06 0.000211
0.002487 2e-05 -0.000185
0.002492 1.8e-05 -0.00021
0.002076 -3.2e-05 0.000236
0.002786 0.000688 0.000514
0.002347 -3e-06 0.000864
0.002351 -3e-06 0.00084
0.002358 -5e-06 0.000816
0.002363 -6e-06 0.000792
0.002367 -7e-06 0.000768
0.002371 -7e-06 0.000743
0.002375 -7e-06 0.000719
0.00238 -8e-06 0.000695
0.002384 -9e-06 0.00067
0.002389 -1e-05 0.000646
0.002394 -1.1e-05 0.000622
0.002398 -1.1e-05 0.000598
0.002184 0.000569 0.001815
0.002689 0.000688 0.001325
0.002675 0.00069 0.001346
0.002266 0.000725 0.001372
0.002787 0.000661 0.000514
0.002663 0.000619 0.001019
0.002594 0.000733 0.00056
0.002753 0.000544 0.001218
0.002743 0.000544 0.001241
0.002436 -1.4e-05 0.000329
0.00244 -1.4e-05 0.000305
0.002441 -1.3e-05 0.00028
0.002444 -1.3e-05 0.000256
0.002447 -1.2e-05 0.000231
0.00245 -1.3e-05 0.000207
0.002453 -1.3e-05 0.000182
0.002469 -9e-06 -1.4e-05
0.002472 -9e-06 -3.9e-05
0.002487 -1e-06 -0.00031
0.002487 0.0 -0.000334
0.002073 -3.2e-05 0.000261
0.00207 -3.2e-05 0.000285
0.00275 0.000701 0.00052
0.002311 -1.2e-05 0.00086
0.002314 -1.3e-05 0.000836
0.002319 -1.4e-05 0.000811
0.002321 -1.4e-05 0.000787
0.002325 -1.4e-05 0.000763
0.002328 -1.4e-05 0.000738
0.00233 -1.3e-05 0.000713
0.002332 -1.3e-05 0.000689
0.002336 -1.3e-05 0.000665
0.002339 -1.3e-05 0.00064
0.002342 -1.3e-05 0.000616
0.00197 0.00071 0.002143
0.002067 -3.2e-05 0.00031
0.002648 0.000476 0.001387
0.00275 0.000647 0.00052
0.002111 0.000736 0.001372
0.002762 0.000495 0.001168
0.002444 0.000736 0.000605
0.002373 -1.1e-05 0.000322
0.00238 -1.3e-05 0.000298
0.002382 -1.3e-05 0.000273
0.002391 -1.4e-05 0.000225
0.002393 -1.4e-05 0.0002
0.002394 -1.3e-05 0.000175
0.002422 -1.4e-05 -2e-05
0.002427 -1.5e-05 -4.4e-05
0.00243 -1.4e-05 -9.3e-05
0.002432 -1.3e-05 -0.000118
0.002448 -1e-05 -0.000314
0.002449 -9e-06 -0.000339
0.002064 -3.2e-05 0.000334
0.00269 0.000519 0.001352
0.002252 -1.3e-05 0.000853
0.002256 -1.3e-05 0.000829
0.002257 -1.2e-05 0.000804
0.002259 -1.2e-05 0.000779
0.002259 -1e-05 0.000755
0.002261 -1e-05 0.00073
0.002269 -1.1e-05 0.000681
0.002591 0.000717 0.00139
0.002722 0.000545 0.001285
0.002275 -9e-06 0.000608
0.002278 -9e-06 0.000583
0.002061 -3.2e-05 0.000358
0.002282 -9e-06 0.000534
0.002714 0.000685 0.001282
0.00229 -8e-06 0.000461
0.002047 0.000724 0.001586
0.002786 0.000634 0.000514
0.002463 0.00073 0.000585
0.002426 0.000739 0.000622
0.002762 0.000517 0.001195
0.002311 -8e-06 0.000289
0.002319 -7e-06 0.000216
0.002323 -8e-06 0.000192
0.002328 -9e-06 0.000167
0.0005 -2.2e-05 0.00207
0.002362 -1.1e-05 -7.7e-05
0.002364 -1e-05 -0.000101
0.00237 -1.1e-05 -0.000125
0.002394 -1.3e-05 -0.000296
0.002399 -1.4e-05 -0.00032
0.002402 -1.4e-05 -0.000345
0.002743 0.000564 0.001133
0.00203 0.000748 0.001498
0.002701 0.000519 0.00133
0.002187 -9e-06 0.000845
0.002189 -9e-06 0.000821
0.002188 -7e-06 0.000796
0.00219 -7e-06 0.000771
0.002194 -7e-06 0.000747
0.002197 -7e-06 0.000722
0.002207 -6e-06 0.000624
0.00221 -6e-06 0.0006
0.002218 -5e-06 0.000526
0.002221 -5e-06 0.000502
0.002224 -5e-06 0.000477
0.002226 -5e-06 0.000453
0.002057 -3.2e-05 0.000383
0.002054 -3.2e-05 0.000407
0.00205 -3.1e-05 0.000432
0.002243 -4e-06 0.000281
0.002248 -5e-06 0.000257
0.002259 -4e-06 0.000159
0.000476 -2.1e-05 0.002077
0.000452 -2.1e-05 0.002084
0.002046 -3.1e-05 0.000456
0.00229 -6e-06 -6.1e-05
0.002293 -6e-06 -8.5e-05
0.002297 -6e-06 -0.000109
0.002042 -3e-05 0.00048
0.002037 -2.9e-05 0.000504
0.002328 -9e-06 -0.000304
0.002332 -1e-05 -0.000328
0.00234 -1.2e-05 -0.000352
0.002761 0.00055 0.001168
0.002761 0.000545 0.001195
0.002118 -4e-06 0.000837
0.002123 -5e-06 0.000813
0.002125 -4e-06 0.000788
0.002127 -4e-06 0.000763
0.002128 -3e-06 0.000739
0.002132 -4e-06 0.000714
0.002135 -3e-06 0.00069
0.00269 0.000546 0.001352
0.002143 -3e-06 0.000616
0.002146 -3e-06 0.000592
0.002694 0.000572 0.001059
0.002712 0.000518 0.001307
0.002722 0.000518 0.001285
0.002164 -5e-06 0.00047
0.002168 -5e-06 0.000446
0.002171 -5e-06 0.000421
0.002719 0.000499 0.001096
0.002734 0.00049 0.001263
0.00264 0.000742 0.000553
0.002722 0.000463 0.001285
0.00219 -5e-06 0.000275
0.002192 -6e-06 0.00025
0.002227 -4e-06 -6.8e-05
0.00223 -4e-06 -9.3e-05
0.002235 -4e-06 -0.000117
0.002237 -4e-06 -0.000141
0.00224 -4e-06 -0.000166
0.002245 -4e-06 -0.00019
0.002267 -6e-06 -0.000336
0.002271 -7e-06 -0.000361
0.002714 0.000633 0.000531
0.002701 0.000719 0.001276
0.002057 -4e-06 0.000854
0.00206 -4e-06 0.00083
0.002064 -4e-06 0.000805
0.002068 -5e-06 0.000781
0.002072 -5e-06 0.000757
0.002077 -7e-06 0.000733
0.00208 -7e-06 0.000708
0.002083 -7e-06 0.000684
0.002087 -7e-06 0.000659
0.002676 0.000548 0.001373
0.002096 -8e-06 0.000611
0.0021 -8e-06 0.000586
0.002103 -9e-06 0.000562
0.002733 0.000626 0.001263
0.002183 0.000597 0.001814
0.00275 0.000674 0.00052
0.002215 0.000531 0.001904
0.002595 0.000661 0.001389
0.002125 -1.1e-05 0.000416
0.002742 0.000483 0.001133
0.002724 0.00049 0.001286
0.002713 0.00049 0.001308
0.00214 -1.2e-05 0.000318
0.002142 -1.2e-05 0.000294
0.002145 -1.1e-05 0.000269
0.002148 -1.2e-05 0.000245
0.00215 -1.3e-05 0.00022
0.002161 -1.1e-05 0.000122
0.002165 -1.1e-05 9.8e-05
0.002167 -1.1e-05 7.3e-05
0.002181 -8e-06 -9.9e-05
0.002183 -7e-06 -0.000123
0.002186 -7e-06 -0.000148
0.002188 -6e-06 -0.000172
0.002191 -6e-06 -0.000197
0.002192 -6e-06 -0.000221
0.002744 0.000489 0.001241
0.002204 0.000518 0.002055
0.002009 -9e-06 0.000848
0.002015 -1e-05 0.000824
0.002019 -1e-05 0.0008
0.002023 -1.1e-05 0.000776
0.002027 -1.1e-05 0.000751
0.002033 -1.3e-05 0.000727
0.002037 -1.3e-05 0.000703
0.002043 -1.4e-05 0.000679
0.002745 0.000689 0.001188
0.002697 0.000656 0.001328
0.002684 0.000658 0.001349
0.002721 0.000654 0.001285
0.002731 0.000654 0.001262
0.002068 -1.8e-05 0.000533
0.002072 -1.8e-05 0.000509
0.002076 -1.9e-05 0.000484
0.00208 -1.9e-05 0.00046
0.002084 -2e-05 0.000436
0.002086 -2e-05 0.000411
0.00209 -2e-05 0.000387
0.002095 -2.1e-05 0.000363
0.002097 -2.1e-05 0.000338
0.0021 -2e-05 0.000314
0.002104 -2.1e-05 0.000289
0.002107 -2.1e-05 0.000265
0.002109 -2.1e-05 0.00024
0.002112 -2.1e-05 0.000216
0.002115 -2.1e-05 0.000191
0.002119 -2.1e-05 0.000167
0.00212 -2e-05 0.000142
0.002122 -2e-05 0.000118
0.002126 -2e-05 9.3e-05
0.002128 -1.9e-05 6.9e-05
0.002129 -1.9e-05 4.4e-05
0.002131 -1.8e-05 1.9e-05
0.002133 -1.8e-05 -5e-06
0.002134 -1.7e-05 -3e-05
0.00214 -1.5e-05 -0.000103
0.002142 -1.5e-05 -0.000128
0.002143 -1.4e-05 -0.000153
0.002144 -1.3e-05 -0.000177
0.002146 -1.2e-05 -0.000202
0.002147 -1.2e-05 -0.000227
0.002754 0.000489 0.001218
0.002478 0.000617 0.001387
0.002555 0.00059 0.001386
0.002635 0.000717 0.000551
0.002646 0.000559 0.001386
0.002733 0.000544 0.001263
0.002657 0.000694 0.001365
0.002713 0.000715 0.000531
0.002187 0.000518 0.002073
0.002674 0.00073 0.000541
0.002023 0.000692 0.001522
0.002158 0.00073 0.001761
0.002034 0.000681 0.001553
0.002677 0.000439 0.001373
0.002442 0.000709 0.000603
0.002034 -2.9e-05 0.000529
0.002733 0.000435 0.001263
0.002743 0.000435 0.001241
0.002753 0.000435 0.001218
0.002762 0.000436 0.001195
0.002762 0.000441 0.001168
0.002742 0.000455 0.001133
0.002719 0.000472 0.001096
0.002694 0.00049 0.001059
0.002661 0.000511 0.001018
0.002404 0.000686 0.000667
0.002414 0.000687 0.000644
0.002426 0.000685 0.000623
0.002442 0.000682 0.000603
0.002463 0.000676 0.000585
0.002494 0.000665 0.000571
0.002635 0.000609 0.000551
0.002675 0.000593 0.000542
0.002713 0.000579 0.000531
0.002751 0.000565 0.000521
0.002788 0.000552 0.000514
0.002049 0.000642 0.001586
0.002035 0.000653 0.001554
0.002024 0.000664 0.001522
0.002024 0.00067 0.001495
0.002029 0.000672 0.001471
0.002037 0.000672 0.001448
0.00143 0.000715 0.002082
0.002231 0.000666 0.001981
0.002227 0.000659 0.00201
0.002135 0.000603 0.002125
0.002133 0.000723 0.001358
0.002203 0.000548 0.001863
0.002153 0.000574 0.002109
0.002648 0.000422 0.001385
0.002677 0.000412 0.001373
0.00269 0.000411 0.001352
0.0027 0.00041 0.001329
0.002711 0.000409 0.001307
0.002722 0.000409 0.001285
0.002732 0.000409 0.001262
0.002742 0.000409 0.00124
0.002752 0.000408 0.001218
0.002761 0.000409 0.001195
0.002762 0.000413 0.001168
0.002742 0.000428 0.001133
0.002718 0.000445 0.001096
0.002694 0.000463 0.001059
0.002404 0.000659 0.000667
0.002413 0.00066 0.000644
0.002425 0.000658 0.000622
0.002442 0.000655 0.000602
0.002464 0.000648 0.000585
0.002495 0.000638 0.000572
0.002543 0.000618 0.000565
0.002636 0.000581 0.000552
0.002675 0.000566 0.000541
0.002713 0.000552 0.000531
0.002751 0.000538 0.00052
0.002788 0.000524 0.000514
0.002049 0.000614 0.001587
0.002033 0.000627 0.001553
0.002024 0.000637 0.001522
0.002023 0.000643 0.001495
0.002029 0.000645 0.001471
0.002038 0.000645 0.001448
0.002222 0.000708 0.001942
0.002215 0.000656 0.002032
0.002225 0.000651 0.001945
0.002517 0.000658 0.001387
0.002164 0.000714 0.001351
0.002224 0.000462 0.001944
0.002234 0.000464 0.002015
0.001482 0.0005 0.002464
0.002677 0.000385 0.001373
0.002691 0.000383 0.001352
0.002702 0.000382 0.00133
0.002712 0.000382 0.001308
0.002723 0.000382 0.001285
0.002733 0.000381 0.001263
0.002743 0.000381 0.00124
0.002753 0.000381 0.001218
0.002761 0.000382 0.001195
0.002762 0.000386 0.001168
0.002743 0.000401 0.001133
0.002719 0.000418 0.001096
0.002693 0.000436 0.001058
0.00266 0.000458 0.001017
0.002614 0.000486 0.000971
0.002396 0.000631 0.00069
0.002404 0.000632 0.000667
0.002413 0.000633 0.000644
0.002425 0.000631 0.000622
0.002441 0.000628 0.000602
0.002463 0.000622 0.000585
0.002495 0.00061 0.000572
0.002543 0.000591 0.000565
0.002594 0.00057 0.00056
0.002636 0.000554 0.000552
0.002675 0.000539 0.000541
0.002714 0.000524 0.000531
0.002751 0.00051 0.00052
0.002788 0.000497 0.000514
0.002047 0.000588 0.001586
0.002033 0.0006 0.001553
0.002024 0.00061 0.001522
0.002023 0.000615 0.001495
0.002028 0.000618 0.00147
0.002037 0.000618 0.001448
0.002216 0.000694 0.001905
0.002397 0.000729 0.001384
0.002629 0.000619 0.001387
0.002171 0.000437 0.002091
0.002026 -2.9e-05 0.000558
0.002017 -2.9e-05 0.000581
0.001441 0.000668 0.002055
0.002677 0.000358 0.001373
0.00269 0.000356 0.001352
0.002701 0.000355 0.001329
0.002712 0.000355 0.001307
0.002722 0.000355 0.001285
0.002732 0.000354 0.001262
0.002742 0.000354 0.00124
0.002752 0.000354 0.001217
0.002761 0.000355 0.001194
0.002761 0.000359 0.001168
0.002742 0.000374 0.001133
0.002718 0.000391 0.001096
0.002694 0.000409 0.001058
0.00266 0.00043 0.001017
0.002613 0.000459 0.00097
0.002396 0.000604 0.00069
0.002404 0.000605 0.000666
0.002413 0.000605 0.000644
0.002425 0.000604 0.000622
0.002441 0.000601 0.000602
0.002463 0.000594 0.000585
0.002496 0.000583 0.000572
0.002543 0.000564 0.000565
0.002593 0.000543 0.00056
0.002635 0.000527 0.000551
0.002673 0.000513 0.000541
0.002714 0.000497 0.000531
0.002751 0.000483 0.00052
0.002788 0.00047 0.000514
0.002047 0.000561 0.001586
0.002033 0.000573 0.001553
0.002024 0.000583 0.001522
0.002023 0.000588 0.001495
0.002028 0.00059 0.00147
0.002037 0.000591 0.001447
0.002225 0.000678 0.001945
0.001014 0.000675 0.00254
0.00174 0.000563 0.002055
0.002555 0.000536 0.001386
0.001513 0.000728 0.001996
0.002008 -3e-05 0.000604
0.002224 0.000571 0.001944
0.002234 0.000555 0.001983
0.002119 0.00044 0.002144
0.002677 0.00033 0.001373
0.00269 0.000329 0.001352
0.002701 0.000328 0.001329
0.002712 0.000328 0.001307
0.002722 0.000327 0.001285
0.002732 0.000327 0.001263
0.002743 0.000327 0.00124
0.002752 0.000327 0.001218
0.002761 0.000327 0.001194
0.002762 0.000332 0.001168
0.002741 0.000348 0.001132
0.002718 0.000364 0.001096
0.002693 0.000381 0.001058
0.002659 0.000404 0.001017
0.002613 0.000432 0.00097
0.002396 0.000577 0.00069
0.002404 0.000578 0.000666
0.002412 0.000578 0.000643
0.002425 0.000577 0.000622
0.002441 0.000573 0.000602
0.002463 0.000567 0.000585
0.002496 0.000555 0.000572
0.002545 0.000536 0.000566
0.002594 0.000516 0.00056
0.002635 0.0005 0.000551
0.002674 0.000485 0.000541
0.002714 0.000469 0.000531
0.002752 0.000456 0.000521
0.002047 0.000534 0.001585
0.002032 0.000546 0.001553
0.002024 0.000555 0.001522
0.002023 0.000561 0.001495
0.002028 0.000563 0.00147
0.002037 0.000564 0.001447
0.002194 0.000687 0.002047
0.002135 0.00063 0.002126
0.001467 0.000607 0.002618
0.001223 0.000517 0.002705
0.002593 0.000522 0.001386
0.001491 0.000733 0.00201
0.00147 0.000736 0.002025
0.001453 0.000439 0.002641
0.001328 0.000556 0.002708
0.002648 0.000313 0.001386
0.002678 0.000303 0.001373
0.00269 0.000302 0.001351
0.0027 0.000301 0.001329
0.002711 0.000301 0.001307
0.002722 0.0003 0.001285
0.002732 0.0003 0.001262
0.002742 0.0003 0.00124
0.002752 0.0003 0.001217
0.002761 0.0003 0.001194
0.00276 0.000306 0.001167
0.002742 0.00032 0.001133
0.002718 0.000337 0.001096
0.002694 0.000354 0.001058
0.002 -3e-05 0.000627
0.002403 0.000551 0.000666
0.002412 0.000551 0.000643
0.002425 0.00055 0.000622
0.002441 0.000546 0.000602
0.002463 0.00054 0.000585
0.002496 0.000528 0.000572
0.002544 0.000509 0.000566
0.002594 0.000489 0.00056
0.002636 0.000472 0.000551
0.002674 0.000458 0.000541
0.002714 0.000442 0.000531
0.002751 0.000429 0.00052
0.002048 0.000506 0.001586
0.002033 0.000518 0.001553
0.002024 0.000528 0.001522
0.002023 0.000534 0.001495
0.002028 0.000536 0.00147
0.002037 0.000536 0.001447
0.00205 0.000534 0.001426
0.002183 0.000705 0.001814
0.002215 0.000613 0.001904
0.001459 0.00065 0.0023
0.001432 0.000576 0.002653
0.00148 0.000484 0.002505
0.002221 0.00049 0.002037
0.002597 0.000307 0.001389
0.002649 0.000285 0.001387
0.002677 0.000276 0.001373
0.00269 0.000275 0.001351
0.002701 0.000274 0.001329
0.002712 0.000273 0.001307
0.002722 0.000273 0.001285
0.002732 0.000273 0.001262
0.002743 0.000273 0.00124
0.002753 0.000273 0.001217
0.002761 0.000273 0.001194
0.002761 0.000278 0.001168
0.00274 0.000294 0.001132
0.002718 0.00031 0.001096
0.002693 0.000327 0.001058
0.002659 0.000349 0.001017
0.002613 0.000378 0.00097
0.002404 0.000524 0.000666
0.002412 0.000524 0.000644
0.002424 0.000523 0.000622
0.002441 0.000519 0.000602
0.002464 0.000513 0.000585
0.002497 0.000501 0.000572
0.002544 0.000482 0.000566
0.002594 0.000461 0.00056
0.002636 0.000445 0.000552
0.002675 0.00043 0.000541
0.002714 0.000415 0.000531
0.002751 0.000402 0.00052
0.002789 0.000389 0.000514
0.002047 0.00048 0.001586
0.002033 0.000491 0.001553
0.002024 0.000501 0.001522
0.002023 0.000507 0.001495
0.002028 0.000509 0.00147
0.002038 0.000509 0.001448
0.001474 0.000646 0.002584
0.001782 0.000545 0.002073
0.001474 0.000619 0.002584
0.00149 0.000705 0.002009
0.001481 0.000701 0.002507
0.001991 -3.1e-05 0.00065
0.002224 0.000543 0.001944
0.002596 0.00028 0.001388
0.002649 0.000258 0.001387
0.002677 0.000249 0.001373
0.00269 0.000248 0.001351
0.002701 0.000247 0.001329
0.002711 0.000247 0.001307
0.002722 0.000246 0.001285
0.002732 0.000246 0.001262
0.002742 0.000246 0.00124
0.002752 0.000245 0.001217
0.002761 0.000246 0.001194
0.002761 0.000251 0.001167
0.002742 0.000266 0.001132
0.002718 0.000283 0.001095
0.002694 0.0003 0.001058
0.002659 0.000322 0.001017
0.002612 0.000351 0.00097
0.002404 0.000496 0.000666
0.002413 0.000497 0.000644
0.002425 0.000495 0.000622
0.002441 0.000492 0.000602
0.002464 0.000485 0.000585
0.002497 0.000473 0.000572
0.002544 0.000455 0.000566
0.002594 0.000434 0.00056
0.002636 0.000418 0.000551
0.002675 0.000403 0.000541
0.002716 0.000387 0.000532
0.002751 0.000374 0.00052
0.002786 0.000361 0.000509
0.002048 0.000452 0.001586
0.002032 0.000465 0.001552
0.002023 0.000474 0.001522
0.002023 0.000479 0.001495
0.002028 0.000482 0.00147
0.002037 0.000482 0.001448
0.001482 0.000689 0.002465
0.002593 0.000658 0.001388
0.002042 0.000719 0.00215
0.002108 0.000674 0.00137
0.002119 0.000494 0.002144
0.001982 -3.1e-05 0.000673
0.002188 0.000436 0.002073
0.002118 0.000576 0.002143
0.002649 0.000231 0.001387
0.002677 0.000222 0.001373
0.00269 0.00022 0.001352
0.002702 0.000219 0.00133
0.002712 0.000219 0.001307
0.002723 0.000219 0.001285
0.002733 0.000218 0.001263
0.002743 0.000218 0.00124
0.002753 0.000218 0.001218
0.002761 0.000219 0.001194
0.00276 0.000224 0.001167
0.002742 0.000238 0.001132
0.002718 0.000255 0.001095
0.002694 0.000272 0.001058
0.002404 0.000469 0.000666
0.002413 0.00047 0.000644
0.002425 0.000468 0.000622
0.002442 0.000465 0.000602
0.002464 0.000458 0.000585
0.002497 0.000446 0.000572
0.002544 0.000428 0.000565
0.002594 0.000407 0.00056
0.002636 0.000391 0.000551
0.002674 0.000376 0.000541
0.002717 0.00036 0.000532
0.002751 0.000347 0.00052
0.002787 0.000334 0.000509
0.002048 0.000424 0.001586
0.002032 0.000438 0.001552
0.002024 0.000447 0.001522
0.002023 0.000452 0.001495
0.002028 0.000454 0.00147
0.002038 0.000455 0.001448
0.002051 0.000453 0.001426
0.00222 0.000599 0.002036
0.002233 0.000574 0.002014
0.002188 0.000545 0.002073
0.002518 0.000576 0.001387
0.002137 0.000493 0.002126
0.000662 0.000746 0.002492
0.002312 0.00068 0.001378
0.002648 0.000204 0.001386
0.002676 0.000195 0.001372
0.00269 0.000193 0.001352
0.002702 0.000192 0.00133
0.002712 0.000192 0.001307
0.002723 0.000191 0.001285
0.002733 0.000191 0.001263
0.002743 0.000191 0.00124
0.002753 0.000191 0.001218
0.002761 0.000192 0.001194
0.00276 0.000197 0.001167
0.002742 0.000211 0.001132
0.002718 0.000228 0.001095
0.002693 0.000246 0.001058
0.002659 0.000268 0.001017
0.002404 0.000442 0.000666
0.002413 0.000442 0.000644
0.002425 0.000441 0.000622
0.002441 0.000438 0.000602
0.002464 0.000431 0.000585
0.002496 0.00042 0.000572
0.002545 0.0004 0.000566
0.002594 0.00038 0.00056
0.002636 0.000363 0.000551
0.002676 0.000348 0.000542
0.002716 0.000333 0.000532
0.002751 0.00032 0.00052
0.002787 0.000307 0.000509
0.002048 0.000397 0.001586
0.002033 0.00041 0.001552
0.002024 0.00042 0.001522
0.002023 0.000425 0.001495
0.002028 0.000427 0.00147
0.002037 0.000427 0.001447
0.00205 0.000426 0.001426
0.00205 0.000685 0.002162
0.002517 0.000685 0.001387
0.002153 0.000547 0.002109
0.002479 0.00059 0.001387
0.002224 0.000516 0.001943
0.002233 0.000502 0.001982
0.001294 0.000669 0.002714
0.002647 0.000178 0.001386
0.002675 0.000169 0.001372
0.00269 0.000166 0.001351
0.002702 0.000165 0.00133
0.002712 0.000164 0.001307
0.002723 0.000164 0.001285
0.002733 0.000164 0.001263
0.002743 0.000164 0.00124
0.002752 0.000164 0.001217
0.002759 0.000165 0.001193
0.002759 0.00017 0.001167
0.002741 0.000184 0.001132
0.002718 0.000201 0.001096
0.002692 0.000219 0.001058
0.00266 0.00024 0.001017
0.001973 -3.2e-05 0.000696
0.002403 0.000415 0.000666
0.002412 0.000415 0.000643
0.002425 0.000414 0.000622
0.002442 0.00041 0.000602
0.002465 0.000403 0.000585
0.002496 0.000392 0.000572
0.002545 0.000372 0.000566
0.002594 0.000353 0.00056
0.002636 0.000336 0.000551
0.002676 0.000321 0.000542
0.002715 0.000306 0.000532
0.002751 0.000293 0.00052
0.002787 0.00028 0.000509
0.002051 0.00037 0.001584
0.002031 0.000384 0.001552
0.002023 0.000393 0.001522
0.002023 0.000398 0.001495
0.002028 0.0004 0.00147
0.002037 0.0004 0.001447
0.002051 0.000398 0.001426
0.002517 0.000739 0.001387
0.002183 0.000678 0.001814
0.002119 0.000549 0.002144
0.00198 0.000682 0.002146
0.002221 0.000463 0.002037
0.002205 0.000463 0.002055
0.002265 0.000671 0.001371
0.002647 0.000151 0.001386
0.002673 0.000143 0.001371
0.002687 0.00014 0.00135
0.0027 0.000139 0.001329
0.002712 0.000138 0.001307
0.002722 0.000137 0.001285
0.002733 0.000137 0.001262
0.002742 0.000137 0.00124
0.00275 0.000138 0.001216
0.002757 0.000139 0.001192
0.002758 0.000144 0.001166
0.00274 0.000158 0.001132
0.002717 0.000174 0.001095
0.002693 0.000192 0.001058
0.002658 0.000214 0.001016
0.001964 -3.2e-05 0.000719
0.002403 0.000388 0.000666
0.002412 0.000388 0.000643
0.002425 0.000386 0.000622
0.002442 0.000383 0.000602
0.002465 0.000376 0.000585
0.002497 0.000365 0.000572
0.002545 0.000345 0.000566
0.002594 0.000325 0.00056
0.002636 0.000309 0.000552
0.002676 0.000294 0.000542
0.002715 0.000279 0.000532
0.002751 0.000266 0.00052
0.002789 0.000253 0.000515
0.002047 0.000344 0.001585
0.002032 0.000356 0.001552
0.002023 0.000366 0.001522
0.002023 0.000371 0.001495
0.002028 0.000373 0.00147
0.002037 0.000373 0.001447
0.00205 0.000371 0.001426
0.002204 0.00071 0.001863
0.002155 0.000704 0.001759
0.002136 0.000548 0.002126
0.002183 0.000624 0.001814
0.00203 0.000673 0.001465
0.001955 -3.2e-05 0.000742
0.002313 0.000652 0.001378
0.002646 0.000124 0.001385
0.002669 0.000117 0.001369
0.002683 0.000115 0.001349
0.002697 0.000113 0.001327
0.002708 0.000112 0.001306
0.002719 0.000111 0.001284
0.002729 0.000111 0.001261
0.002739 0.000111 0.001238
0.002747 0.000112 0.001215
0.002753 0.000114 0.001191
0.002755 0.000118 0.001165
0.002739 0.000131 0.001131
0.002717 0.000147 0.001095
0.002693 0.000165 0.001058
0.002657 0.000187 0.001016
0.002403 0.000361 0.000666
0.002412 0.000361 0.000643
0.002425 0.000359 0.000622
0.002442 0.000356 0.000602
0.002465 0.000349 0.000585
0.002497 0.000338 0.000572
0.002547 0.000317 0.000567
0.002594 0.000298 0.00056
0.002636 0.000282 0.000551
0.002677 0.000266 0.000542
0.002714 0.000252 0.000531
0.002752 0.000238 0.000521
0.00279 0.000225 0.000515
0.002048 0.000316 0.001586
0.002031 0.000329 0.001552
0.002023 0.000339 0.001522
0.002023 0.000344 0.001495
0.002028 0.000346 0.00147
0.002037 0.000346 0.001447
0.00205 0.000344 0.001426
0.002169 0.000656 0.00209
0.002129 0.00073 0.001706
0.002204 0.000545 0.002055
0.002136 0.000521 0.002126
0.001946 -3.3e-05 0.000765
0.002593 0.000604 0.001386
0.002641 9.9e-05 0.001383
0.002662 9.4e-05 0.001366
0.002677 9.1e-05 0.001346
0.00269 8.9e-05 0.001325
0.002702 8.8e-05 0.001303
0.002713 8.7e-05 0.001281
0.002723 8.7e-05 0.001258
0.002732 8.8e-05 0.001235
0.00274 8.9e-05 0.001212
0.002746 9e-05 0.001188
0.00275 9.3e-05 0.001163
0.00274 0.000104 0.001131
0.002717 0.00012 0.001095
0.002692 0.000137 0.001058
0.002657 0.00016 0.001016
0.002609 0.00019 0.000968
0.002404 0.000333 0.000666
0.002413 0.000334 0.000644
0.002426 0.000332 0.000622
0.002442 0.000328 0.000603
0.002465 0.000322 0.000585
0.002497 0.000311 0.000572
0.002547 0.00029 0.000567
0.002595 0.000271 0.00056
0.002636 0.000255 0.000551
0.002675 0.00024 0.000541
0.002714 0.000225 0.000531
0.002753 0.000211 0.000521
0.00279 0.000197 0.000515
0.002046 0.00029 0.001585
0.00203 0.000303 0.001551
0.002023 0.000311 0.001521
0.002023 0.000316 0.001495
0.002028 0.000319 0.00147
0.002037 0.000319 0.001447
0.002208 0.000688 0.002026
0.002203 0.000684 0.001863
0.002092 0.000734 0.001644
0.002221 0.000544 0.002036
0.001447 0.000677 0.002239
0.001482 0.000473 0.002464
0.00222 0.000743 0.001366
0.002215 0.000585 0.001904
0.002634 7.6e-05 0.00138
0.002653 7.1e-05 0.001362
0.002668 6.8e-05 0.001342
0.002681 6.7e-05 0.001321
0.002693 6.6e-05 0.001299
0.002704 6.5e-05 0.001277
0.002714 6.5e-05 0.001254
0.002723 6.5e-05 0.001231
0.002731 6.6e-05 0.001208
0.002738 6.8e-05 0.001184
0.002742 7e-05 0.001159
0.002737 7.8e-05 0.00113
0.002717 9.3e-05 0.001095
0.002692 0.00011 0.001058
0.002659 0.000132 0.001016
0.002608 0.000163 0.000968
0.00255 0.000196 0.000919
0.002404 0.000306 0.000666
0.002413 0.000306 0.000644
0.002426 0.000305 0.000622
0.002442 0.000301 0.000603
0.002466 0.000294 0.000586
0.002497 0.000283 0.000572
0.002546 0.000263 0.000567
0.002594 0.000244 0.00056
0.002637 0.000227 0.000552
0.002676 0.000212 0.000542
0.002714 0.000198 0.000531
0.002752 0.000184 0.000521
0.002789 0.00017 0.000512
0.002046 0.000262 0.001585
0.002031 0.000275 0.001552
0.002023 0.000284 0.001521
0.002023 0.000289 0.001494
0.002028 0.000292 0.00147
0.002037 0.000292 0.001447
0.002151 0.000656 0.002107
0.002438 0.000714 0.001386
0.002555 0.000644 0.001387
0.001426 0.00062 0.002119
0.002163 0.00066 0.001351
0.001739 0.000726 0.002054
0.001693 0.000584 0.002031
0.002203 0.000629 0.001862
0.002623 5.4e-05 0.001376
0.002642 5e-05 0.001357
0.002656 4.7e-05 0.001337
0.002668 4.6e-05 0.001315
0.00268 4.5e-05 0.001294
0.002691 4.4e-05 0.001271
0.002701 4.4e-05 0.001249
0.00271 4.4e-05 0.001226
0.002718 4.5e-05 0.001203
0.002726 4.6e-05 0.001179
0.002731 4.9e-05 0.001154
0.002731 5.4e-05 0.001128
0.002717 6.6e-05 0.001095
0.002692 8.3e-05 0.001057
0.002607 0.000136 0.000968
0.002551 0.000169 0.00092
0.002404 0.000279 0.000666
0.002413 0.000279 0.000644
0.002426 0.000278 0.000622
0.002442 0.000274 0.000603
0.002465 0.000267 0.000585
0.002497 0.000256 0.000572
0.002546 0.000236 0.000566
0.002596 0.000216 0.000561
0.002636 0.000201 0.000551
0.002675 0.000186 0.000541
0.002715 0.00017 0.000531
0.002752 0.000157 0.00052
0.002789 0.000143 0.000512
0.002043 0.000237 0.001584
0.002031 0.000248 0.001552
0.002022 0.000257 0.001521
0.002023 0.000262 0.001494
0.002028 0.000264 0.00147
0.002037 0.000265 0.001447
0.001481 0.000673 0.002508
0.002555 0.000671 0.001388
0.002478 0.000672 0.001387
0.002203 0.000521 0.001862
0.001937 -3.3e-05 0.000788
0.001927 -3.3e-05 0.00081
0.002517 0.00063 0.001387
0.002215 0.00064 0.001904
0.002187 0.000627 0.002073
0.002609 3.4e-05 0.00137
0.002626 3e-05 0.001351
0.00264 2.8e-05 0.00133
0.002653 2.7e-05 0.001308
0.002664 2.6e-05 0.001287
0.002675 2.5e-05 0.001264
0.002685 2.5e-05 0.001242
0.002694 2.5e-05 0.001219
0.002703 2.6e-05 0.001196
0.00271 2.7e-05 0.001172
0.002716 2.9e-05 0.001148
0.002717 3.3e-05 0.001122
0.002712 4.1e-05 0.001093
0.002691 5.6e-05 0.001057
0.002404 0.000252 0.000666
0.002413 0.000252 0.000644
0.002426 0.00025 0.000622
0.002443 0.000247 0.000603
0.002466 0.00024 0.000586
0.002498 0.000229 0.000572
0.002546 0.000209 0.000566
0.002596 0.000189 0.000561
0.002636 0.000173 0.000551
0.002676 0.000158 0.000541
0.002714 0.000143 0.000531
0.002753 0.000129 0.000521
0.002788 0.000116 0.000512
0.002042 0.00021 0.001583
0.00203 0.000221 0.001551
0.002022 0.00023 0.001521
0.002022 0.000235 0.001494
0.002028 0.000237 0.00147
0.002037 0.000237 0.001447
0.00205 0.000236 0.001426
0.002153 0.000628 0.002108
0.002136 0.000575 0.002126
0.002593 0.000631 0.001386
0.002184 0.000542 0.001814
0.001917 -3.3e-05 0.000833
0.002593 0.00055 0.001385
0.002233 0.000637 0.001983
0.00257 2.3e-05 0.001379
0.002591 1.7e-05 0.001362
0.002606 1.3e-05 0.001342
0.002619 1.2e-05 0.001321
0.002631 1e-05 0.001299
0.002642 1e-05 0.001277
0.002653 9e-06 0.001255
0.002662 1e-05 0.001232
0.002671 1e-05 0.001209
0.00268 1.1e-05 0.001186
0.002688 1.1e-05 0.001163
0.002695 1.3e-05 0.001139
0.002699 1.6e-05 0.001114
0.002697 2.1e-05 0.001086
0.002683 3.4e-05 0.001053
0.002656 5.2e-05 0.001015
0.002404 0.000225 0.000666
0.002413 0.000225 0.000644
0.002426 0.000223 0.000622
0.002443 0.00022 0.000603
0.002465 0.000213 0.000586
0.002498 0.000201 0.000573
0.002547 0.000182 0.000566
0.002595 0.000162 0.00056
0.002636 0.000146 0.000551
0.002676 0.000131 0.000541
0.002715 0.000116 0.000531
0.002753 0.000102 0.000521
0.002789 8.9e-05 0.000515
0.002042 0.000183 0.001583
0.002028 0.000195 0.001551
0.002022 0.000203 0.001521
0.002022 0.000208 0.001494
0.002028 0.00021 0.00147
0.002037 0.00021 0.001447
0.00205 0.000208 0.001426
0.001863 0.000593 0.002105
0.002226 0.000624 0.001945
0.002314 0.000733 0.001379
0.002214 0.000478 0.001903
0.002024 0.000694 0.001492
0.002203 0.000656 0.001863
0.002546 8e-06 0.001369
0.002563 3e-06 0.00135
0.002576 1e-06 0.001329
0.002587 1e-06 0.001307
0.002608 -0.0 0.001263
0.002618 -0.0 0.00124
0.002629 -1e-06 0.001218
0.002639 -1e-06 0.001195
0.002646 1e-06 0.001171
0.002655 1e-06 0.001149
0.002664 1e-06 0.001126
0.002671 3e-06 0.001102
0.002673 6e-06 0.001076
0.002669 1.4e-05 0.001047
0.00265 2.8e-05 0.001013
0.001907 -3.3e-05 0.000855
0.002397 0.000196 0.00069
0.002404 0.000197 0.000666
0.002413 0.000198 0.000644
0.002426 0.000196 0.000623
0.002443 0.000192 0.000603
0.002465 0.000186 0.000586
0.002498 0.000174 0.000572
0.002547 0.000154 0.000566
0.002595 0.000135 0.000561
0.002635 0.000119 0.000551
0.002676 0.000103 0.000542
0.002715 8.9e-05 0.000531
0.002752 7.5e-05 0.00052
0.002789 6.2e-05 0.000515
0.002042 0.000156 0.001583
0.002029 0.000168 0.001551
0.002022 0.000176 0.001521
0.002023 0.000181 0.001494
0.002028 0.000183 0.00147
0.002037 0.000183 0.001447
0.00205 0.000181 0.001426
0.002183 0.000732 0.001814
0.002232 0.000601 0.002014
0.002225 0.000597 0.001944
0.002031 0.000726 0.001467
0.002164 0.000687 0.001351
0.002171 0.000546 0.002091
0.002187 0.0006 0.002072
0.002053 0.000628 0.002166
0.00222 0.000572 0.002036
0.002224 0.000489 0.001944
0.002055 0.000732 0.001421
0.001433 0.000493 0.002655
0.002555 -0.0 0.00124
0.002565 -0.0 0.001217
0.002573 0.0 0.001194
0.002583 0.0 0.001171
0.002591 1e-06 0.001148
0.002603 0.0 0.001126
0.002611 1e-06 0.001103
0.002629 2e-06 0.001057
0.002636 3e-06 0.001033
0.002632 1e-05 0.001005
0.002397 0.000169 0.00069
0.002404 0.00017 0.000666
0.002413 0.00017 0.000643
0.002426 0.000169 0.000622
0.002443 0.000165 0.000603
0.002465 0.000159 0.000586
0.002498 0.000147 0.000572
0.002547 0.000127 0.000567
0.002595 0.000108 0.00056
0.002637 9.1e-05 0.000552
0.002676 7.7e-05 0.000541
0.002715 6.1e-05 0.000531
0.002751 4.8e-05 0.00052
0.002787 3.4e-05 0.000513
0.002041 0.000129 0.001583
0.002029 0.00014 0.001551
0.002022 0.000149 0.001521
0.002023 0.000154 0.001494
0.002028 0.000156 0.00147
0.002037 0.000156 0.001447
0.00205 0.000154 0.001426
0.002171 0.000627 0.002091
0.002478 0.000699 0.001387
0.002123 0.000706 0.001701
0.002041 0.000731 0.001442
0.002211 0.000667 0.001359
0.002438 0.000686 0.001386
0.002479 0.000726 0.001387
0.001476 0.000715 0.002544
0.001599 0.000628 0.001981
0.002234 0.000582 0.001983
0.002266 0.000698 0.001371
0.001256 0.000232 0.002725
0.002501 0.0 0.001217
0.00251 0.0 0.001194
0.00252 -0.0 0.001171
0.00253 -0.0 0.001149
0.002539 0.0 0.001126
0.002549 0.0 0.001103
0.002568 0.0 0.001058
0.002578 0.0 0.001035
0.002588 0.0 0.001013
0.002596 1e-06 0.000989
0.002396 0.000142 0.00069
0.002404 0.000143 0.000666
0.002413 0.000143 0.000643
0.002425 0.000142 0.000622
0.002441 0.000139 0.000602
0.002465 0.000132 0.000585
0.002496 0.000121 0.000572
0.002546 0.0001 0.000566
0.002594 8.1e-05 0.00056
0.002637 6.4e-05 0.000551
0.002676 4.9e-05 0.000542
0.002715 3.4e-05 0.000532
0.002748 2.2e-05 0.00052
0.002039 0.000103 0.001582
0.002028 0.000113 0.00155
0.002022 0.000121 0.001521
0.002022 0.000127 0.001494
0.002028 0.000129 0.00147
0.002037 0.000129 0.001447
0.002028 0.000684 0.002162
0.002234 0.00061 0.001983
0.002355 0.000717 0.001381
0.002137 0.000439 0.002126
0.002133 0.000669 0.001358
0.002373 1e-06 0.001374
0.002391 -5e-06 0.001357
0.002401 -5e-06 0.001335
0.002412 -6e-06 0.001313
0.002154 0.000492 0.002109
0.002211 0.000722 0.001358
0.001898 -3.3e-05 0.000878
0.001887 -3.3e-05 0.0009
0.002469 -6e-06 0.001176
0.00248 -7e-06 0.001154
0.00249 -7e-06 0.001132
0.0025 -7e-06 0.001109
0.002538 -7e-06 0.001018
0.002547 -6e-06 0.000995
0.002556 -6e-06 0.000972
0.002396 0.000115 0.00069
0.002403 0.000116 0.000666
0.002413 0.000116 0.000643
0.002425 0.000115 0.000622
0.002442 0.000111 0.000602
0.002464 0.000105 0.000585
0.002496 9.3e-05 0.000572
0.002594 5.4e-05 0.00056
0.002638 3.6e-05 0.000552
0.002678 2.1e-05 0.000542
0.002709 1e-05 0.000529
0.002039 7.6e-05 0.001582
0.002027 8.7e-05 0.00155
0.002022 9.5e-05 0.001521
0.002022 9.9e-05 0.001494
0.002028 0.000102 0.00147
0.002037 0.000102 0.001447
0.001471 0.000732 0.002361
0.002593 0.000685 0.001389
0.002398 0.000701 0.001384
0.002398 0.000674 0.001385
0.002306 0.0 0.001374
0.002325 -5e-06 0.001356
0.002337 -6e-06 0.001334
0.002346 -6e-06 0.001311
0.002355 -5e-06 0.001288
0.002205 0.000436 0.002055
0.002392 -4e-06 0.001197
0.002403 -5e-06 0.001175
0.002413 -5e-06 0.001152
0.002434 -6e-06 0.001108
0.002442 -5e-06 0.001084
0.002481 -5e-06 0.000994
0.002491 -5e-06 0.000971
0.002501 -5e-06 0.000949
0.00251 -4e-06 0.000926
0.002396 8.8e-05 0.000689
0.002403 8.9e-05 0.000666
0.002412 8.9e-05 0.000643
0.002425 8.8e-05 0.000622
0.002441 8.4e-05 0.000602
0.002464 7.8e-05 0.000585
0.002496 6.6e-05 0.000572
0.002547 4.5e-05 0.000567
0.002596 2.6e-05 0.000561
0.002638 9e-06 0.000552
0.002664 0.0 0.000537
0.002041 4.8e-05 0.001583
0.002027 6e-05 0.00155
0.002021 6.8e-05 0.001521
0.002022 7.2e-05 0.001494
0.002028 7.4e-05 0.00147
0.002037 7.5e-05 0.001447
0.002215 0.000721 0.001904
0.000977 0.000587 0.002505
0.002182 0.000652 0.001813
0.002031 0.0007 0.001465
0.002235 4e-06 0.001371
0.002255 -2e-06 0.001353
0.002269 -3e-06 0.001332
0.002276 -2e-06 0.001308
0.002285 -2e-06 0.001285
0.002108 0.000701 0.00137
0.002132 0.000696 0.001358
0.001877 -3.2e-05 0.000923
0.001867 -3.2e-05 0.000945
0.002333 -1e-06 0.001171
0.002341 -1e-06 0.001148
0.002352 -1e-06 0.001126
0.002362 -1e-06 0.001104
0.002371 -1e-06 0.001081
0.002382 -2e-06 0.001059
0.001857 -3.2e-05 0.000968
0.001846 -3.1e-05 0.00099
0.00242 -1e-06 0.000968
0.00243 -1e-06 0.000945
0.002441 -2e-06 0.000923
0.002452 -2e-06 0.000901
0.002464 -4e-06 0.000879
0.002395 6.1e-05 0.000689
0.002403 6.2e-05 0.000666
0.002412 6.2e-05 0.000643
0.002424 6.1e-05 0.000621
0.00244 5.8e-05 0.000601
0.002464 5.1e-05 0.000585
0.002496 3.9e-05 0.000571
0.002547 1.8e-05 0.000567
0.002589 2e-06 0.000558
0.002608 -3e-06 0.000539
0.002041 2.1e-05 0.001583
0.002027 3.3e-05 0.00155
0.002021 4e-05 0.001521
0.002022 4.5e-05 0.001494
0.002027 4.8e-05 0.001469
0.002036 4.8e-05 0.001447
0.002049 4.6e-05 0.001425
0.001823 0.000609 0.00209
0.00217 0.000573 0.002091
0.002171 0.000491 0.002091
0.002145 1.7e-05 0.001354
0.002192 -1e-06 0.001352
0.001836 -3.1e-05 0.001012
0.001825 -3e-05 0.001034
0.001814 -3e-05 0.001056
0.002277 4e-06 0.001121
0.002289 3e-06 0.001099
0.002301 3e-06 0.001077
0.001803 -2.9e-05 0.001079
0.002165 0.000722 0.002054
0.002359 2e-06 0.000942
0.002371 2e-06 0.00092
0.002412 3.6e-05 0.000643
0.002425 3.4e-05 0.000622
0.002441 3.1e-05 0.000602
0.002464 2.4e-05 0.000584
0.002496 1.2e-05 0.000571
0.002533 -2e-06 0.000561
0.002119 0.000522 0.002144
0.002215 0.00073 0.001968
0.002205 0.000726 0.001992
0.002022 1.8e-05 0.001494
0.002027 2e-05 0.001469
0.002036 2.1e-05 0.001446
0.002049 1.9e-05 0.001425
0.002064 1.6e-05 0.001405
0.002082 1.2e-05 0.001385
0.002104 6e-06 0.001366
0.002127 -1e-06 0.001351
0.002139 -2e-06 0.00133
0.002146 -1e-06 0.001306
0.001424 0.000703 0.002117
0.002478 0.000645 0.001387
0.002313 0.000597 0.001379
0.002081 0.00065 0.002163
0.002233 0.000447 0.001982
0.002234 0.000437 0.002015
0.002355 0.000609 0.001381
0.001448 0.000622 0.00224
0.001448 0.000649 0.002239
0.002249 -3e-06 0.001082
0.002119 0.000467 0.002144
0.002268 -3e-06 0.001037
0.002279 -4e-06 0.001014
0.002288 -4e-06 0.000992
0.002298 -4e-06 0.000969
0.002308 -4e-06 0.000946
0.002316 -3e-06 0.000923
0.002327 -3e-06 0.000901
0.002337 -4e-06 0.000878
0.002437 5e-06 0.0006
0.002456 0.0 0.000581
0.002466 -0.0 0.000559
0.002212 0.000694 0.001359
0.002233 0.000519 0.002015
0.002204 0.000627 0.002054
0.001477 0.000711 0.002413
0.002029 -2e-06 0.001443
0.002041 -4e-06 0.001422
0.002054 -5e-06 0.0014
0.002066 -6e-06 0.001379
0.002078 -8e-06 0.001357
0.002089 -9e-06 0.001335
0.0021 -9e-06 0.001313
0.002111 -1e-05 0.001291
0.001517 0.000754 0.001991
0.002439 0.000659 0.001386
0.00221 0.000641 0.001357
0.001477 0.00052 0.002414
0.002188 0.000464 0.002073
0.002171 0.000464 0.002091
0.002313 0.000625 0.001378
0.002399 0.000592 0.001385
0.002206 -1.4e-05 0.00109
0.002215 -1.3e-05 0.001068
0.002225 -1.3e-05 0.001045
0.002235 -1.4e-05 0.001023
0.002246 -1.4e-05 0.001
0.002254 -1.4e-05 0.000977
0.002263 -1.3e-05 0.000954
0.002273 -1.3e-05 0.000932
0.002284 -1.4e-05 0.000909
0.002293 -1.4e-05 0.000887
0.002303 -1.3e-05 0.000864
0.00241 -9e-06 0.000588
0.002417 -8e-06 0.000564
0.002425 -6e-06 0.000541
0.002433 -6e-06 0.000518
0.002442 -5e-06 0.000495
0.002449 -4e-06 0.000471
0.002457 -3e-06 0.000448
0.002465 -2e-06 0.000424
0.002472 -1e-06 0.000401
0.002481 -0.0 0.000377
0.002518 0.000549 0.001387
0.002478 0.000563 0.001387
0.00207 0.000678 0.001402
0.002205 0.000572 0.002055
0.002555 0.000726 0.001386
0.001995 -1.3e-05 0.001429
0.002005 -1.3e-05 0.001406
0.002013 -1.2e-05 0.001383
0.002023 -1.2e-05 0.001361
0.002035 -1.4e-05 0.001339
0.002045 -1.3e-05 0.001316
0.001457 0.000644 0.002035
0.00207 0.000706 0.001402
0.002054 0.000705 0.001421
0.002154 0.000465 0.002109
0.002145 -1e-05 0.001064
0.002156 -1.1e-05 0.001042
0.002166 -1.1e-05 0.00102
0.002176 -1.1e-05 0.000997
0.002187 -1.1e-05 0.000975
0.002198 -1.2e-05 0.000953
0.002207 -1.2e-05 0.00093
0.002217 -1.2e-05 0.000908
0.002228 -1.3e-05 0.000886
0.002297 -1.3e-05 0.000728
0.002325 -1.3e-05 0.000659
0.002345 -1.3e-05 0.000614
0.002355 -1.3e-05 0.000592
0.002375 -1.3e-05 0.000546
0.002388 -1.5e-05 0.000525
0.002396 -1.4e-05 0.000502
0.002404 -1.3e-05 0.000479
0.002415 -1.4e-05 0.000456
0.002422 -1.2e-05 0.000433
0.002431 -1.2e-05 0.00041
0.002439 -1.1e-05 0.000386
0.002446 -1e-05 0.000363
0.002629 0.000537 0.001386
0.002439 0.000605 0.001386
0.002087 0.000677 0.001385
0.002234 0.000492 0.002015
0.002205 0.00049 0.002055
0.002629 0.000591 0.001386
0.001478 0.000493 0.002414
0.000977 0.000559 0.002506
0.001476 0.000701 0.002019
0.001474 0.000483 0.002583
0.002438 0.000632 0.001386
0.002057 -8e-06 0.001107
0.002066 -7e-06 0.001084
0.002076 -7e-06 0.001062
0.002088 -9e-06 0.00104
0.002097 -8e-06 0.001017
0.002105 -7e-06 0.000994
0.002115 -7e-06 0.000971
0.002127 -8e-06 0.000949
0.002135 -8e-06 0.000926
0.002144 -7e-06 0.000903
0.002156 -8e-06 0.000881
0.002164 -8e-06 0.000858
0.002215 0.000558 0.001904
0.002203 0.000575 0.001862
0.002224 -8e-06 0.000723
0.002237 -1e-05 0.000702
0.002254 -9e-06 0.000655
0.002269 -1.1e-05 0.000635
0.002296 -1e-05 0.000566
0.002307 -1.1e-05 0.000544
0.002317 -1.1e-05 0.000522
0.002338 -1.2e-05 0.000477
0.002348 -1.2e-05 0.000454
0.002359 -1.2e-05 0.000432
0.002368 -1.2e-05 0.000409
0.002379 -1.3e-05 0.000387
0.00239 -1.3e-05 0.000365
0.002401 -1.4e-05 0.000343
0.002153 0.00052 0.002108
0.00217 0.000519 0.002091
0.002593 0.000577 0.001385
0.00218 0.000686 0.002066
0.002163 0.000686 0.002085
0.002439 0.000577 0.001386
0.001475 0.000673 0.002584
0.002188 0.000491 0.002073
0.001516 0.000754 0.001999
0.002165 0.00074 0.001352
0.002555 0.000617 0.001386
0.001959 -5e-06 0.001172
0.001969 -5e-06 0.00115
0.00202 0.000716 0.002158
0.002203 0.000602 0.001862
0.002004 -3e-06 0.001058
0.002017 -4e-06 0.001036
0.002026 -4e-06 0.001013
0.002035 -4e-06 0.000991
0.002043 -3e-06 0.000967
0.002054 -4e-06 0.000945
0.002065 -4e-06 0.000923
0.002075 -4e-06 0.0009
0.002084 -4e-06 0.000877
0.002134 0.000749 0.001359
0.002041 0.000677 0.001441
0.002083 0.000621 0.002165
0.002041 0.000704 0.001441
0.002255 -7e-06 0.000495
0.002355 0.000636 0.001381
0.002296 -8e-06 0.000405
0.002309 -9e-06 0.000384
0.002319 -9e-06 0.000362
0.002329 -1e-05 0.000339
0.002339 -9e-06 0.000317
0.002181 0.000721 0.002036
0.002233 0.000546 0.002015
0.002215 0.000504 0.001904
0.002398 0.00062 0.001385
0.002555 0.000563 0.001386
0.001814 -3e-06 0.001351
0.001825 -3e-06 0.001329
0.001835 -4e-06 0.001307
0.001845 -4e-06 0.001284
0.001855 -4e-06 0.001262
0.002225 0.000697 0.001976
0.00222 0.00069 0.002004
0.001884 -4e-06 0.001194
0.001894 -4e-06 0.001171
0.001903 -4e-06 0.001148
0.001912 -3e-06 0.001125
0.001922 -3e-06 0.001103
0.002151 0.000721 0.002075
0.001599 0.000656 0.00198
0.002137 0.000466 0.002127
0.001963 -5e-06 0.001013
0.001973 -5e-06 0.000991
0.001984 -5e-06 0.000969
0.001994 -5e-06 0.000946
0.002003 -5e-06 0.000923
0.002014 -5e-06 0.000901
0.002023 -5e-06 0.000878
0.00212 -5e-06 0.000651
0.002129 -4e-06 0.000629
0.002156 -3e-06 0.00056
0.002165 -3e-06 0.000537
0.002176 -4e-06 0.000515
0.002224 -3e-06 0.000401
0.002235 -4e-06 0.000379
0.002246 -4e-06 0.000357
0.002256 -5e-06 0.000335
0.002266 -5e-06 0.000312
0.002275 -4e-06 0.000289
0.002194 0.000723 0.002015
0.001724 -4e-06 0.00142
0.001735 -5e-06 0.001398
0.001743 -4e-06 0.001375
0.00223 0.000629 0.002012
0.001764 -5e-06 0.00133
0.001775 -5e-06 0.001308
0.001786 -6e-06 0.001286
0.001797 -6e-06 0.001264
0.001807 -7e-06 0.001241
0.001817 -7e-06 0.001219
0.001829 -8e-06 0.001197
0.00184 -9e-06 0.001175
0.001851 -9e-06 0.001153
0.001861 -9e-06 0.00113
0.001872 -1e-05 0.001108
0.001881 -1e-05 0.001085
0.001891 -1e-05 0.001063
0.001902 -1.1e-05 0.001041
0.001913 -1.1e-05 0.001018
0.001923 -1.1e-05 0.000996
0.001932 -1.1e-05 0.000973
0.001942 -1.1e-05 0.000951
0.001953 -1.1e-05 0.000928
0.001963 -1.2e-05 0.000906
0.001973 -1.2e-05 0.000883
0.001983 -1.2e-05 0.000861
0.001992 -1.2e-05 0.000838
0.002001 -1.2e-05 0.000815
0.002011 -1.2e-05 0.000792
0.002057 -1.1e-05 0.000678
0.002066 -1e-05 0.000655
0.002076 -1e-05 0.000633
0.002085 -9e-06 0.00061
0.002094 -9e-06 0.000587
0.002112 -8e-06 0.000541
0.00212 -8e-06 0.000518
0.002129 -7e-06 0.000495
0.002139 -7e-06 0.000472
0.002164 -6e-06 0.000403
0.002175 -5e-06 0.00038
0.002182 -4e-06 0.000357
0.002191 -4e-06 0.000334
0.0022 -3e-06 0.000311
0.002208 -3e-06 0.000287
0.001468 0.000443 0.002619
0.001678 -8e-06 0.001401
0.001689 -9e-06 0.001378
0.002219 0.000627 0.002035
0.002216 0.000667 0.001905
0.001724 -1.1e-05 0.001313
0.001735 -1.2e-05 0.001291
0.001746 -1.3e-05 0.001269
0.001757 -1.4e-05 0.001247
0.001768 -1.4e-05 0.001225
0.00217 0.000601 0.00209
0.002204 0.000599 0.002054
0.001943 0.000723 0.002135
0.002153 0.000602 0.002108
0.001824 -1.8e-05 0.001114
0.001834 -1.8e-05 0.001092
0.001846 -1.9e-05 0.00107
0.001856 -1.9e-05 0.001048
0.001867 -2e-05 0.001026
0.001877 -2e-05 0.001003
0.001888 -2.1e-05 0.000981
0.001898 -2.1e-05 0.000959
0.001908 -2.1e-05 0.000936
0.001918 -2.1e-05 0.000914
0.001929 -2.1e-05 0.000891
0.001939 -2.2e-05 0.000869
0.001948 -2.2e-05 0.000846
0.001958 -2.2e-05 0.000824
0.001968 -2.2e-05 0.000801
0.001977 -2.1e-05 0.000778
0.001986 -2.1e-05 0.000755
0.001996 -2.1e-05 0.000733
0.002005 -2.1e-05 0.00071
0.002014 -2e-05 0.000686
0.002023 -2e-05 0.000664
0.002032 -2e-05 0.000641
0.00204 -1.9e-05 0.000617
0.002048 -1.8e-05 0.000594
0.002057 -1.8e-05 0.000571
0.002066 -1.7e-05 0.000548
0.002074 -1.7e-05 0.000525
0.002083 -1.6e-05 0.000502
0.002091 -1.5e-05 0.000479
0.0021 -1.5e-05 0.000455
0.002124 -1.2e-05 0.000385
0.002133 -1.2e-05 0.000362
0.002142 -1.1e-05 0.00034
0.00215 -1e-05 0.000316
0.002157 -9e-06 0.000292
0.002398 0.000647 0.001385
0.002355 0.000663 0.001381
0.002399 0.000565 0.001385
0.002439 0.00055 0.001386
0.002479 0.000535 0.001388
0.002517 0.000522 0.001387
0.002556 0.000508 0.001387
0.002593 0.000495 0.001388
0.002054 0.000546 0.002167
0.002017 0.000641 0.002157
0.001221 0.000711 0.002698
0.001513 0.000674 0.001996
0.001189 0.000641 0.002681
0.001863 0.000538 0.002105
0.001641 0.000638 0.001998
0.001425 0.000675 0.002118
0.001436 0.000649 0.002178
0.001477 0.000497 0.002544
0.001452 0.000575 0.00264
0.001268 0.000674 0.002718
0.002119 0.000413 0.002144
0.002137 0.000412 0.002126
0.002154 0.000411 0.002109
0.002171 0.00041 0.002091
0.002188 0.000409 0.002073
0.002205 0.000408 0.002055
0.002221 0.000408 0.002037
0.002234 0.00041 0.002015
0.002233 0.00042 0.001982
0.002224 0.000435 0.001944
0.002214 0.00045 0.001903
0.002202 0.000467 0.001861
0.002184 0.000487 0.001815
0.002091 0.000572 0.001642
0.002041 0.00065 0.001442
0.002054 0.000651 0.001421
0.00207 0.000651 0.001402
0.002087 0.00065 0.001384
0.002107 0.000648 0.001369
0.002132 0.000642 0.001358
0.002164 0.000632 0.001351
0.002211 0.000613 0.001358
0.002313 0.000571 0.001378
0.002355 0.000554 0.001381
0.002399 0.000538 0.001385
0.002439 0.000523 0.001387
0.00248 0.000508 0.001388
0.002517 0.000495 0.001387
0.002556 0.000481 0.001387
0.002593 0.000468 0.001388
0.00263 0.000455 0.001387
0.001943 0.000479 0.002135
0.00069 0.000665 0.002421
0.001448 0.00066 0.002634
0.001464 0.000664 0.002614
0.001467 0.00058 0.002618
0.001542 0.000697 0.001984
0.001477 0.000524 0.002545
0.001481 0.000619 0.002507
0.001478 0.000737 0.002415
0.002119 0.000386 0.002143
0.002136 0.000385 0.002126
0.002153 0.000384 0.002108
0.00217 0.000383 0.00209
0.002187 0.000383 0.002072
0.002204 0.000382 0.002054
0.002221 0.000381 0.002036
0.002234 0.000383 0.002015
0.002233 0.000393 0.001983
0.002224 0.000408 0.001943
0.002214 0.000423 0.001903
0.002202 0.00044 0.001861
0.002183 0.000461 0.001813
0.002126 0.000514 0.001703
0.002093 0.000544 0.001644
0.002041 0.000623 0.001441
0.002054 0.000624 0.001421
0.002069 0.000624 0.001401
0.002087 0.000623 0.001384
0.002107 0.00062 0.001369
0.002132 0.000614 0.001357
0.002164 0.000605 0.001352
0.002211 0.000586 0.001358
0.002266 0.000562 0.001372
0.002313 0.000543 0.001378
0.002355 0.000527 0.001381
0.002399 0.00051 0.001386
0.00244 0.000495 0.001387
0.00248 0.00048 0.001388
0.002517 0.000467 0.001387
0.002556 0.000453 0.001387
0.002594 0.00044 0.001387
0.002631 0.000428 0.001386
0.001432 0.000439 0.002654
0.001477 0.000629 0.002413
0.002017 0.000614 0.002156
0.001942 0.000643 0.002133
0.001518 0.000699 0.001993
0.001823 0.000582 0.00209
0.001474 0.00051 0.002584
0.001223 0.000599 0.002705
0.001189 0.000587 0.002681
0.002118 0.000359 0.002143
0.002135 0.000358 0.002125
0.002153 0.000357 0.002108
0.00217 0.000356 0.00209
0.002186 0.000356 0.002072
0.002204 0.000355 0.002054
0.002221 0.000354 0.002036
0.002234 0.000356 0.002015
0.002233 0.000366 0.001982
0.002225 0.00038 0.001944
0.002214 0.000396 0.001903
0.002203 0.000412 0.001862
0.002124 0.000488 0.001701
0.002092 0.000517 0.001643
0.00204 0.000596 0.001441
0.002054 0.000597 0.001421
0.002069 0.000597 0.001401
0.002087 0.000596 0.001384
0.002107 0.000593 0.001369
0.002132 0.000587 0.001357
0.002164 0.000578 0.001351
0.002211 0.000558 0.001359
0.002265 0.000536 0.001371
0.002313 0.000516 0.001379
0.002356 0.0005 0.001382
0.002399 0.000483 0.001386
0.00244 0.000468 0.001387
0.00248 0.000453 0.001388
0.002517 0.00044 0.001387
0.002556 0.000426 0.001387
0.002594 0.000413 0.001386
0.00263 0.000401 0.001384
0.002106 0.000428 0.002156
0.001474 0.000537 0.002584
0.00198 0.000628 0.002146
0.001477 0.000578 0.002545
0.001541 0.000724 0.001983
0.001476 0.000575 0.002413
0.001432 0.00074 0.002086
0.000607 0.000726 0.002801
0.002109 0.000714 0.002116
0.002118 0.000332 0.002143
0.002136 0.000331 0.002125
0.002153 0.00033 0.002108
0.00217 0.000329 0.00209
0.002187 0.000328 0.002072
0.002204 0.000327 0.002054
0.002221 0.000327 0.002036
0.002233 0.000329 0.002015
0.002233 0.000338 0.001982
0.002224 0.000353 0.001943
0.002214 0.000369 0.001903
0.002202 0.000385 0.001861
0.002182 0.000407 0.001813
0.002124 0.000461 0.001701
0.00209 0.000491 0.001642
0.00204 0.000569 0.001441
0.002054 0.00057 0.00142
0.002069 0.00057 0.001401
0.002087 0.000569 0.001384
0.002107 0.000566 0.001368
0.002132 0.00056 0.001357
0.002164 0.00055 0.001351
