-0.002482 0.000251 0.000532
-0.00246 0.000257 0.000549
-0.002445 0.00026 0.000569
-0.002434 0.00026 0.000591
-0.002426 0.000259 0.000614
-0.002986 0.000661 0.000306
-0.002943 0.00062 0.000399
-0.002995 0.000552 0.000258
-0.002714 0.000575 0.001013
-0.002 -2.7e-05 0.000634
-0.002547 0.000664 0.000838
-0.002715 0.000683 0.001013
-0.002728 5.1e-05 0.001027
-0.002739 4e-05 0.001058
-0.002738 3.5e-05 0.001085
-0.002732 3.3e-05 0.001109
-0.002725 3.1e-05 0.001133
-0.002716 3e-05 0.001156
-0.002707 3e-05 0.001179
-0.002697 2.9e-05 0.001202
-0.002687 2.9e-05 0.001224
-0.002675 3e-05 0.001246
-0.002663 3.1e-05 0.001268
-0.00265 3.2e-05 0.001289
-0.002635 3.5e-05 0.001309
-0.002616 3.9e-05 0.001327
-0.002585 5e-05 0.00134
-0.002543 6.6e-05 0.001348
-0.002009 -2.6e-05 0.000612
-0.002904 0.000718 0.000418
-0.002088 0.000252 0.001381
-0.002076 0.000253 0.001403
-0.002067 0.000253 0.001425
-0.002062 0.00025 0.00145
-0.002061 0.000245 0.001477
-0.002069 0.000235 0.001508
-0.002089 0.00022 0.001544
-0.00212 0.000199 0.001586
-0.002143 0.000182 0.001624
-0.00216 0.000168 0.001659
-0.002177 0.000153 0.001694
-0.002633 0.000168 0.000493
-0.002597 0.000181 0.000504
-0.002555 0.000197 0.000511
-0.002512 0.000214 0.000518
-0.002482 0.000224 0.000532
-0.00246 0.00023 0.000549
-0.002445 0.000233 0.000569
-0.002434 0.000233 0.000591
-0.002426 0.000232 0.000614
-0.002994 0.000664 0.000208
-0.002982 0.000605 0.000355
-0.002983 0.00055 0.000356
-0.002578 0.000702 0.000867
-0.002973 0.000445 0.000379
-0.002768 0.000641 0.000473
-0.002825 0.000616 0.000456
-0.002693 4.6e-05 0.000986
-0.002716 3e-05 0.001021
-0.00272 2.3e-05 0.001049
-0.002717 1.9e-05 0.001075
-0.00271 1.7e-05 0.001099
-0.002702 1.6e-05 0.001122
-0.002693 1.5e-05 0.001146
-0.002684 1.5e-05 0.001168
-0.002673 1.5e-05 0.001191
-0.002663 1.5e-05 0.001213
-0.002652 1.5e-05 0.001235
-0.002641 1.5e-05 0.001257
-0.002628 1.7e-05 0.001279
-0.002614 1.8e-05 0.001299
-0.002597 2.2e-05 0.001318
-0.002574 2.9e-05 0.001335
-0.002539 4.1e-05 0.001346
-0.002089 0.000225 0.001381
-0.002077 0.000226 0.001403
-0.002068 0.000225 0.001426
-0.002062 0.000223 0.00145
-0.002062 0.000217 0.001477
-0.002069 0.000209 0.001508
-0.002089 0.000193 0.001544
-0.00212 0.000172 0.001586
-0.002142 0.000155 0.001623
-0.002161 0.00014 0.001659
-0.002181 0.000126 0.001693
-0.002634 0.00014 0.000494
-0.002597 0.000154 0.000503
-0.002555 0.00017 0.000511
-0.002512 0.000187 0.000518
-0.002481 0.000197 0.000531
-0.00246 0.000203 0.000549
-0.002445 0.000205 0.000569
-0.002434 0.000206 0.000591
-0.002425 0.000205 0.000614
-0.002993 0.000661 0.000257
-0.002987 0.000604 0.000331
-0.00299 0.00055 0.000307
-0.002577 0.000675 0.000867
-0.002504 0.000753 -0.000165
-0.002988 0.000523 0.000331
-0.002868 0.000706 0.000438
-0.002693 1.5e-05 0.00101
-0.002691 1e-05 0.001036
-0.002684 9e-06 0.00106
-0.002674 8e-06 0.001083
-0.002665 7e-06 0.001106
-0.002655 8e-06 0.001128
-0.002645 8e-06 0.00115
-0.002634 7e-06 0.001173
-0.002624 8e-06 0.001195
-0.002613 8e-06 0.001217
-0.002603 8e-06 0.00124
-0.002592 8e-06 0.001261
-0.002581 9e-06 0.001284
-0.002568 1e-05 0.001305
-0.002551 1.3e-05 0.001324
-0.002524 2.4e-05 0.001334
-0.002089 0.000198 0.001381
-0.002077 0.000199 0.001403
-0.002068 0.000198 0.001426
-0.002062 0.000195 0.00145
-0.002062 0.00019 0.001478
-0.002069 0.000181 0.001508
-0.002089 0.000166 0.001544
-0.002119 0.000145 0.001586
-0.002142 0.000128 0.001623
-0.002161 0.000113 0.001659
-0.002179 9.8e-05 0.001695
-0.002635 0.000112 0.000494
-0.002596 0.000127 0.000503
-0.002555 0.000143 0.000511
-0.002512 0.00016 0.000518
-0.002481 0.00017 0.000531
-0.00246 0.000176 0.000549
-0.002445 0.000178 0.000569
-0.002433 0.000179 0.000591
-0.002425 0.000177 0.000614
-0.00299 0.000661 0.000282
-0.002826 0.00067 0.000456
-0.002992 0.000551 0.000282
-0.002836 0.00061 -0.00085
-0.002469 0.000746 0.000552
-0.002825 0.000589 0.000456
-0.002918 0.000585 -0.000712
-0.002997 0.000607 0.000233
-0.002652 8e-06 0.000991
-0.002643 8e-06 0.001014
-0.002631 8e-06 0.001036
-0.002622 8e-06 0.001058
-0.002613 7e-06 0.001081
-0.002602 7e-06 0.001104
-0.002592 7e-06 0.001126
-0.002583 7e-06 0.001149
-0.002571 7e-06 0.001171
-0.002561 8e-06 0.001193
-0.002551 7e-06 0.001215
-0.00254 8e-06 0.001238
-0.00253 7e-06 0.00126
-0.002519 8e-06 0.001282
-0.002508 8e-06 0.001304
-0.002494 1.1e-05 0.001325
-0.002089 0.000171 0.001381
-0.002077 0.000171 0.001403
-0.002068 0.000171 0.001426
-0.002063 0.000168 0.001451
-0.002063 0.000163 0.001478
-0.002068 0.000154 0.001508
-0.002089 0.000138 0.001544
-0.00212 0.000117 0.001586
-0.002144 0.0001 0.001624
-0.002161 8.6e-05 0.001659
-0.002177 7.2e-05 0.001694
-0.002634 8.6e-05 0.000494
-0.002596 0.0001 0.000503
-0.002554 0.000116 0.000511
-0.002511 0.000133 0.000518
-0.002481 0.000143 0.000531
-0.00246 0.000149 0.000549
-0.002445 0.000151 0.000569
-0.002433 0.000152 0.000591
-0.002425 0.00015 0.000614
-0.002919 0.000421 -0.000712
-0.002868 0.000652 0.000438
-0.002494 0.000703 -0.000232
-0.002973 0.000499 0.000379
-0.002992 0.000497 0.000282
-0.002825 0.000643 0.000456
-0.00299 0.000578 0.000307
-0.002826 0.000724 0.000456
-0.002978 0.000692 0.000305
-0.002595 5e-06 0.000991
-0.002584 5e-06 0.001014
-0.002574 5e-06 0.001036
-0.002563 5e-06 0.001058
-0.002553 5e-06 0.001081
-0.002544 5e-06 0.001103
-0.002533 5e-06 0.001126
-0.002522 5e-06 0.001148
-0.002512 5e-06 0.00117
-0.002503 5e-06 0.001193
-0.002493 5e-06 0.001216
-0.002483 5e-06 0.001238
-0.002473 4e-06 0.001261
-0.002462 4e-06 0.001283
-0.002451 5e-06 0.001305
-0.002089 0.000143 0.001381
-0.002077 0.000144 0.001403
-0.002068 0.000144 0.001426
-0.002063 0.000141 0.001451
-0.002063 0.000135 0.001478
-0.002068 0.000127 0.001507
-0.002089 0.000111 0.001544
-0.002119 9e-05 0.001586
-0.002143 7.3e-05 0.001624
-0.00216 5.9e-05 0.001659
-0.002178 4.4e-05 0.001694
-0.002633 5.9e-05 0.000493
-0.002595 7.3e-05 0.000503
-0.002554 8.9e-05 0.000511
-0.002512 0.000105 0.000519
-0.002482 0.000116 0.000532
-0.00246 0.000121 0.000549
-0.002445 0.000124 0.000569
-0.002433 0.000125 0.000591
-0.002964 0.000695 0.000353
-0.002999 0.000608 0.000208
-0.002636 0.000698 0.000926
-0.002972 0.000554 0.000379
-0.002825 0.000535 0.000456
-0.002908 0.000586 8.5e-05
-0.002987 0.000577 0.000331
-0.00294 0.000572 0.000105
-0.002561 0.000563 -0.001564
-0.00243 0.000753 0.000719
-0.002543 -0.0 0.000995
-0.002534 -2e-06 0.001018
-0.002524 -2e-06 0.00104
-0.002514 -2e-06 0.001063
-0.002504 -2e-06 0.001085
-0.002494 -2e-06 0.001108
-0.002484 -2e-06 0.00113
-0.002473 -2e-06 0.001152
-0.002463 -2e-06 0.001175
-0.002453 -2e-06 0.001197
-0.002442 -2e-06 0.00122
-0.002431 -2e-06 0.001242
-0.00242 -1e-06 0.001264
-0.00241 -1e-06 0.001286
-0.002608 0.000686 0.000897
-0.002089 0.000116 0.001381
-0.002077 0.000117 0.001403
-0.002067 0.000117 0.001426
-0.002063 0.000114 0.00145
-0.002062 0.000108 0.001478
-0.002069 0.0001 0.001508
-0.002089 8.4e-05 0.001545
-0.00212 6.3e-05 0.001586
-0.002142 4.6e-05 0.001623
-0.002161 3.1e-05 0.001659
-0.002176 1.8e-05 0.001693
-0.002634 3.1e-05 0.000494
-0.002595 4.6e-05 0.000503
-0.002553 6.2e-05 0.000511
-0.002511 7.8e-05 0.000518
-0.002482 8.8e-05 0.000532
-0.00246 9.4e-05 0.000549
-0.002444 9.7e-05 0.000569
-0.002433 9.8e-05 0.000591
-0.002991 0.000666 0.000183
-0.002741 0.00067 0.001038
-0.002997 0.000552 0.000233
-0.002689 0.000561 0.000984
-0.002714 0.000548 0.001013
-0.00247 0.000703 0.000776
-0.002441 0.000719 0.000747
-0.002427 0.000727 0.00072
-0.002973 0.000472 0.000379
-0.002492 -2e-06 0.000971
-0.002482 -2e-06 0.000993
-0.00247 -1e-06 0.001015
-0.002461 -2e-06 0.001038
-0.002447 0.0 0.001059
-0.002442 -2e-06 0.001083
-0.002421 -2e-06 0.001128
-0.00241 -2e-06 0.00115
-0.0024 -2e-06 0.001173
-0.002379 -2e-06 0.001217
-0.002368 -2e-06 0.001239
-0.002359 -2e-06 0.001262
-0.002143 7.6e-05 0.001324
-0.00212 8.3e-05 0.001341
-0.002102 8.7e-05 0.00136
-0.002088 8.9e-05 0.001381
-0.002077 9e-05 0.001403
-0.002067 8.9e-05 0.001426
-0.002062 8.7e-05 0.00145
-0.002062 8.2e-05 0.001477
-0.002069 7.2e-05 0.001508
-0.002088 5.7e-05 0.001544
-0.00212 3.6e-05 0.001586
-0.002144 1.8e-05 0.001624
-0.002156 7e-06 0.001656
-0.002663 0.000575 0.000955
-0.002595 1.9e-05 0.000503
-0.002553 3.5e-05 0.00051
-0.002512 5.1e-05 0.000519
-0.002481 6.2e-05 0.000532
-0.00246 6.7e-05 0.00055
-0.002445 7e-05 0.000569
-0.002433 7e-05 0.000591
-0.002987 0.000669 0.000157
-0.002663 0.000711 0.000955
-0.002724 0.000692 -1.5e-05
-0.002995 0.000443 0.000258
-0.002496 1e-06 0.00081
-0.002487 0.0 0.000833
-0.002469 0.000677 0.000776
-0.002984 0.000468 0.000356
-0.0025 0.000727 -0.000165
-0.002985 0.000633 0.000331
-0.002432 2e-06 0.000943
-0.002421 2e-06 0.000965
-0.002412 1e-06 0.000988
-0.002401 2e-06 0.00101
-0.002391 2e-06 0.001033
-0.002369 2e-06 0.001077
-0.002359 2e-06 0.001099
-0.002349 2e-06 0.001122
-0.00234 2e-06 0.001145
-0.00233 1e-06 0.001167
-0.002319 2e-06 0.001189
-0.002307 3e-06 0.001211
-0.002297 2e-06 0.001234
-0.002143 5e-05 0.001324
-0.002119 5.7e-05 0.001341
-0.002102 6e-05 0.00136
-0.002088 6.2e-05 0.001381
-0.002076 6.3e-05 0.001403
-0.002067 6.2e-05 0.001425
-0.002061 6e-05 0.00145
-0.002061 5.5e-05 0.001477
-0.002069 4.5e-05 0.001508
-0.00209 2.9e-05 0.001545
-0.002118 9e-06 0.001585
-0.002126 0.0 0.001616
-0.00247 0.000731 0.000776
-0.002572 3e-06 0.000492
-0.002548 1e-05 0.000508
-0.002512 2.4e-05 0.000518
-0.002481 3.4e-05 0.000532
-0.00246 4e-05 0.00055
-0.002444 4.3e-05 0.000569
-0.002972 0.000693 0.000329
-0.002997 0.000637 0.000183
-0.00299 0.000605 0.000307
-0.002689 0.000697 0.000984
-0.002867 0.000625 0.000438
-0.002942 0.000458 0.000399
-0.00244 2e-06 0.000784
-0.002425 5e-06 0.000804
-0.002413 6e-06 0.000826
-0.002987 0.000496 0.000331
-0.002989 0.000632 0.000307
-0.002374 4e-06 0.000916
-0.002363 5e-06 0.000938
-0.002352 5e-06 0.000961
-0.002333 4e-06 0.001006
-0.002321 5e-06 0.001028
-0.002311 5e-06 0.00105
-0.002301 5e-06 0.001073
-0.00229 5e-06 0.001095
-0.00228 5e-06 0.001117
-0.002269 5e-06 0.001139
-0.002259 5e-06 0.001162
-0.002251 4e-06 0.001185
-0.002242 4e-06 0.001208
-0.002175 1.1e-05 0.001313
-0.002143 2.3e-05 0.001325
-0.002119 3e-05 0.001341
-0.002101 3.3e-05 0.00136
-0.002088 3.5e-05 0.001381
-0.002076 3.6e-05 0.001403
-0.002067 3.6e-05 0.001425
-0.002061 3.3e-05 0.00145
-0.002061 2.7e-05 0.001477
-0.00207 1.7e-05 0.001509
-0.00255 0.000608 0.000838
-0.002517 5e-06 0.000467
-0.002507 4e-06 0.000489
-0.002501 4e-06 0.000512
-0.002479 8e-06 0.000531
-0.002458 1.4e-05 0.000548
-0.002443 1.6e-05 0.000568
-0.002431 1.7e-05 0.00059
-0.002346 0.000599 -0.001719
-0.002578 0.000729 0.000867
-0.002904 0.000609 0.000418
-0.002996 0.00058 0.000233
-0.002662 0.000738 0.000955
-0.002663 0.000602 0.000955
-0.002388 2e-06 0.00076
-0.002378 2e-06 0.000783
-0.002367 2e-06 0.000805
-0.002875 0.000573 6.4e-05
-0.002347 2e-06 0.00085
-0.002337 1e-06 0.000872
-0.002327 1e-06 0.000895
-0.002925 0.00042 -0.000688
-0.002573 0.000509 -0.001542
-0.002608 0.000659 0.000897
-0.002288 0.0 0.000985
-0.002278 0.0 0.001008
-0.002267 0.0 0.00103
-0.002257 0.0 0.001052
-0.002247 0.0 0.001075
-0.002236 0.0 0.001097
-0.002225 1e-06 0.001119
-0.002214 1e-06 0.001141
-0.002194 1e-06 0.001186
-0.002151 2e-06 0.001275
-0.002141 2e-06 0.001297
-0.002128 3e-06 0.001318
-0.002113 6e-06 0.001338
-0.002063 1e-05 0.001424
-0.002057 8e-06 0.001448
-0.002052 5e-06 0.001473
-0.002045 3e-06 0.001497
-0.002035 3e-06 0.00152
-0.002021 5e-06 0.00154
-0.002943 0.000539 0.000399
-0.002995 0.000524 0.000258
-0.002979 0.000634 0.000355
-0.002968 0.000637 0.000378
-0.002433 -1e-06 0.000536
-0.002422 -1e-06 0.000559
-0.002936 0.000474 -0.000615
-0.00242 0.000678 0.000694
-0.002918 0.000503 -0.000712
-0.001916 0.000692 -0.002098
-0.002998 0.000581 0.000208
-0.002983 0.000692 0.000281
-0.002358 -4e-06 0.000719
-0.002349 -5e-06 0.000742
-0.00234 -6e-06 0.000765
-0.002332 -7e-06 0.000788
-0.002683 0.0006 -3.4e-05
-0.002919 0.000429 -0.000588
-0.002303 -8e-06 0.000856
-0.002999 0.000582 0.000184
-0.002994 0.000662 0.000233
-0.002274 -8e-06 0.000924
-0.002264 -9e-06 0.000947
-0.002254 -1e-05 0.000969
-0.002244 -1e-05 0.000992
-0.002233 -9e-06 0.001014
-0.002223 -9e-06 0.001036
-0.002213 -9e-06 0.001059
-0.002202 -9e-06 0.001081
-0.002192 -9e-06 0.001103
-0.002181 -9e-06 0.001126
-0.002126 -7e-06 0.001236
-0.002115 -7e-06 0.001258
-0.002104 -7e-06 0.00128
-0.002093 -6e-06 0.001302
-0.002024 -3e-06 0.001433
-0.002011 -2e-06 0.001454
-0.001999 -0.0 0.001476
-0.001987 0.0 0.001497
-0.001975 1e-06 0.001519
-0.001954 1e-06 0.001563
-0.001942 3e-06 0.001585
-0.00299 0.000523 0.000307
-0.002993 0.000524 0.000282
-0.002905 0.000473 0.000419
-0.002725 0.000664 -1.5e-05
-0.002405 -8e-06 0.000496
-0.002906 0.000527 0.000419
-0.002389 -1e-05 0.000543
-0.002984 0.000693 0.000256
-0.002991 0.000633 0.000148
-0.002469 0.000649 0.000776
-0.002637 0.000729 -5.3e-05
-0.002976 0.000676 0.000132
-0.002316 -1e-05 0.000699
-0.002996 0.000634 0.000233
-0.002943 0.000511 0.000399
-0.002966 0.00071 0.000129
-0.00224 -9e-06 0.000854
-0.002232 -1e-05 0.000878
-0.002222 -1e-05 0.0009
-0.002211 -9e-06 0.000922
-0.002202 -1e-05 0.000945
-0.002193 -1e-05 0.000968
-0.00217 -9e-06 0.001012
-0.00216 -9e-06 0.001034
-0.00215 -1e-05 0.001057
-0.002069 -1e-05 0.001236
-0.002058 -1e-05 0.001259
-0.002048 -1.1e-05 0.001281
-0.001998 -1e-05 0.001394
-0.001988 -1.1e-05 0.001416
-0.001977 -1e-05 0.001438
-0.001966 -1e-05 0.00146
-0.001954 -9e-06 0.001482
-0.001941 -9e-06 0.001503
-0.001917 -7e-06 0.001546
-0.002984 0.000441 0.000356
-0.002355 -9e-06 0.000473
-0.002343 -9e-06 0.000495
-0.002334 -9e-06 0.000518
-0.002322 -9e-06 0.000539
-0.002993 0.000605 0.000148
-0.002496 0.000703 -0.000191
-0.002513 0.000627 0.000808
-0.002279 -8e-06 0.000628
-0.002589 0.000597 -0.000345
-0.002261 -9e-06 0.000674
-0.002245 -6e-06 0.000694
-0.002994 0.000633 0.000258
-0.002997 0.000471 0.000233
-0.002985 0.000694 0.000231
-0.001126 0.000612 -0.002628
-0.002999 0.000469 0.000197
-0.002182 -6e-06 0.000828
-0.002173 -7e-06 0.00085
-0.002162 -6e-06 0.000873
-0.002152 -6e-06 0.000895
-0.002942 0.000648 0.000399
-0.002984 0.000496 0.000356
-0.00212 -5e-06 0.000961
-0.002109 -5e-06 0.000983
-0.0021 -6e-06 0.001007
-0.00209 -6e-06 0.001029
-0.00208 -6e-06 0.001052
-0.002609 0.000631 0.000897
-0.002018 -6e-06 0.001186
-0.002009 -7e-06 0.001209
-0.001999 -7e-06 0.001231
-0.001989 -7e-06 0.001254
-0.001979 -8e-06 0.001276
-0.00195 -8e-06 0.001344
-0.00194 -9e-06 0.001367
-0.001929 -9e-06 0.001389
-0.00192 -9e-06 0.001412
-0.0019 -9e-06 0.001457
-0.001891 -1e-05 0.00148
-0.001883 -1.1e-05 0.001503
-0.001872 -1.1e-05 0.001526
-0.00299 0.000496 0.000307
-0.002999 0.000499 0.000209
-0.002294 -6e-06 0.000445
-0.002285 -6e-06 0.000468
-0.002274 -6e-06 0.00049
-0.002264 -6e-06 0.000512
-0.002825 0.000697 0.000456
-0.002493 0.000706 -0.000217
-0.002218 -4e-06 0.0006
-0.002207 -3e-06 0.000622
-0.002742 0.000616 0.001037
-0.002663 0.000656 0.000955
-0.00259 0.000624 -0.000345
-0.002121 -2e-06 0.000799
-0.002109 -1e-06 0.000821
-0.002102 -2e-06 0.000845
-0.002092 -3e-06 0.000867
-0.00208 -2e-06 0.000889
-0.00207 -2e-06 0.000911
-0.002059 -2e-06 0.000933
-0.002049 -2e-06 0.000956
-0.002571 0.000596 -0.001514
-0.001959 -3e-06 0.001158
-0.001948 -3e-06 0.001181
-0.00194 -4e-06 0.001204
-0.001927 -3e-06 0.001225
-0.00192 -4e-06 0.001249
-0.001908 -3e-06 0.00127
-0.001899 -4e-06 0.001294
-0.001889 -4e-06 0.001316
-0.001878 -4e-06 0.001338
-0.001868 -4e-06 0.001361
-0.001861 -5e-06 0.001384
-0.001849 -5e-06 0.001406
-0.001832 -7e-06 0.001452
-0.001821 -6e-06 0.001474
-0.001812 -7e-06 0.001497
-0.002708 0.000559 0.000489
-0.002256 -3e-06 0.000373
-0.002245 -2e-06 0.000395
-0.002236 -3e-06 0.000418
-0.002225 -2e-06 0.00044
-0.002212 -1e-06 0.000461
-0.002202 -1e-06 0.000483
-0.002192 -2e-06 0.000506
-0.00299 0.000442 0.000307
-0.002988 0.000441 0.000332
-0.00299 0.000469 0.000307
-0.002765 0.000592 4e-06
-0.002835 0.000529 -0.00085
-0.002116 0.0 0.000661
-0.002107 -0.0 0.000684
-0.002099 -1e-06 0.000707
-0.002089 -2e-06 0.00073
-0.002636 0.000616 0.000926
-0.002496 0.000731 -0.000191
-0.002058 -2e-06 0.000797
-0.002047 -1e-06 0.000819
-0.002038 -2e-06 0.000842
-0.002028 -2e-06 0.000864
-0.002017 -2e-06 0.000887
-0.002006 -2e-06 0.000909
-0.001902 -1e-06 0.001132
-0.001892 -1e-06 0.001155
-0.001882 -2e-06 0.001177
-0.001872 -2e-06 0.0012
-0.00186 -0.0 0.001221
-0.001848 0.0 0.001243
-0.00184 -1e-06 0.001266
-0.001829 -1e-06 0.001288
-0.001821 -2e-06 0.001312
-0.001813 -2e-06 0.001335
-0.001801 -2e-06 0.001356
-0.001789 -1e-06 0.001378
-0.001779 -2e-06 0.001401
-0.001771 -2e-06 0.001424
-0.001761 -3e-06 0.001447
-0.001751 -3e-06 0.001469
-0.002223 -2e-06 0.000303
-0.002211 -1e-06 0.000325
-0.0022 -1e-06 0.000347
-0.002189 -1e-06 0.000369
-0.002179 -1e-06 0.000392
-0.002172 -2e-06 0.000415
-0.002161 -2e-06 0.000437
-0.00215 -2e-06 0.00046
-0.00214 -3e-06 0.000482
-0.002983 0.000578 0.000356
-0.002997 0.000498 0.000233
-0.002689 0.000615 0.000984
-0.002484 0.000751 0.000779
-0.002994 0.00064 0.000158
-0.002934 0.000706 0.000398
-0.002075 -6e-06 0.000642
-0.002066 -6e-06 0.000665
-0.002055 -6e-06 0.000687
-0.002045 -7e-06 0.00071
-0.002035 -7e-06 0.000732
-0.002025 -7e-06 0.000755
-0.002016 -7e-06 0.000778
-0.002006 -7e-06 0.0008
-0.001997 -8e-06 0.000823
-0.001987 -8e-06 0.000845
-0.001976 -8e-06 0.000868
-0.001966 -8e-06 0.00089
-0.001956 -9e-06 0.000913
-0.001945 -9e-06 0.000935
-0.001935 -8e-06 0.000957
-0.001924 -8e-06 0.000979
-0.001881 -8e-06 0.001068
-0.001871 -8e-06 0.001091
-0.001861 -7e-06 0.001113
-0.001849 -7e-06 0.001135
-0.001838 -6e-06 0.001157
-0.001827 -6e-06 0.001179
-0.001817 -5e-06 0.001201
-0.001805 -5e-06 0.001223
-0.001793 -4e-06 0.001245
-0.001782 -4e-06 0.001267
-0.001771 -4e-06 0.001289
-0.001759 -3e-06 0.00131
-0.001749 -3e-06 0.001333
-0.001727 -2e-06 0.001377
-0.001715 -2e-06 0.001399
-0.002867 0.000544 0.000438
-0.002163 -4e-06 0.000303
-0.002155 -5e-06 0.000326
-0.002146 -6e-06 0.000349
-0.002138 -7e-06 0.000372
-0.002128 -7e-06 0.000395
-0.00212 -8e-06 0.000418
-0.002111 -9e-06 0.000441
-0.002971 0.000451 0.000126
-0.002972 0.000581 0.000379
-0.002636 0.000671 0.000926
-0.002705 0.000669 0.000488
-0.002586 0.000752 -7.1e-05
-0.002839 0.000669 4.4e-05
-0.002952 0.000699 0.000376
-0.002039 -1.5e-05 0.000625
-0.00203 -1.5e-05 0.000648
-0.002021 -1.6e-05 0.000671
-0.002012 -1.6e-05 0.000694
-0.002002 -1.7e-05 0.000717
-0.001993 -1.7e-05 0.00074
-0.001983 -1.8e-05 0.000762
-0.001974 -1.8e-05 0.000785
-0.001963 -1.8e-05 0.000807
-0.001954 -1.8e-05 0.00083
-0.001944 -1.8e-05 0.000853
-0.001933 -1.8e-05 0.000875
-0.001922 -1.8e-05 0.000897
-0.001912 -1.8e-05 0.00092
-0.001902 -1.8e-05 0.000942
-0.001891 -1.8e-05 0.000964
-0.001881 -1.8e-05 0.000986
-0.00187 -1.8e-05 0.001009
-0.00186 -1.8e-05 0.001031
-0.001848 -1.7e-05 0.001053
-0.001837 -1.7e-05 0.001075
-0.001826 -1.6e-05 0.001097
-0.001815 -1.6e-05 0.001119
-0.001803 -1.5e-05 0.00114
-0.001791 -1.5e-05 0.001162
-0.00178 -1.4e-05 0.001184
-0.001769 -1.4e-05 0.001206
-0.001757 -1.3e-05 0.001228
-0.001745 -1.2e-05 0.001249
-0.00269 0.000534 0.000984
-0.002714 0.000521 0.001013
-0.00251 0.000701 -0.000136
-0.002972 0.000613 0.000126
-0.002866 0.000702 -0.000531
-0.002493 0.000679 -0.000217
-0.002495 0.000676 -0.000191
-0.002915 0.000676 -0.000588
-0.002802 0.000658 2.4e-05
-0.002995 0.00055 0.000147
-0.002017 -2.6e-05 0.000584
-0.002023 -2.7e-05 0.00056
-0.002027 -2.7e-05 0.000536
-0.002929 0.000501 -0.000664
-0.002919 0.000592 -0.000588
-0.002999 0.000417 0.000209
-0.002997 0.000416 0.000233
-0.002995 0.000416 0.000258
-0.002993 0.000415 0.000283
-0.002991 0.000414 0.000307
-0.002988 0.000414 0.000332
-0.002985 0.000414 0.000356
-0.002973 0.000417 0.000379
-0.002942 0.00043 0.000399
-0.002905 0.000446 0.000419
-0.002867 0.000462 0.000438
-0.002824 0.000481 0.000456
-0.002768 0.000505 0.000473
-0.002705 0.000533 0.000488
-0.002421 0.000654 0.000644
-0.002419 0.000653 0.000669
-0.00242 0.000651 0.000694
-0.002426 0.000646 0.00072
-0.002441 0.000637 0.000747
-0.002471 0.000622 0.000777
-0.002513 0.0006 0.000808
-0.002549 0.000581 0.000838
-0.00258 0.000565 0.000868
-0.00261 0.000549 0.000897
-0.002637 0.000535 0.000926
-0.002664 0.00052 0.000955
-0.00269 0.000506 0.000984
-0.002714 0.000493 0.001013
-0.00274 0.00048 0.00104
-0.002502 0.000704 -0.000159
-0.002558 0.00058 -0.001482
-0.002495 0.000653 -0.000241
-0.002493 0.000652 -0.000217
-0.002495 0.000649 -0.000191
-0.002837 0.000663 -0.000502
-0.002935 0.000529 -0.000615
-0.002908 0.00049 -0.000748
-0.002919 0.000449 -0.000712
-0.002502 0.000731 -0.000159
-0.002924 0.000502 -0.000688
-0.003 0.000391 0.000184
-0.002999 0.00039 0.000209
-0.002998 0.000389 0.000233
-0.002996 0.000388 0.000258
-0.002993 0.000388 0.000283
-0.002991 0.000387 0.000307
-0.002988 0.000386 0.000332
-0.002985 0.000386 0.000356
-0.002973 0.00039 0.000379
-0.002943 0.000403 0.0004
-0.002905 0.000419 0.000419
-0.002866 0.000436 0.000438
-0.002824 0.000454 0.000456
-0.002766 0.000479 0.000473
-0.002708 0.000505 0.000489
-0.002421 0.000627 0.000644
-0.002418 0.000626 0.000669
-0.00242 0.000624 0.000694
-0.002426 0.000619 0.00072
-0.00244 0.00061 0.000747
-0.00247 0.000595 0.000776
-0.002514 0.000572 0.000808
-0.002548 0.000554 0.000838
-0.00258 0.000538 0.000868
-0.00261 0.000522 0.000897
-0.002637 0.000507 0.000926
-0.002664 0.000493 0.000955
-0.00269 0.000479 0.000984
-0.002715 0.000466 0.001013
-0.002739 0.000453 0.001041
-0.002509 0.000623 -0.000289
-0.0025 0.000625 -0.000265
-0.002494 0.000626 -0.000241
-0.002492 0.000625 -0.000217
-0.002296 0.000677 -0.000988
-0.002797 0.000683 -0.000472
-0.002919 0.000538 -0.000588
-0.00251 0.000674 -0.000135
-0.002924 0.000448 -0.000688
-0.002912 0.00045 -0.000736
-0.002865 0.000512 -0.000531
-0.002893 0.000498 -0.00056
-0.002493 0.00073 -0.000232
-0.002875 0.000627 6.4e-05
-0.003001 0.000363 0.000184
-0.003 0.000362 0.000209
-0.002998 0.000362 0.000234
-0.002996 0.000361 0.000258
-0.002994 0.00036 0.000283
-0.002991 0.00036 0.000307
-0.002989 0.000359 0.000332
-0.002985 0.000359 0.000356
-0.002972 0.000363 0.000379
-0.002942 0.000376 0.0004
-0.002904 0.000392 0.000419
-0.002866 0.000408 0.000438
-0.002824 0.000427 0.000456
-0.002765 0.000453 0.000472
-0.002704 0.000479 0.000488
-0.00242 0.0006 0.000644
-0.002418 0.000599 0.000669
-0.002419 0.000597 0.000694
-0.002426 0.000592 0.00072
-0.00244 0.000583 0.000747
-0.00247 0.000567 0.000777
-0.002515 0.000545 0.000808
-0.002548 0.000527 0.000838
-0.002581 0.00051 0.000868
-0.00261 0.000495 0.000897
-0.002638 0.00048 0.000926
-0.002664 0.000466 0.000955
-0.00269 0.000452 0.000984
-0.002715 0.000438 0.001013
-0.002738 0.000426 0.001041
-0.002509 0.000596 -0.000289
-0.0025 0.000598 -0.000265
-0.002494 0.000599 -0.000241
-0.002492 0.000598 -0.000217
-0.00296 0.000734 0.000227
-0.002865 0.000621 -0.000531
-0.002796 0.000602 -0.000472
-0.002765 0.000565 5e-06
-0.002032 -2.8e-05 0.000512
-0.002298 0.000678 -0.001123
-0.002919 0.000484 -0.000588
-0.002837 0.000581 -0.000502
-0.002838 0.000724 4.4e-05
-0.003 0.000337 0.000184
-0.002999 0.000335 0.000209
-0.002997 0.000335 0.000233
-0.002996 0.000334 0.000258
-0.002993 0.000333 0.000283
-0.002991 0.000332 0.000307
-0.002989 0.000332 0.000332
-0.002984 0.000332 0.000356
-0.002972 0.000336 0.000379
-0.002942 0.000349 0.000399
-0.002904 0.000365 0.000419
-0.002866 0.000381 0.000438
-0.002823 0.0004 0.000456
-0.002766 0.000425 0.000472
-0.002037 -2.8e-05 0.000488
-0.00242 0.000573 0.000644
-0.002418 0.000572 0.000669
-0.002419 0.00057 0.000694
-0.002425 0.000565 0.00072
-0.00244 0.000556 0.000747
-0.002471 0.00054 0.000777
-0.002515 0.000517 0.000808
-0.002547 0.000501 0.000838
-0.002581 0.000483 0.000868
-0.00261 0.000467 0.000897
-0.002637 0.000453 0.000926
-0.002665 0.000438 0.000956
-0.00269 0.000425 0.000984
-0.002715 0.000411 0.001013
-0.00274 0.000399 0.00104
-0.002509 0.000568 -0.000289
-0.0025 0.000571 -0.000265
-0.002494 0.000572 -0.000241
-0.002492 0.000571 -0.000217
-0.002907 0.000653 -0.000747
-0.00275 0.00068 -0.000441
-0.002512 0.000744 -0.000286
-0.00293 0.000447 -0.000664
-0.002041 -2.9e-05 0.000463
-0.002045 -2.9e-05 0.000439
-0.002836 0.000527 -0.000502
-0.002893 0.000606 -0.00056
-0.003 0.000311 0.00016
-0.003001 0.000309 0.000184
-0.002999 0.000308 0.000209
-0.002997 0.000307 0.000233
-0.002995 0.000307 0.000258
-0.002993 0.000306 0.000283
-0.002991 0.000305 0.000307
-0.002988 0.000305 0.000332
-0.002984 0.000305 0.000356
-0.002971 0.000309 0.000379
-0.002942 0.000321 0.0004
-0.002903 0.000338 0.000419
-0.002866 0.000354 0.000438
-0.002824 0.000372 0.000456
-0.002767 0.000397 0.000473
-0.00242 0.000546 0.000644
-0.002418 0.000545 0.000669
-0.002419 0.000543 0.000694
-0.002426 0.000538 0.00072
-0.002441 0.000529 0.000747
-0.002472 0.000512 0.000777
-0.002516 0.00049 0.000809
-0.002549 0.000473 0.000838
-0.002581 0.000456 0.000868
-0.002609 0.000441 0.000897
-0.002638 0.000426 0.000927
-0.002664 0.000411 0.000955
-0.00269 0.000397 0.000984
-0.002715 0.000384 0.001013
-0.002738 0.000372 0.001041
-0.002509 0.000541 -0.000289
-0.0025 0.000544 -0.000265
-0.002494 0.000545 -0.000241
-0.002492 0.000544 -0.000217
-0.002888 0.000717 -0.000559
-0.002875 0.000654 6.4e-05
-0.002501 0.000752 -0.000258
-0.002537 0.000678 -0.000313
-0.002049 -2.9e-05 0.000415
-0.002511 0.000691 -0.000284
-0.002703 0.00073 -0.00041
-0.003 0.000284 0.000159
-0.003001 0.000282 0.000184
-0.002999 0.000281 0.000209
-0.002998 0.00028 0.000234
-0.002996 0.000279 0.000258
-0.002993 0.000279 0.000283
-0.002991 0.000278 0.000307
-0.002988 0.000278 0.000332
-0.002984 0.000278 0.000356
-0.002971 0.000282 0.000379
-0.002942 0.000294 0.0004
-0.002903 0.000311 0.000419
-0.002866 0.000327 0.000438
-0.002824 0.000345 0.000456
-0.002766 0.00037 0.000473
-0.00242 0.000519 0.000644
-0.002418 0.000518 0.000669
-0.002419 0.000515 0.000694
-0.002426 0.00051 0.00072
-0.00244 0.000502 0.000747
-0.002472 0.000485 0.000777
-0.002514 0.000463 0.000808
-0.00255 0.000445 0.000839
-0.00258 0.000429 0.000868
-0.002609 0.000413 0.000897
-0.002639 0.000398 0.000927
-0.002664 0.000384 0.000956
-0.00269 0.00037 0.000984
-0.002716 0.000357 0.001013
-0.002738 0.000345 0.001041
-0.002512 0.000514 -0.000286
-0.0025 0.000517 -0.000265
-0.002494 0.000518 -0.000241
-0.002492 0.000517 -0.000217
-0.002919 0.000667 -0.000688
-0.002764 0.000701 5e-06
-0.002497 0.000755 -0.000233
-0.002765 0.000647 5e-06
-0.002053 -2.9e-05 0.00039
-0.002522 0.000643 -0.000112
-0.002751 0.000707 -0.000441
-0.002999 0.000257 0.000159
-0.003 0.000255 0.000184
-0.002999 0.000254 0.000209
-0.002998 0.000253 0.000234
-0.002996 0.000252 0.000258
-0.002993 0.000252 0.000283
-0.002991 0.000251 0.000307
-0.002988 0.000251 0.000332
-0.002984 0.000251 0.000356
-0.002972 0.000255 0.000379
-0.002942 0.000267 0.0004
-0.002903 0.000284 0.000419
-0.002865 0.0003 0.000438
-0.002826 0.000317 0.000457
-0.002057 -2.9e-05 0.000366
-0.00242 0.000491 0.000644
-0.002417 0.000491 0.000669
-0.002419 0.000488 0.000694
-0.002425 0.000483 0.00072
-0.00244 0.000474 0.000747
-0.00247 0.000459 0.000777
-0.002515 0.000436 0.000808
-0.002549 0.000418 0.000838
-0.00258 0.000402 0.000868
-0.002611 0.000385 0.000898
-0.002638 0.000371 0.000927
-0.002665 0.000357 0.000956
-0.00269 0.000343 0.000984
-0.002716 0.000329 0.001013
-0.002743 0.000317 0.001038
-0.002512 0.000487 -0.000286
-0.0025 0.00049 -0.000265
-0.002494 0.00049 -0.000241
-0.002492 0.00049 -0.000217
-0.002797 0.000624 -0.00086
-0.002725 0.000718 -1.5e-05
-0.002581 0.000727 -7e-05
-0.002839 0.000588 4.4e-05
-0.00275 0.000598 -0.000441
-0.002893 0.000633 -0.00056
-0.002999 0.00023 0.000159
-0.003 0.000228 0.000184
-0.002999 0.000227 0.000209
-0.002997 0.000226 0.000233
-0.002995 0.000226 0.000258
-0.002992 0.000225 0.000283
-0.00299 0.000224 0.000307
-0.002987 0.000224 0.000332
-0.002983 0.000224 0.000356
-0.002971 0.000228 0.000379
-0.002941 0.00024 0.000399
-0.002903 0.000257 0.000419
-0.002864 0.000273 0.000438
-0.002825 0.00029 0.000457
-0.002766 0.000316 0.000473
-0.002425 0.000464 0.00062
-0.00242 0.000464 0.000644
-0.002418 0.000463 0.000669
-0.002419 0.000461 0.000694
-0.002425 0.000456 0.00072
-0.00244 0.000447 0.000747
-0.002472 0.000431 0.000777
-0.00255 0.000391 0.000839
-0.002579 0.000375 0.000868
-0.002611 0.000358 0.000898
-0.002638 0.000344 0.000927
-0.002665 0.00033 0.000956
-0.00269 0.000316 0.000984
-0.002715 0.000302 0.001013
-0.002743 0.00029 0.001038
-0.002508 0.00046 -0.000289
-0.0025 0.000462 -0.000265
-0.002494 0.000463 -0.000241
-0.002492 0.000462 -0.000216
-0.002279 0.000676 -0.001034
-0.002796 0.000657 -0.000472
-0.002504 0.000757 -0.000159
-0.002541 0.000459 -0.001447
-0.002061 -3e-05 0.000342
-0.00293 0.000474 -0.000664
-0.002912 0.000613 -0.000736
-0.002998 0.000203 0.000159
-0.002999 0.000201 0.000184
-0.002998 0.0002 0.000209
-0.002996 0.000199 0.000233
-0.002994 0.000198 0.000258
-0.002992 0.000198 0.000283
-0.002989 0.000197 0.000307
-0.002987 0.000197 0.000332
-0.002982 0.000197 0.000356
-0.00297 0.000201 0.000379
-0.002941 0.000213 0.0004
-0.002904 0.000229 0.000419
-0.002863 0.000247 0.000438
-0.002825 0.000263 0.000457
-0.002769 0.000287 0.000473
-0.002065 -3e-05 0.000317
-0.002069 -3e-05 0.000293
-0.002424 0.000436 0.00062
-0.00242 0.000437 0.000644
-0.002417 0.000436 0.000669
-0.002419 0.000434 0.000694
-0.002425 0.000429 0.00072
-0.00244 0.00042 0.000747
-0.002472 0.000404 0.000777
-0.002516 0.000381 0.000809
-0.002549 0.000364 0.000838
-0.002579 0.000348 0.000868
-0.00261 0.000332 0.000898
-0.002638 0.000317 0.000927
-0.002665 0.000302 0.000956
-0.002691 0.000288 0.000984
-0.002715 0.000275 0.001013
-0.002738 0.000263 0.001041
-0.002508 0.000433 -0.000289
-0.0025 0.000435 -0.000265
-0.002494 0.000436 -0.000241
-0.002492 0.000435 -0.000216
-0.00296 0.000732 0.000202
-0.002837 0.000636 -0.000502
-0.00275 0.000625 -0.000441
-0.002875 0.0006 6.4e-05
-0.002072 -3e-05 0.000269
-0.002803 0.000522 2.4e-05
-0.002924 0.000611 -0.000688
-0.002997 0.000177 0.000159
-0.002999 0.000174 0.000184
-0.002999 0.000173 0.000209
-0.002997 0.000172 0.000234
-0.002995 0.000171 0.000258
-0.002993 0.00017 0.000283
-0.00299 0.00017 0.000307
-0.002986 0.00017 0.000332
-0.002981 0.000171 0.000356
-0.002969 0.000174 0.000379
-0.002941 0.000186 0.000399
-0.002904 0.000202 0.000419
-0.002864 0.000219 0.000438
-0.002825 0.000236 0.000457
-0.002771 0.000259 0.000473
-0.002424 0.000409 0.00062
-0.002419 0.00041 0.000644
-0.002417 0.000409 0.000669
-0.002419 0.000407 0.000694
-0.002425 0.000402 0.00072
-0.002441 0.000393 0.000747
-0.00247 0.000377 0.000777
-0.002515 0.000355 0.000808
-0.002549 0.000336 0.000839
-0.00258 0.00032 0.000868
-0.002609 0.000305 0.000897
-0.002639 0.000289 0.000927
-0.002665 0.000275 0.000956
-0.002691 0.000261 0.000985
-0.002715 0.000248 0.001013
-0.002738 0.000236 0.001041
-0.002508 0.000406 -0.000289
-0.0025 0.000408 -0.000265
-0.002494 0.000409 -0.000241
-0.002492 0.000408 -0.000216
-0.002957 0.000732 0.000177
-0.002899 0.000722 -0.00069
-0.002893 0.000552 -0.00056
-0.003 0.000467 0.000172
-0.002076 -3e-05 0.000244
-0.001641 0.000713 -0.00238
-0.002918 0.00062 -0.000588
-0.002994 0.00015 0.000159
-0.002997 0.000148 0.000184
-0.002998 0.000146 0.000209
-0.002997 0.000145 0.000234
-0.002995 0.000144 0.000258
-0.002992 0.000144 0.000283
-0.002988 0.000143 0.000307
-0.002984 0.000144 0.000331
-0.002979 0.000145 0.000355
-0.002968 0.000148 0.000379
-0.002941 0.000159 0.000399
-0.002903 0.000175 0.000419
-0.002864 0.000192 0.000438
-0.002825 0.000209 0.000457
-0.00277 0.000233 0.000473
-0.002424 0.000382 0.00062
-0.00242 0.000383 0.000645
-0.002417 0.000382 0.000669
-0.002419 0.00038 0.000694
-0.002425 0.000375 0.00072
-0.002441 0.000366 0.000747
-0.00247 0.00035 0.000777
-0.002515 0.000327 0.000808
-0.002549 0.00031 0.000839
-0.002579 0.000294 0.000868
-0.00261 0.000277 0.000898
-0.002639 0.000262 0.000927
-0.002666 0.000248 0.000956
-0.002691 0.000234 0.000985
-0.002715 0.000221 0.001013
-0.002738 0.000209 0.001041
-0.002581 0.000646 -7e-05
-0.002442 0.000692 -0.001296
-0.002494 0.000382 -0.000241
-0.002757 0.000694 -0.000869
-0.002893 0.000688 -0.00056
-0.002918 0.000612 -0.000712
-0.002923 0.000557 -0.000688
-0.002558 0.000445 -0.001481
-0.002079 -2.9e-05 0.00022
-0.002544 0.000715 -9e-05
-0.002972 0.00064 0.000125
-0.00299 0.000125 0.000158
-0.002993 0.000122 0.000183
-0.002994 0.000121 0.000208
-0.002993 0.000119 0.000233
-0.002991 0.000118 0.000258
-0.002988 0.000118 0.000282
-0.002985 0.000118 0.000306
-0.00298 0.000119 0.000331
-0.002974 0.00012 0.000355
-0.002964 0.000123 0.000378
-0.00294 0.000132 0.000399
-0.002904 0.000148 0.000419
-0.002864 0.000165 0.000438
-0.002824 0.000182 0.000457
-0.002768 0.000207 0.000473
-0.002424 0.000355 0.00062
-0.002419 0.000356 0.000645
-0.002417 0.000355 0.000669
-0.002419 0.000352 0.000694
-0.002426 0.000347 0.00072
-0.002441 0.000338 0.000747
-0.002469 0.000323 0.000777
-0.002514 0.0003 0.000808
-0.002548 0.000283 0.000838
-0.002579 0.000266 0.000868
-0.002611 0.00025 0.000898
-0.002639 0.000235 0.000927
-0.002666 0.000221 0.000956
-0.002691 0.000207 0.000985
-0.002715 0.000194 0.001013
-0.00274 0.000182 0.00104
-0.002638 0.00062 -5.3e-05
-0.002971 0.000586 0.000126
-0.002933 0.000612 -0.000615
-0.00293 0.00064 -0.000614
-0.002839 0.000716 -0.000503
-0.001884 0.000704 -0.002006
-0.00275 0.000652 -0.000441
-0.002794 0.000576 -0.000472
-0.002082 -2.9e-05 0.000195
-0.002523 0.000622 -0.001628
-0.002909 0.00064 8.4e-05
-0.002983 0.000102 0.000157
-0.002986 9.9e-05 0.000182
-0.002987 9.7e-05 0.000207
-0.002986 9.5e-05 0.000232
-0.002984 9.4e-05 0.000257
-0.002982 9.4e-05 0.000281
-0.002978 9.4e-05 0.000306
-0.002973 9.5e-05 0.00033
-0.002967 9.6e-05 0.000354
-0.002958 9.8e-05 0.000377
-0.002938 0.000106 0.000399
-0.002904 0.000121 0.000419
-0.002864 0.000137 0.000438
-0.002823 0.000155 0.000457
-0.002766 0.00018 0.000473
-0.002702 0.000209 0.000488
-0.002424 0.000328 0.00062
-0.002419 0.000328 0.000645
-0.002417 0.000328 0.000669
-0.002419 0.000325 0.000694
-0.002426 0.00032 0.00072
-0.00244 0.000311 0.000747
-0.002471 0.000295 0.000777
-0.002514 0.000273 0.000808
-0.002549 0.000255 0.000839
-0.002579 0.000239 0.000868
-0.00261 0.000223 0.000898
-0.002639 0.000207 0.000927
-0.002666 0.000193 0.000956
-0.002691 0.00018 0.000985
-0.002715 0.000167 0.001013
-0.002738 0.000154 0.001042
-0.002803 0.000549 2.4e-05
-0.002994 0.000577 0.000148
-0.002874 0.000709 6.4e-05
-0.002924 0.00067 -0.000614
-0.002507 0.000703 -0.001379
-0.002909 0.000694 8.4e-05
-0.002998 0.000604 0.000172
-0.002918 0.000476 -0.000712
-0.002085 -2.9e-05 0.000171
-0.002725 0.000637 -1.5e-05
-0.002917 0.000558 -0.000712
-0.002974 7.9e-05 0.000156
-0.002977 7.6e-05 0.000181
-0.002977 7.4e-05 0.000206
-0.002976 7.3e-05 0.000231
-0.002975 7.2e-05 0.000255
-0.002972 7.1e-05 0.00028
-0.002968 7.2e-05 0.000304
-0.002963 7.2e-05 0.000328
-0.002958 7.3e-05 0.000352
-0.00295 7.5e-05 0.000376
-0.002934 8.1e-05 0.000399
-0.002904 9.3e-05 0.000419
-0.002865 0.00011 0.000438
-0.002087 -2.8e-05 0.000146
-0.00209 -2.8e-05 0.000122
-0.002424 0.000301 0.00062
-0.002419 0.000301 0.000645
-0.002417 0.000301 0.000669
-0.002419 0.000298 0.000694
-0.002426 0.000293 0.00072
-0.002441 0.000284 0.000748
-0.002471 0.000268 0.000777
-0.002515 0.000246 0.000808
-0.002548 0.000228 0.000838
-0.002579 0.000212 0.000868
-0.00261 0.000196 0.000898
-0.002639 0.00018 0.000927
-0.002665 0.000166 0.000956
-0.002691 0.000152 0.000985
-0.002715 0.00014 0.001013
-0.002737 0.000127 0.001041
-0.002939 0.000491 0.000105
-0.002508 0.000597 -0.001648
-0.002494 0.0003 -0.000241
-0.002492 0.000299 -0.000216
-0.002906 0.000707 -0.000586
-0.002802 0.00074 2.4e-05
-0.002935 0.000556 -0.000615
-0.00248 0.000628 -0.001689
-0.002093 -2.7e-05 9.7e-05
-0.002865 0.000458 -0.000531
-0.00293 0.000419 -0.000664
-0.002999 0.000577 0.000172
-0.002962 5.8e-05 0.000154
-0.002963 5.5e-05 0.000179
-0.002964 5.3e-05 0.000204
-0.002963 5.2e-05 0.000229
-0.002961 5.1e-05 0.000253
-0.002959 5.1e-05 0.000278
-0.002955 5.1e-05 0.000302
-0.00295 5.1e-05 0.000326
-0.002945 5.2e-05 0.00035
-0.002937 5.4e-05 0.000374
-0.002925 5.8e-05 0.000397
-0.002902 6.7e-05 0.000419
-0.002865 8.3e-05 0.000438
-0.002823 0.0001 0.000457
-0.002768 0.000125 0.000473
-0.002096 -2.7e-05 7.3e-05
-0.002424 0.000274 0.00062
-0.002419 0.000274 0.000645
-0.002417 0.000274 0.000669
-0.002418 0.000271 0.000694
-0.002425 0.000266 0.00072
-0.00244 0.000257 0.000747
-0.002471 0.000241 0.000777
-0.002514 0.000219 0.000808
-0.002547 0.000202 0.000838
-0.002579 0.000185 0.000868
-0.00261 0.000169 0.000898
-0.002639 0.000153 0.000927
-0.002665 0.000139 0.000956
-0.002691 0.000125 0.000985
-0.002714 0.000113 0.001013
-0.002742 0.0001 0.001039
-0.002507 0.00027 -0.000289
-0.0025 0.000272 -0.000265
-0.002494 0.000273 -0.000241
-0.002492 0.000272 -0.000216
-0.002914 0.000702 -0.000612
-0.002893 0.000661 -0.00056
-0.002837 0.000609 -0.000502
-0.002726 0.000555 -1.5e-05
-0.002893 0.000443 -0.00056
-0.002682 0.000682 -3.4e-05
-0.002911 0.00056 -0.000736
-0.002945 3.8e-05 0.000151
-0.002947 3.6e-05 0.000176
-0.002947 3.4e-05 0.000201
-0.002946 3.3e-05 0.000226
-0.002944 3.2e-05 0.000251
-0.002941 3.2e-05 0.000275
-0.002937 3.2e-05 0.000299
-0.002933 3.2e-05 0.000324
-0.002927 3.3e-05 0.000348
-0.002921 3.4e-05 0.000372
-0.00291 3.7e-05 0.000395
-0.002893 4.4e-05 0.000417
-0.002863 5.6e-05 0.000438
-0.002821 7.4e-05 0.000456
-0.002769 9.7e-05 0.000473
-0.002424 0.000247 0.00062
-0.002419 0.000247 0.000645
-0.002416 0.000247 0.000669
-0.002418 0.000244 0.000694
-0.002426 0.000239 0.00072
-0.00244 0.00023 0.000747
-0.00247 0.000214 0.000777
-0.002514 0.000192 0.000808
-0.002549 0.000174 0.000839
-0.002581 0.000157 0.000868
-0.00261 0.000141 0.000898
-0.002639 0.000126 0.000927
-0.002665 0.000112 0.000956
-0.002691 9.8e-05 0.000985
-0.002714 8.6e-05 0.001013
-0.00274 7.2e-05 0.001039
-0.002507 0.000243 -0.000289
-0.0025 0.000245 -0.000265
-0.002494 0.000246 -0.000241
-0.002492 0.000245 -0.000216
-0.002912 0.0007 -0.000662
-0.002918 0.000647 -0.000588
-0.002865 0.000594 -0.000531
-0.002714 0.000738 -0.000877
-0.00284 0.000506 4.4e-05
-0.002865 0.000567 -0.000531
-0.002971 0.000669 0.000125
-0.002924 2.2e-05 0.000148
-0.002924 1.9e-05 0.000173
-0.002923 1.8e-05 0.000198
-0.002921 1.7e-05 0.000222
-0.002919 1.7e-05 0.000247
-0.002916 1.6e-05 0.000271
-0.002913 1.6e-05 0.000296
-0.002908 1.7e-05 0.00032
-0.002903 1.7e-05 0.000344
-0.002898 1.8e-05 0.000368
-0.002889 2e-05 0.000392
-0.002876 2.5e-05 0.000415
-0.002854 3.3e-05 0.000436
-0.002424 0.000219 0.00062
-0.002418 0.00022 0.000644
-0.002416 0.000219 0.000669
-0.002418 0.000217 0.000694
-0.002426 0.000211 0.00072
-0.002441 0.000202 0.000748
-0.002469 0.000187 0.000777
-0.002513 0.000165 0.000808
-0.002548 0.000147 0.000838
-0.00258 0.00013 0.000868
-0.002611 0.000114 0.000898
-0.002639 9.9e-05 0.000927
-0.002664 8.5e-05 0.000956
-0.002692 7.1e-05 0.000984
-0.002714 5.9e-05 0.001012
-0.002283 0.000745 -0.00109
-0.0025 0.000218 -0.000265
-0.002494 0.000219 -0.000241
-0.002914 0.0007 -0.000637
-0.002715 0.00071 -0.000878
-0.002563 0.000481 -0.001565
-0.002893 0.000579 -0.00056
-0.002544 0.000634 -9e-05
-0.002098 -2.7e-05 4.8e-05
-0.002537 0.000623 -0.000313
-0.002636 0.000703 -5.3e-05
-0.002928 0.000556 -0.000664
-0.002885 0.000682 -0.000792
-0.00289 1.1e-05 0.000143
-0.002888 9e-06 0.000167
-0.002886 8e-06 0.000192
-0.002884 8e-06 0.000217
-0.00288 8e-06 0.000241
-0.002877 7e-06 0.000265
-0.002874 7e-06 0.00029
-0.00287 7e-06 0.000314
-0.002865 8e-06 0.000338
-0.00286 8e-06 0.000363
-0.002855 9e-06 0.000387
-0.002847 1.2e-05 0.00041
-0.002833 1.6e-05 0.000433
-0.002809 2.6e-05 0.000454
-0.002764 4.5e-05 0.000473
-0.002424 0.000192 0.00062
-0.002419 0.000193 0.000645
-0.002416 0.000192 0.000669
-0.002418 0.000189 0.000694
-0.002425 0.000184 0.00072
-0.00244 0.000176 0.000748
-0.00247 0.00016 0.000777
-0.002513 0.000138 0.000808
-0.002548 0.00012 0.000839
-0.00258 0.000103 0.000868
-0.002611 8.6e-05 0.000898
-0.002639 7.1e-05 0.000927
-0.002664 5.8e-05 0.000956
-0.00269 4.5e-05 0.000983
-0.002936 0.000502 -0.000615
-0.002919 0.000565 -0.000588
-0.002628 0.000527 -0.000893
-0.002343 0.000641 -0.000928
-0.002756 0.000721 -0.000869
-0.002864 0.000648 -0.000531
-0.00293 0.000528 -0.000664
-0.002865 0.000485 -0.000531
-0.002573 0.000427 -0.001542
-0.002796 0.000629 -0.000472
-0.002875 0.000682 -0.000814
-0.002841 8e-06 0.000111
-0.002837 8e-06 0.000135
-0.002833 8e-06 0.000159
-0.002829 8e-06 0.000183
-0.002825 8e-06 0.000208
-0.002822 8e-06 0.000232
-0.002819 8e-06 0.000257
-0.002815 8e-06 0.000281
-0.002811 8e-06 0.000305
-0.002808 8e-06 0.00033
-0.002805 8e-06 0.000354
-0.002801 8e-06 0.000379
-0.002798 7e-06 0.000403
-0.002792 8e-06 0.000427
-0.002781 1.2e-05 0.00045
-0.002753 2.3e-05 0.000471
-0.002424 0.000165 0.00062
-0.002418 0.000166 0.000645
-0.002416 0.000165 0.000669
-0.002418 0.000162 0.000694
-0.002426 0.000157 0.00072
-0.002441 0.000148 0.000748
-0.002473 0.000131 0.000777
-0.002513 0.000111 0.000808
-0.002548 9.2e-05 0.000839
-0.002581 7.5e-05 0.000869
-0.002611 5.9e-05 0.000898
-0.002638 4.5e-05 0.000927
-0.002662 3.2e-05 0.000955
-0.00268 2.1e-05 0.000983
-0.002683 0.000655 -3.4e-05
-0.002495 0.000626 -0.001669
-0.002996 0.000632 0.000172
-0.002837 0.00069 -0.000502
-0.002799 0.000709 -0.000473
-0.002684 0.000736 -3.4e-05
-0.002924 0.000529 -0.000688
-0.002935 0.000473 -0.00064
-0.002939 0.000518 0.000105
-0.002934 0.000555 -0.00064
-0.002794 6e-06 5.4e-05
-0.00279 6e-06 7.8e-05
-0.002786 6e-06 0.000102
-0.002941 0.000681 0.000105
-0.002802 0.000685 2.4e-05
-0.00294 0.000627 0.000105
-0.002772 6e-06 0.0002
-0.002769 5e-06 0.000224
-0.002765 6e-06 0.000249
-0.002762 5e-06 0.000273
-0.002759 5e-06 0.000297
-0.002752 5e-06 0.000346
-0.002747 6e-06 0.00037
-0.002743 6e-06 0.000395
-0.00274 6e-06 0.000419
-0.002737 5e-06 0.000444
-0.002727 8e-06 0.000467
-0.002696 2.1e-05 0.000487
-0.002423 0.000138 0.00062
-0.002419 0.000138 0.000645
-0.002416 0.000138 0.000669
-0.002418 0.000135 0.000694
-0.002426 0.00013 0.00072
-0.00244 0.000121 0.000748
-0.002471 0.000105 0.000777
-0.002514 8.3e-05 0.000808
-0.002549 6.5e-05 0.000839
-0.002583 4.7e-05 0.000869
-0.002609 3.3e-05 0.000898
-0.002633 2e-05 0.000926
-0.002647 1.2e-05 0.000953
-0.002649 9e-06 0.000978
-0.002523 0.000697 -0.000112
-0.002407 0.000715 -0.001253
-0.002909 0.000667 8.4e-05
-0.002865 0.000676 -0.000531
-0.002931 0.000638 -0.000639
-0.002871 0.000515 -0.000839
-0.002935 0.000528 -0.00064
-0.002499 0.000726 -0.000258
-0.002739 7e-06 -2e-06
-0.002749 2e-06 2.2e-05
-0.002745 2e-06 4.6e-05
-0.002742 1e-06 7.1e-05
-0.002498 0.000645 -0.000258
-0.002875 0.000491 6.4e-05
-0.00251 0.000647 -0.000135
-0.002936 0.000418 -0.00064
-0.002727 0.0 0.000193
-0.002723 -0.0 0.000217
-0.00272 -0.0 0.000242
-0.002718 -1e-06 0.000266
-0.002714 -1e-06 0.000291
-0.002711 -1e-06 0.000315
-0.002708 -1e-06 0.00034
-0.002704 -1e-06 0.000364
-0.0027 -1e-06 0.000388
-0.002697 -1e-06 0.000413
-0.002693 -1e-06 0.000437
-0.002687 0.0 0.000461
-0.002671 6e-06 0.000483
-0.002431 0.000109 0.000597
-0.002423 0.000111 0.00062
-0.002419 0.000111 0.000645
-0.002417 0.00011 0.000669
-0.002418 0.000108 0.000694
-0.002426 0.000103 0.00072
-0.00244 9.4e-05 0.000748
-0.002471 7.8e-05 0.000777
-0.002514 5.6e-05 0.000809
-0.002551 3.7e-05 0.000839
-0.002581 2.1e-05 0.000868
-0.0026 1e-05 0.000897
-0.002608 5e-06 0.000922
-0.002605 4e-06 0.000947
-0.002601 4e-06 0.000971
-0.002837 0.000554 -0.000502
-0.002563 0.000508 -0.001565
-0.002875 0.000681 6.4e-05
-0.002928 0.000638 -0.000664
-0.002923 0.000638 -0.000688
-0.002933 0.00061 -0.00064
-0.002765 0.000674 4e-06
-0.002636 0.000648 -5.3e-05
-0.002685 8e-06 -3.8e-05
-0.002703 -2e-06 -1e-05
-0.002702 -4e-06 1.5e-05
-0.002697 -3e-06 3.9e-05
-0.002695 -4e-06 6.4e-05
-0.0021 -2.6e-05 2.4e-05
-0.002765 0.00062 4e-06
-0.002672 -3e-06 0.00021
-0.002669 -3e-06 0.000234
-0.002665 -3e-06 0.000258
-0.002658 -1e-06 0.000282
-0.002657 -3e-06 0.000307
-0.002653 -3e-06 0.000331
-0.002648 -2e-06 0.000355
-0.002644 -2e-06 0.00038
-0.002642 -3e-06 0.000404
-0.002632 -1e-06 0.000453
-0.002626 0.0 0.000477
-0.00243 8.2e-05 0.000597
-0.002423 8.4e-05 0.00062
-0.002418 8.4e-05 0.000645
-0.002416 8.4e-05 0.000669
-0.002417 8.1e-05 0.000694
-0.002425 7.6e-05 0.00072
-0.00244 6.7e-05 0.000748
-0.00247 5.1e-05 0.000777
-0.002516 2.8e-05 0.000809
-0.002548 1.1e-05 0.000839
-0.002563 2e-06 0.000866
-0.002568 -2e-06 0.000891
-0.002567 -3e-06 0.000916
-0.002562 -2e-06 0.00094
-0.002555 -1e-06 0.000964
-0.002284 0.00076 -0.001009
-0.002572 0.000563 -0.001542
-0.002802 0.000712 2.4e-05
-0.002503 0.000733 -0.001377
-0.002756 0.00064 -0.000869
-0.001832 0.0007 -0.002357
-0.002941 0.000654 0.000105
-0.002579 0.00071 -0.000898
-0.002641 2e-06 -4.4e-05
-0.002643 -1e-06 -1.9e-05
-0.002643 -3e-06 6e-06
-0.002636 -1e-06 3e-05
-0.002498 0.000672 -0.000258
-0.002567 0.000647 -0.00154
-0.002536 0.000651 -0.000313
-0.002935 0.000446 -0.00064
-0.002598 1e-06 0.000248
-0.002592 2e-06 0.000272
-0.002589 2e-06 0.000297
-0.002586 2e-06 0.000321
-0.002578 2e-06 0.00037
-0.002575 2e-06 0.000394
-0.002573 1e-06 0.000419
-0.002569 1e-06 0.000443
-0.002565 2e-06 0.000468
-0.002442 5.1e-05 0.000573
-0.00243 5.5e-05 0.000597
-0.002423 5.7e-05 0.00062
-0.002418 5.7e-05 0.000645
-0.002416 5.7e-05 0.000669
-0.002417 5.4e-05 0.000694
-0.002424 4.9e-05 0.00072
-0.00244 4e-05 0.000748
-0.00247 2.4e-05 0.000777
-0.002513 -1e-06 0.000858
-0.00251 -2e-06 0.000883
-0.002506 -2e-06 0.000907
-0.002505 -3e-06 0.000932
-0.002372 0.00063 -0.00121
-0.00294 0.0006 0.000105
-0.002765 0.000728 4e-06
-0.002478 0.000723 -0.001338
-0.002983 0.000694 0.000199
-0.002982 0.000693 0.000174
-0.002507 4.2e-05 -0.000139
-0.00237 0.00066 -0.000913
-0.002545 0.000688 -9e-05
-0.002469 0.000688 -0.001685
-0.002571 0.000433 -0.001514
-0.002552 4e-06 0.000117
-0.002549 4e-06 0.000141
-0.002298 0.000651 -0.001123
-0.002803 0.00063 2.4e-05
-0.002527 6e-06 0.000262
-0.002526 5e-06 0.000287
-0.002522 5e-06 0.000312
-0.002519 4e-06 0.000336
-0.002516 4e-06 0.00036
-0.002512 4e-06 0.000385
-0.002508 4e-06 0.000409
-0.002504 5e-06 0.000433
-0.0025 4e-06 0.000458
-0.00243 2.8e-05 0.000597
-0.002422 3e-05 0.00062
-0.002418 3e-05 0.000645
-0.002416 2.9e-05 0.000669
-0.002417 2.7e-05 0.000694
-0.002425 2.1e-05 0.00072
-0.002439 1.3e-05 0.000747
-0.002456 3e-06 0.000775
-0.002444 4e-06 0.000848
-0.002443 2e-06 0.000873
-0.002444 1e-06 0.000898
-0.00258 0.000619 -7e-05
-0.002839 0.000642 4.4e-05
-0.002839 0.000697 4.4e-05
-0.002754 0.000732 -0.000442
-0.002978 0.000695 0.000149
-0.002627 0.000718 -0.000892
-0.002503 1.7e-05 -0.000138
-0.002524 6e-06 -0.000112
-0.002996 0.000468 0.000147
-0.002528 0.0 -6.1e-05
-0.00252 2e-06 -3.7e-05
-0.002516 2e-06 -1.3e-05
-0.002892 0.000471 -0.00056
-0.002902 0.000488 -0.000772
-0.002562 0.000454 -0.001565
-0.002504 0.0 8.5e-05
-0.002501 1e-06 0.000109
-0.002496 2e-06 0.000133
-0.002493 1e-06 0.000158
-0.002489 1e-06 0.000182
-0.002499 0.000699 -0.000258
-0.002924 0.000475 -0.000688
-0.002285 0.000677 -0.00101
-0.002477 1e-06 0.00028
-0.002474 0.0 0.000304
-0.00247 1e-06 0.000329
-0.002466 0.0 0.000353
-0.002463 0.0 0.000377
-0.002459 1e-06 0.000402
-0.002455 0.0 0.000426
-0.002451 0.0 0.00045
-0.002447 1e-06 0.000475
-0.00243 4e-06 0.000571
-0.002422 5e-06 0.000595
-0.002417 5e-06 0.00062
-0.002413 5e-06 0.000644
-0.00241 5e-06 0.000668
-0.002409 3e-06 0.000693
-0.002407 2e-06 0.000718
-0.002403 3e-06 0.000742
-0.002382 4e-06 0.000863
-0.002379 4e-06 0.000888
-0.002375 4e-06 0.000912
-0.00294 0.000545 0.000105
-0.002918 0.00053 -0.000712
-0.002683 0.00071 -3.4e-05
-0.001125 0.000638 -0.002492
-0.002549 0.000483 -0.001586
-0.002571 0.000569 -0.001514
-0.002523 0.000724 -0.000112
-0.002477 -3e-06 -6.9e-05
-0.002475 -4e-06 -4.4e-05
-0.002474 -5e-06 -2e-05
-0.002471 -5e-06 5e-06
-0.002715 0.000656 -0.000878
-0.002465 -5e-06 5.4e-05
-0.002463 -6e-06 7.8e-05
-0.002459 -6e-06 0.000103
-0.002457 -7e-06 0.000127
-0.002454 -7e-06 0.000152
-0.002277 0.000671 -0.00106
-0.00284 0.000615 4.4e-05
-0.002445 -8e-06 0.000225
-0.002442 -8e-06 0.00025
-0.002439 -9e-06 0.000274
-0.002436 -9e-06 0.000299
-0.002433 -9e-06 0.000323
