-0.001126 2.2e-05 -0.002538
-0.001127 3.9e-05 -0.002495
-0.001124 5.9e-05 -0.002445
-0.001121 7.8e-05 -0.002397
-0.001119 9.8e-05 -0.002348
-0.001119 0.000115 -0.002304
-0.001127 0.000126 -0.002272
-0.001141 0.000131 -0.002248
-0.001159 0.000134 -0.002229
-0.001178 0.000135 -0.002214
-0.000198 0.000702 -0.002864
-0.001119 0.000632 -0.002677
-0.00038 0.000779 -0.002452
6.7e-05 0.000502 -0.002993
-0.000961 0.000668 -0.00283
-0.001359 8.6e-05 -0.00222
-0.001417 5.5e-05 -0.002264
-0.001468 2.9e-05 -0.002295
-0.001511 1e-05 -0.002316
-0.001544 -1e-06 -0.002322
-0.00157 -5e-06 -0.002316
-0.001611 -5e-06 -0.002289
-0.001631 -5e-06 -0.002275
-0.001671 -4e-06 -0.002246
-0.001693 -5e-06 -0.002234
-0.001713 -5e-06 -0.00222
-0.000959 -3e-06 -0.002643
-0.000981 -4e-06 -0.00263
-0.001001 -3e-06 -0.002616
-0.001021 -3e-06 -0.002602
-0.001041 -3e-06 -0.002588
-0.001062 -3e-06 -0.002575
-0.001082 -3e-06 -0.002561
-0.001102 -2e-06 -0.002546
-0.001118 2e-06 -0.002525
-0.001125 1.4e-05 -0.002491
-0.001125 3.1e-05 -0.002447
-0.001122 5.1e-05 -0.002397
-0.001119 7.1e-05 -0.002348
-0.001119 8.8e-05 -0.002303
-0.001127 9.9e-05 -0.002271
-0.001141 0.000104 -0.002248
-0.001158 0.000107 -0.002229
-0.001178 0.000108 -0.002214
-0.000839 0.00062 -0.002852
4.2e-05 0.000502 -0.002993
-0.001144 0.000737 -0.002252
-0.001009 0.000504 -0.002817
0.00037 0.000684 -0.002489
-0.001464 5e-06 -0.002289
-0.001495 -3e-06 -0.002292
-0.001517 -5e-06 -0.002281
-0.001537 -4e-06 -0.002266
-0.001558 -5e-06 -0.002254
-0.001578 -4e-06 -0.002239
-0.001598 -4e-06 -0.002225
-0.000927 -3e-06 -0.002594
-0.000948 -3e-06 -0.002581
-0.000969 -4e-06 -0.002569
-0.00099 -4e-06 -0.002555
-0.001011 -4e-06 -0.002543
-0.001032 -5e-06 -0.00253
-0.001053 -5e-06 -0.002516
-0.001074 -6e-06 -0.002504
-0.001096 -6e-06 -0.002492
-0.001113 -4e-06 -0.002474
-0.001123 5e-06 -0.002444
-0.001123 2.3e-05 -0.002398
-0.001118 4.5e-05 -0.002346
-0.001119 6.1e-05 -0.002304
-0.001127 7.2e-05 -0.002271
-0.001141 7.7e-05 -0.002247
-0.001158 8e-05 -0.002229
-0.001178 8.1e-05 -0.002214
-0.000653 0.000728 -0.002666
-0.000458 0.000769 -0.002452
9.2e-05 0.000612 -0.002991
-0.001448 -8e-06 -0.002265
-0.001472 -1.1e-05 -0.002257
-0.001492 -1.1e-05 -0.002243
-0.001513 -1.1e-05 -0.00223
-0.001535 -1.2e-05 -0.002218
-0.001555 -1.2e-05 -0.002204
-0.001574 -1e-05 -0.002188
-0.001717 -9e-06 -0.002092
-0.001737 -9e-06 -0.002077
-0.001757 -8e-06 -0.002063
-0.000902 -8e-06 -0.002556
-0.000924 -1e-05 -0.002544
-0.000945 -1.1e-05 -0.002532
-0.000268 0.000642 -0.002673
-0.000255 0.000625 -0.002715
-0.000986 0.000503 -0.002826
-0.000892 0.000584 -0.002856
-0.001068 -1e-05 -0.00245
-0.001088 -1e-05 -0.002435
-0.001105 -7e-06 -0.002417
-0.001118 -1e-06 -0.002392
-0.00112 1.6e-05 -0.00235
-0.001118 3.4e-05 -0.002303
-0.001127 4.5e-05 -0.002271
-0.001141 5e-05 -0.002247
-0.001158 5.3e-05 -0.002228
-0.001178 5.4e-05 -0.002213
-0.001199 5.3e-05 -0.002201
-0.000356 0.000781 -0.002455
-0.000365 0.000685 -0.002486
-0.001384 -2.7e-05 -0.001587
-0.001364 -2.7e-05 -0.001601
-0.001642 -8e-06 -0.002067
-0.001662 -8e-06 -0.002053
-0.001683 -8e-06 -0.00204
-0.001705 -9e-06 -0.002028
-0.001725 -9e-06 -0.002014
-0.001791 -1.2e-05 -0.00198
-0.00181 -1.1e-05 -0.001964
-0.001344 -2.8e-05 -0.001616
-0.00087 -9e-06 -0.002508
-0.000888 -7e-06 -0.002491
-0.000909 -7e-06 -0.002477
-0.001324 -2.9e-05 -0.001631
-0.000617 0.000648 -0.002612
-0.001077 0.000589 -0.002789
-0.001205 0.000725 -0.0022
-0.001162 0.000718 -0.002228
-0.001071 -5e-06 -0.002365
-0.001091 -5e-06 -0.002351
-0.001111 -4e-06 -0.002335
-0.001119 6e-06 -0.002304
-0.001127 1.8e-05 -0.00227
-0.00114 2.3e-05 -0.002246
-0.001158 2.6e-05 -0.002228
-0.001177 2.7e-05 -0.002213
-0.001199 2.6e-05 -0.002201
-0.001009 0.000585 -0.002818
-0.000268 0.000696 -0.002672
-0.000465 0.000704 -0.002473
-0.001343 -9e-06 -0.002196
-0.001363 -8e-06 -0.002181
-0.001381 -6e-06 -0.002164
-0.001401 -6e-06 -0.002149
-0.00142 -4e-06 -0.002134
-0.001442 -5e-06 -0.002122
-0.001462 -5e-06 -0.002108
-0.001586 -6e-06 -0.002028
-0.001607 -6e-06 -0.002015
-0.001628 -6e-06 -0.002002
-0.001649 -6e-06 -0.001988
-0.00167 -7e-06 -0.001976
-0.001731 -6e-06 -0.001934
-0.001752 -6e-06 -0.001921
-0.001772 -6e-06 -0.001906
-0.001794 -7e-06 -0.001895
-0.001304 -2.9e-05 -0.001645
-0.000832 -4e-06 -0.00245
-0.000853 -5e-06 -0.002438
-0.000875 -5e-06 -0.002425
-0.000292 0.000651 -0.002583
-0.000323 0.000704 -0.002517
-0.000216 0.000577 -0.002834
-0.000215 0.000659 -0.002834
-0.001252 0.000726 -0.002184
-0.001039 -5e-06 -0.002316
-0.001059 -5e-06 -0.002302
-0.00108 -5e-06 -0.002289
-0.001102 -6e-06 -0.002278
-0.001122 -5e-06 -0.002263
-0.001139 -2e-06 -0.002244
-0.001156 -0.0 -0.002226
-0.001176 1e-06 -0.002211
-0.001197 0.0 -0.002198
-0.000839 0.000593 -0.002853
-0.000242 0.000663 -0.002755
-0.001118 0.000578 -0.002677
-0.001078 0.000534 -0.00279
-0.001309 -8e-06 -0.002145
-0.001329 -7e-06 -0.00213
-0.001349 -7e-06 -0.002116
-0.00137 -7e-06 -0.002103
-0.001391 -6e-06 -0.002089
-0.001411 -6e-06 -0.002075
-0.001431 -7e-06 -0.002061
-0.001555 -7e-06 -0.001981
-0.001576 -7e-06 -0.001968
-0.001597 -7e-06 -0.001954
-0.001617 -6e-06 -0.00194
-0.001637 -6e-06 -0.001925
-0.001658 -6e-06 -0.001912
-0.001679 -7e-06 -0.0019
-0.001697 -5e-06 -0.001883
-0.001719 -5e-06 -0.001871
-0.001284 -2.9e-05 -0.001659
-0.000801 -5e-06 -0.002403
-0.000823 -6e-06 -0.002391
-0.000844 -6e-06 -0.002378
-0.000865 -7e-06 -0.002365
-0.000281 0.000632 -0.002629
-0.000804 0.000611 -0.002823
-0.00103 0.000671 -0.002802
0.000879 0.000419 -0.002863
-0.001277 0.000723 -0.002182
-0.001096 0.000486 -0.002768
-0.00091 0.000701 -0.002831
-0.001033 -1e-05 -0.002263
-0.001055 -1.1e-05 -0.002251
-0.001076 -1.1e-05 -0.002239
-0.001098 -1.2e-05 -0.002227
-0.001119 -1.3e-05 -0.002214
-0.00114 -1.3e-05 -0.002201
-0.00116 -1.3e-05 -0.002187
-0.001182 -1.3e-05 -0.002175
-0.000867 0.000585 -0.00286
-0.000256 0.000679 -0.002716
-0.001078 0.000506 -0.00279
-0.00073 0.000573 -0.002747
-0.001055 0.000532 -0.0028
-0.001308 -1.6e-05 -0.002098
-0.001327 -1.5e-05 -0.002082
-0.001348 -1.5e-05 -0.002069
-0.001369 -1.6e-05 -0.002056
-0.001389 -1.5e-05 -0.002042
-0.001409 -1.5e-05 -0.002028
-0.00143 -1.4e-05 -0.002014
-0.001451 -1.4e-05 -0.002001
-0.001471 -1.5e-05 -0.001987
-0.001491 -1.4e-05 -0.001973
-0.001512 -1.4e-05 -0.001959
-0.001532 -1.4e-05 -0.001945
-0.001552 -1.3e-05 -0.001931
-0.001572 -1.3e-05 -0.001917
-0.001592 -1.3e-05 -0.001903
-0.001612 -1.2e-05 -0.001888
-0.001632 -1.2e-05 -0.001874
-0.001652 -1.1e-05 -0.001859
-0.001673 -1.1e-05 -0.001846
-0.001692 -1e-05 -0.00183
-0.001264 -3e-05 -0.001673
-0.000776 -1.1e-05 -0.002365
-0.000797 -1.2e-05 -0.002352
-0.000819 -1.3e-05 -0.002341
-0.000841 -1.4e-05 -0.002329
-0.001276 0.000751 -0.002181
-0.001304 0.000745 -0.002185
-0.000958 0.0007 -0.00282
-0.000926 -1.5e-05 -0.00228
-0.000946 -1.5e-05 -0.002265
-0.000967 -1.6e-05 -0.002252
-0.000988 -1.6e-05 -0.002239
-0.001009 -1.7e-05 -0.002226
-0.001029 -1.6e-05 -0.002212
-0.001049 -1.6e-05 -0.002198
-0.001069 -1.5e-05 -0.002183
-0.001089 -1.5e-05 -0.002169
-0.001119 0.000605 -0.002677
-0.00133 0.00071 -0.002198
-0.000868 0.000449 -0.002862
-0.00073 0.000546 -0.002748
-0.000413 0.00071 -0.002474
-0.000438 0.000708 -0.002472
-0.001244 -3e-05 -0.001688
-0.001296 -1.6e-05 -0.002035
-0.001316 -1.6e-05 -0.002021
-0.001337 -1.6e-05 -0.002008
-0.001357 -1.5e-05 -0.001994
-0.001379 -1.6e-05 -0.001982
-0.001399 -1.5e-05 -0.001968
-0.00142 -1.6e-05 -0.001955
-0.00144 -1.6e-05 -0.001941
-0.00146 -1.5e-05 -0.001926
-0.001481 -1.6e-05 -0.001913
-0.001501 -1.5e-05 -0.001899
-0.001585 -1.6e-05 -0.001847
-0.001605 -1.6e-05 -0.001833
-0.001625 -1.5e-05 -0.001818
-0.001646 -1.6e-05 -0.001805
-0.00171 -1.7e-05 -0.001768
-0.00173 -1.7e-05 -0.001753
-0.00179 -1.5e-05 -0.001709
-0.00181 -1.5e-05 -0.001695
-0.001829 -1.4e-05 -0.00168
-0.000769 -1.5e-05 -0.00231
-0.00079 -1.5e-05 -0.002296
-0.000811 -1.6e-05 -0.002284
-0.000934 0.0007 -0.002826
-0.000873 -1.6e-05 -0.002243
-0.000892 -1.5e-05 -0.002228
-0.000912 -1.4e-05 -0.002214
-0.000932 -1.4e-05 -0.002199
-0.000952 -1.3e-05 -0.002185
-0.000974 -1.3e-05 -0.002173
-0.000995 -1.4e-05 -0.00216
-0.001013 -1.3e-05 -0.002143
-0.001035 -1.4e-05 -0.002132
-0.001055 -1.3e-05 -0.002118
-0.000939 0.000502 -0.002842
-0.000962 0.000503 -0.002834
-0.001136 -1.2e-05 -0.002062
-0.001157 -1.2e-05 -0.002048
-0.000439 0.000735 -0.002473
-0.000366 0.000738 -0.002488
-0.001259 -1.1e-05 -0.001978
-0.001279 -1.2e-05 -0.001965
-0.001301 -1.2e-05 -0.001953
-0.00132 -1.1e-05 -0.001937
-0.001384 -1.2e-05 -0.0019
-0.001404 -1.2e-05 -0.001885
-0.001425 -1.3e-05 -0.001873
-0.00155 -1.3e-05 -0.001794
-0.001571 -1.4e-05 -0.00178
-0.001632 -1.4e-05 -0.001739
-0.001652 -1.3e-05 -0.001725
-0.001674 -1.4e-05 -0.001713
-0.001736 -1.4e-05 -0.001673
-0.001757 -1.5e-05 -0.001661
-0.001779 -1.6e-05 -0.001648
-0.001798 -1.5e-05 -0.001633
-0.000715 -1.3e-05 -0.002272
-0.000735 -1.3e-05 -0.002258
-0.000757 -1.5e-05 -0.002247
-0.000776 -1.3e-05 -0.00223
-0.000796 -1.3e-05 -0.002217
-0.000836 -1.2e-05 -0.002187
-0.000854 -1e-05 -0.00217
-0.000873 -8e-06 -0.002154
-0.000893 -8e-06 -0.00214
-0.000915 -9e-06 -0.002128
-0.000935 -8e-06 -0.002114
-0.000963 0.000475 -0.002834
-0.000804 0.000502 -0.002823
-0.001037 -8e-06 -0.002045
-0.001057 -8e-06 -0.002031
-0.001078 -8e-06 -0.002018
-0.001098 -7e-06 -0.002003
-0.00112 -8e-06 -0.001991
-0.000414 0.000737 -0.002475
-0.000389 0.000739 -0.002479
-0.00118 -7e-06 -0.001949
-0.0012 -6e-06 -0.001934
-0.001221 -7e-06 -0.001922
-0.001243 -8e-06 -0.00191
-0.001264 -8e-06 -0.001896
-0.001284 -7e-06 -0.001882
-0.001366 -8e-06 -0.001829
-0.001387 -8e-06 -0.001815
-0.001407 -7e-06 -0.001801
-0.001223 -3e-05 -0.001701
-0.001595 -9e-06 -0.001683
-0.001616 -1e-05 -0.00167
-0.001698 -1e-05 -0.001616
-0.00172 -1.1e-05 -0.001605
-0.001744 -1.3e-05 -0.001595
-0.001765 -1.4e-05 -0.001583
-0.001785 -1.3e-05 -0.001568
-0.000677 -9e-06 -0.002215
-0.000698 -9e-06 -0.002202
-0.001203 -3e-05 -0.001715
-0.00082 -7e-06 -0.002119
-0.000839 -7e-06 -0.002103
-0.00086 -7e-06 -0.00209
-0.00088 -6e-06 -0.002075
-0.0009 -6e-06 -0.002061
-0.000921 -6e-06 -0.002048
-0.000804 0.000693 -0.002822
-0.001055 0.000505 -0.0028
-0.000388 0.000685 -0.002478
-0.001003 -6e-06 -0.001994
-0.001023 -6e-06 -0.001979
-0.001044 -6e-06 -0.001966
-0.001064 -5e-06 -0.001951
-0.000366 0.000712 -0.002487
-0.001127 -7e-06 -0.001913
-0.001148 -7e-06 -0.0019
-0.001168 -7e-06 -0.001886
-0.001189 -7e-06 -0.001873
-0.001209 -7e-06 -0.001859
-0.00123 -7e-06 -0.001845
-0.00125 -7e-06 -0.001832
-0.001271 -7e-06 -0.001818
-0.001291 -6e-06 -0.001804
-0.001313 -7e-06 -0.001792
-0.001333 -7e-06 -0.001777
-0.001353 -6e-06 -0.001763
-0.001374 -6e-06 -0.00175
-0.001558 -6e-06 -0.001628
-0.00158 -7e-06 -0.001616
-0.001663 -7e-06 -0.001563
-0.001684 -8e-06 -0.00155
-0.001705 -8e-06 -0.001536
-0.001182 -3.1e-05 -0.001729
-0.000663 -7e-06 -0.002149
-0.000684 -7e-06 -0.002137
-0.001304 0.000718 -0.002185
-0.000768 0.000712 -0.00279
-0.000745 -7e-06 -0.002095
-0.000765 -6e-06 -0.00208
-0.000787 -7e-06 -0.002069
-0.000808 -7e-06 -0.002055
-0.000829 -8e-06 -0.002043
-0.000849 -8e-06 -0.002028
-0.00087 -8e-06 -0.002016
-0.000891 -9e-06 -0.002003
-0.000836 0.000679 -0.002843
-0.000933 -9e-06 -0.001978
-0.000954 -1e-05 -0.001964
-0.000975 -1e-05 -0.001951
-0.000995 -9e-06 -0.001937
-0.001016 -1e-05 -0.001924
-0.001038 -1.1e-05 -0.001912
-0.000981 0.0007 -0.002811
0.00059 0.000646 -0.002574
-0.001055 0.000614 -0.002799
-0.00112 -1.1e-05 -0.001858
-0.001141 -1.1e-05 -0.001845
-0.001162 -1.1e-05 -0.001832
-0.001182 -1.1e-05 -0.001818
-0.001203 -1.1e-05 -0.001804
-0.001224 -1.1e-05 -0.001791
-0.001244 -1.1e-05 -0.001778
-0.001265 -1.1e-05 -0.001764
-0.001285 -1.1e-05 -0.00175
-0.001305 -1.1e-05 -0.001736
-0.001326 -1e-05 -0.001722
-0.001346 -1e-05 -0.001708
-0.001367 -1.1e-05 -0.001695
-0.001529 -8e-06 -0.001583
-0.001549 -7e-06 -0.001568
-0.001569 -7e-06 -0.001554
-0.001631 -7e-06 -0.001514
-0.001651 -7e-06 -0.001499
-0.001671 -6e-06 -0.001485
-0.000306 0.000695 -0.002543
-0.001096 0.000514 -0.002768
-0.000654 -9e-06 -0.002092
-0.000938 0.000668 -0.002837
-0.000913 0.000668 -0.002843
-0.000717 -1.1e-05 -0.002053
-0.000739 -1.1e-05 -0.002041
-0.00076 -1.2e-05 -0.002028
-0.000782 -1.2e-05 -0.002016
-0.000804 -1.3e-05 -0.002004
-0.000916 0.000584 -0.00285
-0.000963 0.000584 -0.002835
-0.000891 0.00064 -0.002853
-0.000866 0.000642 -0.002856
-0.000909 -1.6e-05 -0.001941
-0.000931 -1.6e-05 -0.001929
-0.000952 -1.7e-05 -0.001917
-0.000973 -1.8e-05 -0.001904
-0.000994 -1.8e-05 -0.001891
-0.001015 -1.8e-05 -0.001877
-0.001036 -1.8e-05 -0.001864
-0.001057 -1.9e-05 -0.001852
-0.001078 -1.9e-05 -0.001838
-0.001098 -1.9e-05 -0.001824
-0.001119 -1.9e-05 -0.001811
-0.00114 -2e-05 -0.001799
-0.001161 -2e-05 -0.001785
-0.001181 -2e-05 -0.001772
-0.001201 -1.9e-05 -0.001757
-0.001222 -1.9e-05 -0.001744
-0.001243 -1.9e-05 -0.001731
-0.001262 -1.9e-05 -0.001716
-0.001283 -1.9e-05 -0.001702
-0.001304 -1.9e-05 -0.001689
-0.001324 -1.9e-05 -0.001675
-0.001344 -1.8e-05 -0.00166
-0.001364 -1.8e-05 -0.001647
-0.001384 -1.7e-05 -0.001632
-0.001405 -1.7e-05 -0.001618
-0.001602 -1.1e-05 -0.00147
-0.001622 -1e-05 -0.001456
-0.001642 -9e-06 -0.001442
-0.000292 0.000678 -0.002584
-0.000916 0.000475 -0.002849
-0.001332 0.000737 -0.002195
-0.00013 0.000508 -0.002977
-0.000242 0.000609 -0.002755
-0.001032 0.000504 -0.002809
-0.001206 0.00075 -0.002204
-0.001129 0.000572 -0.002628
-0.001163 0.000744 -0.002231
-0.000465 0.000731 -0.002474
0.000395 0.000689 -0.002479
-0.000292 0.000705 -0.002584
-0.000691 0.000597 -0.002706
-0.000492 0.000738 -0.002479
-0.000864 0.000673 -0.002849
-0.00091 -2.7e-05 -0.001898
-0.000932 -2.7e-05 -0.001886
-0.000953 -2.8e-05 -0.001873
-0.000974 -2.9e-05 -0.001861
-0.000996 -3e-05 -0.001849
-0.001017 -3e-05 -0.001836
-0.001038 -3e-05 -0.001822
-0.001058 -3e-05 -0.001809
-0.001079 -3e-05 -0.001796
-0.0011 -3.1e-05 -0.001783
-0.001121 -3e-05 -0.001769
-0.001141 -3e-05 -0.001755
-0.001162 -3.1e-05 -0.001742
-0.000963 0.000448 -0.002834
-0.000986 0.000449 -0.002826
-0.001009 0.000449 -0.002818
-0.001032 0.00045 -0.002809
-0.001055 0.00045 -0.002801
-0.001078 0.000452 -0.00279
-0.001095 0.000459 -0.002767
-0.001142 0.000684 -0.00225
-0.001162 0.000691 -0.002228
-0.001183 0.000695 -0.002212
-0.001205 0.000697 -0.002201
-0.001252 0.000698 -0.002185
-0.001277 0.000696 -0.002183
-0.001303 0.000691 -0.002185
-0.001332 0.000683 -0.002194
-0.000617 0.000702 -0.002613
-0.000215 0.000523 -0.002833
-0.000229 0.000539 -0.002795
-0.000242 0.000555 -0.002754
-0.000255 0.000571 -0.002714
-0.000268 0.000587 -0.002673
-0.000281 0.000605 -0.002629
-0.000292 0.000624 -0.002584
-0.000306 0.00064 -0.002543
-0.000323 0.00065 -0.002517
-0.000344 0.000655 -0.002499
-0.000365 0.000657 -0.002486
-0.000389 0.000658 -0.002478
-0.000413 0.000656 -0.002473
0.000164 0.000699 -0.00292
1.8e-05 0.000638 -0.002993
-3.2e-05 0.000583 -0.002993
-0.000202 0.000532 -0.002868
-0.000567 0.000681 -0.002542
-0.000654 0.000539 -0.002663
-0.000692 0.000514 -0.002708
-0.00073 0.000491 -0.002747
-0.000768 0.000468 -0.002788
-0.000803 0.000449 -0.00282
-0.000839 0.00043 -0.002851
-0.000868 0.000421 -0.002862
-0.000892 0.000421 -0.002856
-0.000916 0.000421 -0.002849
-0.000939 0.000421 -0.002841
-0.000962 0.000421 -0.002833
-0.000986 0.000422 -0.002825
-0.001009 0.000422 -0.002817
-0.001032 0.000423 -0.002809
-0.001055 0.000423 -0.0028
-0.001078 0.000425 -0.00279
-0.001094 0.000433 -0.002766
-0.001162 0.000664 -0.002228
-0.001183 0.000668 -0.002212
-0.001205 0.00067 -0.002201
-0.001228 0.000672 -0.002191
-0.001252 0.000671 -0.002185
-0.001277 0.000669 -0.002182
-0.001303 0.000664 -0.002184
-0.001332 0.000656 -0.002194
-0.000198 0.000485 -0.002862
-0.000215 0.000496 -0.002833
-0.000228 0.000512 -0.002793
-0.000242 0.000527 -0.002755
-0.000255 0.000543 -0.002715
-0.000268 0.000561 -0.002671
-0.00028 0.000578 -0.002629
-0.000292 0.000597 -0.002584
-0.000306 0.000612 -0.002545
-0.000323 0.000623 -0.002516
-0.000344 0.000628 -0.002499
-0.000365 0.00063 -0.002486
-0.000389 0.000631 -0.002478
-0.000413 0.000629 -0.002473
-7e-06 0.000666 -0.00299
4.2e-05 0.00061 -0.002994
0.000166 0.000591 -0.002921
0.000166 0.000536 -0.002921
0.00019 0.000641 -0.002864
-0.000653 0.000512 -0.002664
-0.000691 0.000488 -0.002707
-0.00073 0.000464 -0.002747
-0.000768 0.000441 -0.002788
-0.000804 0.000422 -0.00282
-0.000839 0.000402 -0.002853
-0.000868 0.000394 -0.002862
-0.000892 0.000393 -0.002857
-0.000916 0.000394 -0.002849
-0.000939 0.000394 -0.002842
-0.000963 0.000394 -0.002834
-0.000986 0.000394 -0.002826
-0.001009 0.000395 -0.002817
-0.001032 0.000395 -0.002809
-0.001055 0.000396 -0.002801
-0.001078 0.000397 -0.002791
-0.001205 0.000643 -0.0022
-0.001228 0.000644 -0.002191
-0.001252 0.000644 -0.002185
-0.001276 0.000642 -0.002182
-0.001303 0.000637 -0.002185
-0.001332 0.000629 -0.002194
-0.000198 0.000458 -0.002862
-0.000215 0.000469 -0.002833
-0.000229 0.000484 -0.002795
-0.000242 0.0005 -0.002754
-0.000255 0.000517 -0.002713
-0.000268 0.000534 -0.00267
-0.00028 0.000551 -0.002628
-0.000292 0.00057 -0.002583
-0.000306 0.000585 -0.002545
-0.000323 0.000595 -0.002517
-0.000344 0.0006 -0.002499
-0.000365 0.000603 -0.002486
-0.000389 0.000604 -0.002478
-0.000413 0.000602 -0.002473
-8.1e-05 0.000639 -0.002989
-3.2e-05 0.00061 -0.002994
0.000293 0.000697 -0.002589
0.000344 0.000676 -0.002505
0.000542 0.000678 -0.002505
-0.000653 0.000485 -0.002661
-0.000692 0.00046 -0.002708
-0.00073 0.000437 -0.002748
-0.000768 0.000414 -0.002788
-0.000804 0.000395 -0.00282
-0.000839 0.000375 -0.002852
-0.000868 0.000367 -0.002863
-0.000893 0.000366 -0.002857
-0.000916 0.000366 -0.00285
-0.000939 0.000366 -0.002842
-0.000963 0.000367 -0.002834
-0.000986 0.000367 -0.002826
-0.001009 0.000367 -0.002818
-0.001033 0.000368 -0.00281
-0.001056 0.000369 -0.002801
-0.001078 0.00037 -0.002791
-0.001205 0.000616 -0.0022
-0.001228 0.000618 -0.00219
-0.001252 0.000617 -0.002185
-0.001277 0.000615 -0.002182
-0.001303 0.00061 -0.002185
-0.001332 0.000601 -0.002194
-0.000201 0.000431 -0.002863
-0.000215 0.000442 -0.002834
-0.000229 0.000456 -0.002796
-0.000242 0.000473 -0.002754
-0.000255 0.000489 -0.002714
-0.000268 0.000506 -0.002672
-0.00028 0.000524 -0.002628
-0.000293 0.000542 -0.002584
-0.000306 0.000558 -0.002544
-0.000324 0.000568 -0.002517
-0.000344 0.000573 -0.002499
-0.000366 0.000576 -0.002486
-0.000389 0.000576 -0.002478
-0.000413 0.000575 -0.002473
0.000116 0.000615 -0.002985
-5.6e-05 0.000584 -0.002992
-7e-06 0.000556 -0.002993
0.000189 0.000533 -0.00287
6.7e-05 0.000702 -0.002972
-0.000691 0.000433 -0.002707
-0.00073 0.000409 -0.002748
-0.000768 0.000386 -0.002788
-0.000804 0.000367 -0.002822
-0.000839 0.000348 -0.002852
-0.000868 0.00034 -0.002862
-0.000892 0.000339 -0.002857
-0.000916 0.000339 -0.002849
-0.000939 0.000339 -0.002842
-0.000963 0.000339 -0.002834
-0.000986 0.00034 -0.002826
-0.001009 0.00034 -0.002818
-0.001033 0.000341 -0.00281
-0.001056 0.000341 -0.002801
-0.001078 0.000343 -0.002791
-0.001205 0.000589 -0.0022
-0.001228 0.00059 -0.00219
-0.001252 0.00059 -0.002185
-0.001277 0.000587 -0.002182
-0.001303 0.000582 -0.002185
-0.001332 0.000574 -0.002195
-0.000198 0.000404 -0.002862
-0.000215 0.000415 -0.002832
-0.000229 0.000429 -0.002797
-0.000242 0.000446 -0.002754
-0.000255 0.000462 -0.002714
-0.000268 0.000479 -0.002673
-0.00028 0.000497 -0.002628
-0.000293 0.000515 -0.002585
-0.000307 0.000531 -0.002545
-0.000324 0.000541 -0.002517
-0.000344 0.000546 -0.002499
-0.000366 0.000549 -0.002487
-0.000389 0.000549 -0.002478
4.2e-05 0.000667 -0.002988
6.7e-05 0.000611 -0.002993
-0.00013 0.00059 -0.002977
-0.000178 0.000595 -0.002908
-0.000178 0.000568 -0.002908
-0.000692 0.000405 -0.002708
-0.00073 0.000382 -0.002748
-0.000768 0.000359 -0.002788
-0.000804 0.000339 -0.002822
-0.000839 0.000321 -0.002852
-0.000868 0.000313 -0.002862
-0.000892 0.000312 -0.002857
-0.000916 0.000312 -0.00285
-0.000939 0.000312 -0.002842
-0.000963 0.000312 -0.002834
-0.000986 0.000313 -0.002826
-0.001009 0.000313 -0.002818
-0.001032 0.000314 -0.00281
-0.001056 0.000314 -0.002801
-0.001078 0.000316 -0.002791
-0.001095 0.000323 -0.002767
-0.001228 0.000563 -0.00219
-0.001252 0.000563 -0.002185
-0.001277 0.00056 -0.002182
-0.001303 0.000555 -0.002185
-0.00133 0.000547 -0.002197
-0.000198 0.000377 -0.002861
-0.000215 0.000387 -0.002834
-0.000229 0.000402 -0.002797
-0.000242 0.000419 -0.002753
-0.000255 0.000435 -0.002714
-0.000268 0.000452 -0.002673
-0.000281 0.000469 -0.002629
-0.000292 0.000488 -0.002583
-0.000307 0.000504 -0.002545
-0.000324 0.000514 -0.002517
-0.000344 0.000519 -0.002499
-0.000366 0.000521 -0.002487
-0.000389 0.000522 -0.002478
0.000141 0.000683 -0.002956
-0.00013 0.000646 -0.002973
-8.1e-05 0.000584 -0.002991
-0.000202 0.000613 -0.002868
0.000995 0.000669 -0.00282
-8.1e-05 0.000702 -0.002971
-0.000692 0.000378 -0.002708
-0.00073 0.000355 -0.002748
-0.000768 0.000332 -0.002788
-0.000804 0.000312 -0.002823
-0.000839 0.000294 -0.002852
-0.000868 0.000285 -0.002862
-0.000892 0.000285 -0.002856
-0.000916 0.000285 -0.002849
-0.000939 0.000285 -0.002841
-0.000963 0.000285 -0.002834
-0.000986 0.000286 -0.002826
-0.001009 0.000286 -0.002817
-0.001032 0.000287 -0.002809
-0.001056 0.000287 -0.002801
-0.001078 0.000289 -0.002791
-0.001096 0.000296 -0.002768
-0.001228 0.000536 -0.00219
-0.001252 0.000536 -0.002184
-0.001277 0.000533 -0.002182
-0.001303 0.000528 -0.002185
-0.001332 0.00052 -0.002194
-0.000105 0.000706 -0.002962
-0.000215 0.00036 -0.002834
-0.000229 0.000375 -0.002796
-0.000242 0.000392 -0.002755
-0.000256 0.000407 -0.002715
-0.000268 0.000425 -0.002671
-0.000281 0.000442 -0.002629
-0.000292 0.000461 -0.002583
-0.000306 0.000477 -0.002544
-0.000324 0.000486 -0.002517
-0.000344 0.000492 -0.002499
-0.000366 0.000494 -0.002486
-0.000389 0.000495 -0.002478
-0.000413 0.000493 -0.002474
-7e-06 0.000637 -0.002993
-7e-06 0.000583 -0.002993
0.000221 0.000696 -0.002793
-8.1e-05 0.000502 -0.002992
1.7e-05 0.000447 -0.002993
-5.6e-05 0.0007 -0.002974
-0.000692 0.000351 -0.002708
-0.00073 0.000328 -0.002748
-0.000768 0.000305 -0.002788
-0.000805 0.000285 -0.002823
-0.00084 0.000266 -0.002853
-0.000868 0.000258 -0.002862
-0.000892 0.000257 -0.002857
-0.000916 0.000257 -0.00285
-0.000939 0.000258 -0.002842
-0.000963 0.000258 -0.002834
-0.000986 0.000258 -0.002826
-0.001009 0.000259 -0.002818
-0.001032 0.000259 -0.002809
-0.001056 0.00026 -0.002801
-0.001078 0.000262 -0.00279
-0.001096 0.000269 -0.002767
-0.001228 0.000509 -0.00219
-0.001252 0.000508 -0.002185
-0.001277 0.000506 -0.002182
-0.001303 0.000501 -0.002185
-0.001332 0.000493 -0.002193
1.7e-05 0.000474 -0.002994
-0.000215 0.000333 -0.002833
-0.000229 0.000348 -0.002796
-0.000242 0.000365 -0.002753
-0.000256 0.00038 -0.002715
-0.000267 0.000399 -0.00267
-0.000281 0.000415 -0.002629
-0.000293 0.000433 -0.002584
-0.000306 0.000449 -0.002544
-0.000323 0.000459 -0.002517
-0.000344 0.000465 -0.002499
-0.000366 0.000467 -0.002486
-0.000389 0.000468 -0.002478
-0.000413 0.000466 -0.002474
0.001208 0.000675 -0.002201
0.001208 0.000729 -0.002202
-5.6e-05 0.000556 -0.002992
0.00037 0.000711 -0.002489
4.2e-05 0.000448 -0.002993
-0.000692 0.000323 -0.00271
-0.00073 0.0003 -0.002749
-0.000768 0.000278 -0.002788
-0.000805 0.000257 -0.002823
-0.00084 0.000239 -0.002852
-0.000868 0.000231 -0.002862
-0.000893 0.00023 -0.002857
-0.000916 0.00023 -0.00285
-0.00094 0.00023 -0.002842
-0.000963 0.000231 -0.002834
-0.000986 0.000231 -0.002826
-0.001009 0.000231 -0.002818
-0.001033 0.000232 -0.00281
-0.001056 0.000233 -0.002801
-0.001078 0.000235 -0.00279
-0.001096 0.000242 -0.002768
-0.001228 0.000482 -0.00219
-0.001252 0.000481 -0.002184
-0.001277 0.000479 -0.002182
-0.001303 0.000474 -0.002184
-0.001332 0.000466 -0.002193
0.001181 0.000646 -0.002217
-0.000215 0.000307 -0.002832
-0.000229 0.000321 -0.002795
-0.000242 0.000338 -0.002753
-0.000255 0.000353 -0.002714
-0.000268 0.000371 -0.002671
-0.000281 0.000388 -0.002628
-0.000293 0.000406 -0.002585
-0.000306 0.000422 -0.002544
-0.000323 0.000432 -0.002517
-0.000344 0.000437 -0.002499
-0.000366 0.00044 -0.002486
-0.000389 0.00044 -0.002478
-0.000413 0.000439 -0.002474
-0.000178 0.000703 -0.002909
0.000191 0.000532 -0.002865
-0.000106 0.000557 -0.002989
0.000166 0.000509 -0.00292
-0.000693 0.000295 -0.002711
-0.00073 0.000273 -0.002749
-0.000768 0.000251 -0.002788
-0.000805 0.00023 -0.002824
-0.000839 0.000212 -0.002852
-0.000868 0.000204 -0.002861
-0.000892 0.000203 -0.002857
-0.000916 0.000203 -0.002849
-0.000939 0.000203 -0.002842
-0.000963 0.000204 -0.002834
-0.000986 0.000204 -0.002826
-0.001009 0.000205 -0.002817
-0.001032 0.000205 -0.002809
-0.001056 0.000206 -0.0028
-0.001078 0.000208 -0.00279
-0.001096 0.000215 -0.002768
-0.001228 0.000455 -0.00219
-0.001252 0.000454 -0.002184
-0.001277 0.000451 -0.002183
-0.001303 0.000447 -0.002184
-0.001332 0.000438 -0.002194
0.000493 0.000691 -0.002476
-0.000216 0.000279 -0.002833
-0.000229 0.000294 -0.002794
-0.000241 0.000311 -0.002752
-0.000256 0.000326 -0.002715
-0.000268 0.000344 -0.002671
-0.00028 0.000361 -0.002628
-0.000293 0.000379 -0.002584
-0.000306 0.000395 -0.002544
-0.000323 0.000405 -0.002516
-0.000344 0.00041 -0.002498
-0.000366 0.000413 -0.002486
-0.000389 0.000413 -0.002478
-0.000413 0.000412 -0.002473
6.7e-05 0.000639 -0.002991
-0.000202 0.000668 -0.002868
0.000615 0.000713 -0.002605
9.1e-05 0.000476 -0.002992
-0.000693 0.000268 -0.002711
-0.00073 0.000247 -0.002748
-0.000768 0.000223 -0.002789
-0.000805 0.000202 -0.002824
-0.00084 0.000185 -0.002853
-0.000868 0.000178 -0.00286
-0.000892 0.000176 -0.002856
-0.000916 0.000176 -0.00285
-0.00094 0.000176 -0.002842
-0.000963 0.000176 -0.002835
-0.000986 0.000177 -0.002827
-0.00101 0.000177 -0.002818
-0.001033 0.000178 -0.00281
-0.001056 0.000179 -0.0028
-0.001078 0.000181 -0.002789
-0.001096 0.000188 -0.002766
-0.001205 0.000426 -0.0022
-0.001228 0.000427 -0.00219
-0.001252 0.000427 -0.002184
-0.001277 0.000424 -0.002183
-0.001303 0.000419 -0.002185
-0.001333 0.000411 -0.002194
-0.000154 0.000522 -0.002947
-0.000215 0.000252 -0.002832
-0.000228 0.000267 -0.002793
-0.000241 0.000284 -0.002752
-0.000255 0.000299 -0.002714
-0.000268 0.000316 -0.002671
-0.00028 0.000334 -0.002628
-0.000293 0.000352 -0.002584
-0.000306 0.000368 -0.002543
-0.000324 0.000378 -0.002517
-0.000344 0.000383 -0.002498
-0.000366 0.000386 -0.002486
-0.000389 0.000386 -0.002478
-0.000413 0.000385 -0.002473
-0.000105 0.000672 -0.002977
-0.000178 0.000649 -0.002909
-3.2e-05 0.000556 -0.002993
0.000469 0.000745 -0.002477
-0.000693 0.00024 -0.002712
-0.00073 0.000219 -0.002748
-0.000768 0.000196 -0.002788
-0.000805 0.000175 -0.002824
-0.000839 0.000158 -0.002852
-0.000867 0.000151 -0.002858
-0.000892 0.00015 -0.002855
-0.000916 0.000149 -0.002849
-0.000939 0.000149 -0.002842
-0.000963 0.000149 -0.002834
-0.000986 0.00015 -0.002826
-0.001009 0.00015 -0.002818
-0.001032 0.000151 -0.002809
-0.001055 0.000152 -0.002799
-0.001077 0.000155 -0.002787
-0.001095 0.000161 -0.002766
-0.001228 0.0004 -0.00219
-0.001252 0.0004 -0.002184
-0.001277 0.000397 -0.002183
-0.001304 0.000392 -0.002185
-0.001333 0.000384 -0.002194
-3.1e-05 0.000699 -0.002979
-0.000215 0.000224 -0.002834
-0.000228 0.000241 -0.002793
-0.000242 0.000256 -0.002754
-0.000255 0.000272 -0.002713
-0.000268 0.000289 -0.002671
-0.00028 0.000307 -0.002627
-0.000293 0.000325 -0.002584
-0.000306 0.000341 -0.002543
-0.000324 0.00035 -0.002517
-0.000344 0.000356 -0.002498
-0.000366 0.000358 -0.002486
-0.000389 0.000359 -0.002478
-0.000413 0.000357 -0.002474
-5.6e-05 0.000667 -0.002987
-0.00013 0.000618 -0.002976
-0.00013 0.000562 -0.002979
0.000722 0.000487 -0.002756
-0.000693 0.000214 -0.00271
-0.00073 0.000192 -0.002748
-0.000768 0.000169 -0.002788
-0.000805 0.000148 -0.002825
-0.000839 0.000132 -0.00285
-0.000866 0.000126 -0.002855
-0.000891 0.000124 -0.002852
-0.000915 0.000123 -0.002846
-0.000939 0.000123 -0.00284
-0.000962 0.000123 -0.002833
-0.000986 0.000123 -0.002824
-0.001009 0.000124 -0.002816
-0.001032 0.000125 -0.002807
-0.001054 0.000126 -0.002796
-0.001076 0.000129 -0.002784
-0.001095 0.000135 -0.002764
-0.001228 0.000373 -0.00219
-0.001252 0.000372 -0.002185
-0.001277 0.00037 -0.002183
-0.001303 0.000365 -0.002185
-0.001332 0.000357 -0.002194
-0.000129 0.000712 -0.002949
-0.000215 0.000197 -0.002834
-0.000229 0.000213 -0.002794
-0.000242 0.000228 -0.002755
-0.000256 0.000245 -0.002714
-0.000268 0.000263 -0.00267
-0.00028 0.00028 -0.002627
-0.000293 0.000297 -0.002584
-0.000306 0.000314 -0.002543
-0.000323 0.000323 -0.002517
-0.000344 0.000329 -0.002498
-0.000366 0.000331 -0.002486
-0.000389 0.000332 -0.002478
-0.000413 0.00033 -0.002473
-8.1e-05 0.000669 -0.002983
-0.000154 0.000632 -0.002946
-0.000617 0.000729 -0.002614
-8.1e-05 0.000447 -0.002992
0.000189 0.000505 -0.00287
-0.000641 0.000634 -0.002644
-0.000692 0.000187 -0.002709
-0.00073 0.000165 -0.002748
-0.000768 0.000142 -0.002788
-0.000805 0.000121 -0.002824
-0.000838 0.000106 -0.002847
-0.000865 0.000101 -0.00285
-0.000889 9.9e-05 -0.002846
-0.000914 9.8e-05 -0.002841
-0.000937 9.8e-05 -0.002835
-0.000961 9.8e-05 -0.002828
-0.000984 9.8e-05 -0.00282
-0.001008 9.9e-05 -0.002812
-0.00103 0.0001 -0.002802
-0.001053 0.000101 -0.002792
-0.001075 0.000104 -0.002779
-0.001094 0.000109 -0.002761
-0.001228 0.000346 -0.00219
-0.001252 0.000345 -0.002184
-0.001277 0.000343 -0.002182
-0.001303 0.000338 -0.002185
-0.001333 0.000329 -0.002194
-0.000199 0.000159 -0.002864
-0.000215 0.00017 -0.002832
-0.000229 0.000186 -0.002794
-0.000242 0.000201 -0.002755
-0.000256 0.000217 -0.002714
-0.000267 0.000236 -0.002669
-0.00028 0.000253 -0.002626
-0.000293 0.000271 -0.002583
-0.000306 0.000287 -0.002543
-0.000324 0.000296 -0.002517
-0.000344 0.000302 -0.002498
-0.000366 0.000304 -0.002486
-0.000389 0.000305 -0.002478
-0.000413 0.000303 -0.002474
-0.000154 0.000687 -0.002943
0.001126 0.000701 -0.002456
-0.000638 0.000715 -0.002647
-3.2e-05 0.000474 -0.002993
-0.000617 0.000675 -0.002613
-0.000692 0.00016 -0.002709
-0.000731 0.000137 -0.002749
-0.000768 0.000115 -0.002787
-0.000805 9.4e-05 -0.002823
-0.000836 8.2e-05 -0.002841
-0.000862 7.8e-05 -0.002842
-0.000887 7.6e-05 -0.002838
-0.000911 7.5e-05 -0.002833
-0.000935 7.4e-05 -0.002827
-0.000959 7.4e-05 -0.002821
-0.000982 7.4e-05 -0.002813
-0.001005 7.5e-05 -0.002804
-0.001028 7.6e-05 -0.002795
-0.001051 7.8e-05 -0.002784
-0.001073 8e-05 -0.002772
-0.001228 0.000319 -0.00219
-0.001252 0.000318 -0.002185
-0.001277 0.000316 -0.002182
-0.001303 0.000311 -0.002187
9.2e-05 0.000704 -0.002967
-0.000215 0.000143 -0.002832
-0.000229 0.000158 -0.002795
-0.000242 0.000174 -0.002754
-0.000255 0.000191 -0.002714
-0.000268 0.000208 -0.00267
-0.00028 0.000226 -0.002627
-0.000293 0.000244 -0.002583
-0.000306 0.00026 -0.002543
-0.000324 0.000269 -0.002517
-0.000344 0.000275 -0.002498
-0.000366 0.000277 -0.002486
-0.000389 0.000277 -0.002478
-0.000413 0.000276 -0.002473
0.000141 0.000653 -0.002963
0.000281 0.000676 -0.002639
0.000822 0.000572 -0.002841
0.000395 0.000742 -0.002482
0.000345 0.00073 -0.002507
-0.000693 0.000133 -0.00271
-0.000731 0.00011 -0.00275
-0.000768 8.7e-05 -0.002788
-0.000804 6.9e-05 -0.002819
-0.000834 5.9e-05 -0.002832
-0.000859 5.6e-05 -0.002831
-0.000884 5.4e-05 -0.002828
-0.000908 5.3e-05 -0.002822
-0.000932 5.3e-05 -0.002817
-0.000956 5.2e-05 -0.00281
-0.000979 5.3e-05 -0.002802
-0.001002 5.3e-05 -0.002793
-0.001025 5.5e-05 -0.002784
-0.001047 5.6e-05 -0.002773
-0.00107 5.8e-05 -0.002762
-0.001206 0.00029 -0.0022
-0.001228 0.000291 -0.002191
-0.001252 0.000291 -0.002184
-0.001277 0.000289 -0.002182
-0.001304 0.000283 -0.002185
0.000117 0.000709 -0.002959
-0.000215 0.000116 -0.002833
-0.000229 0.000131 -0.002794
-0.000242 0.000147 -0.002754
-0.000255 0.000164 -0.002713
-0.000268 0.000181 -0.002671
-0.00028 0.000199 -0.002626
-0.000293 0.000216 -0.002584
-0.000306 0.000233 -0.002543
-0.000323 0.000242 -0.002516
-0.000344 0.000248 -0.002498
-0.000366 0.00025 -0.002486
-0.000389 0.00025 -0.002477
-0.000413 0.000249 -0.002473
-0.00013 0.000676 -0.002966
0.000166 0.000618 -0.002921
-0.000154 0.000577 -0.002946
0.000166 0.000564 -0.00292
6.7e-05 0.000529 -0.002993
9.1e-05 0.00053 -0.002992
-0.000768 6.1e-05 -0.002787
-0.000802 4.5e-05 -0.002813
-0.00083 3.8e-05 -0.00282
-0.000855 3.5e-05 -0.002818
-0.000879 3.4e-05 -0.002814
-0.000903 3.3e-05 -0.002808
-0.000927 3.2e-05 -0.002802
-0.000951 3.2e-05 -0.002795
-0.000974 3.2e-05 -0.002788
-0.000998 3.3e-05 -0.002779
-0.00102 3.4e-05 -0.00277
-0.001043 3.6e-05 -0.002759
-0.001065 3.7e-05 -0.002748
-0.001086 4.1e-05 -0.002734
-0.001206 0.000263 -0.0022
-0.001228 0.000264 -0.002191
-0.001252 0.000264 -0.002184
-0.001277 0.000261 -0.002182
-0.001304 0.000256 -0.002185
-0.001333 0.000248 -0.002195
-0.000199 7.7e-05 -0.002863
-0.000215 8.9e-05 -0.002833
-0.000229 0.000104 -0.002794
-0.000242 0.000121 -0.002753
-0.000255 0.000137 -0.002712
-0.000268 0.000154 -0.00267
-0.00028 0.000172 -0.002625
-0.000293 0.000189 -0.002584
-0.000306 0.000206 -0.002542
-0.000323 0.000215 -0.002516
-0.000344 0.00022 -0.002498
-0.000366 0.000223 -0.002486
-0.000389 0.000223 -0.002477
-0.000413 0.000222 -0.002473
4.2e-05 0.000638 -0.002993
0.000141 0.000597 -0.002965
0.000588 0.000727 -0.002577
0.00042 0.000719 -0.002474
0.000344 0.000703 -0.002506
-0.000692 7.9e-05 -0.002708
-0.00073 5.7e-05 -0.002747
-0.000766 3.7e-05 -0.00278
-0.000798 2.4e-05 -0.002799
-0.000824 1.9e-05 -0.002803
-0.000849 1.7e-05 -0.0028
-0.000874 1.5e-05 -0.002795
-0.000898 1.5e-05 -0.00279
-0.000922 1.4e-05 -0.002784
-0.000945 1.4e-05 -0.002777
-0.000969 1.4e-05 -0.002769
-0.000992 1.5e-05 -0.00276
-0.001015 1.6e-05 -0.002752
-0.001038 1.7e-05 -0.002742
-0.00106 1.9e-05 -0.002731
-0.001082 2.2e-05 -0.002718
-0.001206 0.000236 -0.0022
-0.001228 0.000237 -0.00219
-0.001252 0.000237 -0.002185
-0.001277 0.000234 -0.002182
-0.001304 0.000229 -0.002185
-0.001333 0.000221 -0.002194
4.3e-05 0.0007 -0.002976
-0.000215 6.2e-05 -0.002833
-0.000229 7.7e-05 -0.002794
-0.000241 9.4e-05 -0.002751
-0.000255 0.00011 -0.002713
-0.000268 0.000127 -0.002669
-0.00028 0.000145 -0.002626
-0.000293 0.000162 -0.002583
-0.000306 0.000179 -0.002542
-0.000323 0.000188 -0.002516
-0.000344 0.000193 -0.002498
-0.000366 0.000196 -0.002486
-0.000389 0.000196 -0.002477
-0.000413 0.000194 -0.002473
0.000166 0.000672 -0.002921
0.000116 0.000587 -0.002987
0.000756 0.00055 -0.002787
-3.2e-05 0.000529 -0.002993
1.8e-05 0.000529 -0.002993
-0.000692 5.2e-05 -0.002708
-0.00073 3e-05 -0.002746
-0.000763 1.5e-05 -0.002769
-0.000791 7e-06 -0.002778
-0.000817 4e-06 -0.002778
-0.000842 2e-06 -0.002775
-0.000866 1e-06 -0.00277
-0.00089 0.0 -0.002764
-0.000914 -0.0 -0.002758
-0.000937 -1e-06 -0.002751
-0.000961 -0.0 -0.002743
-0.000984 0.0 -0.002735
-0.001007 1e-06 -0.002726
-0.00103 2e-06 -0.002717
-0.001053 3e-06 -0.002707
-0.001075 6e-06 -0.002695
-0.001206 0.000209 -0.0022
-0.001228 0.00021 -0.00219
-0.001252 0.000209 -0.002184
-0.001277 0.000207 -0.002182
-0.001304 0.000202 -0.002186
-0.001333 0.000193 -0.002194
-7e-06 0.000529 -0.002993
-0.000215 3.5e-05 -0.002832
-0.000229 5e-05 -0.002795
-0.000242 6.6e-05 -0.002753
-0.000255 8.3e-05 -0.002711
-0.000268 0.0001 -0.002669
-0.00028 0.000118 -0.002626
-0.000292 0.000136 -0.002581
-0.000306 0.000151 -0.002542
-0.000323 0.000161 -0.002516
-0.000344 0.000166 -0.002498
-0.000366 0.000168 -0.002486
-0.000389 0.000169 -0.002478
-0.000413 0.000167 -0.002473
0.000116 0.000644 -0.002981
-0.000105 0.000613 -0.002987
-8.1e-05 0.000556 -0.002991
-0.000567 0.000708 -0.002544
-0.000592 0.00069 -0.002581
-0.000691 2.6e-05 -0.002705
-0.000726 9e-06 -0.002733
-0.000755 1e-06 -0.002743
-0.000781 -3e-06 -0.002744
-0.000804 -3e-06 -0.002737
-0.000828 -4e-06 -0.002732
-0.000852 -4e-06 -0.002724
-0.000899 -5e-06 -0.002711
-0.000923 -5e-06 -0.002703
-0.000947 -5e-06 -0.002698
-0.000971 -6e-06 -0.002692
-0.000994 -6e-06 -0.002684
-0.001017 -5e-06 -0.002675
-0.001206 0.000181 -0.0022
-0.001228 0.000183 -0.00219
-0.001252 0.000182 -0.002184
-0.001277 0.00018 -0.002183
-0.001304 0.000175 -0.002185
-0.001333 0.000166 -0.002194
-0.000193 4e-06 -0.002844
-0.000212 1.2e-05 -0.002822
-0.000228 2.4e-05 -0.002791
-0.000242 3.9e-05 -0.002753
-0.000254 5.6e-05 -0.00271
-0.000268 7.2e-05 -0.00267
-0.00028 9e-05 -0.002627
-0.000293 0.000108 -0.002583
-0.000305 0.000125 -0.002541
-0.000323 0.000134 -0.002515
-0.000344 0.000139 -0.002497
-0.000366 0.000141 -0.002486
-0.000389 0.000142 -0.002478
-0.000413 0.00014 -0.002473
9.2e-05 0.000641 -0.002988
6.7e-05 0.000584 -0.002993
6.7e-05 0.000557 -0.002993
0.000518 0.000714 -0.002486
-0.000687 5e-06 -0.002692
-0.000715 -2e-06 -0.002699
-0.00074 -3e-06 -0.002695
-0.000787 -4e-06 -0.002683
-0.00081 -2e-06 -0.002672
-0.000833 -2e-06 -0.002664
-0.000857 -2e-06 -0.002657
-0.001183 0.000152 -0.002211
-0.001206 0.000154 -0.0022
-0.001228 0.000155 -0.00219
-0.001252 0.000155 -0.002184
-0.001277 0.000153 -0.002183
-0.001304 0.000147 -0.002185
-0.001333 0.000139 -0.002194
-0.000181 -3e-06 -0.002805
-0.000203 -1e-06 -0.002794
-0.000224 4e-06 -0.002777
-0.000241 1.3e-05 -0.00275
-0.000255 2.9e-05 -0.002711
-0.000267 4.6e-05 -0.002669
-0.00028 6.3e-05 -0.002625
-0.000292 8.1e-05 -0.002582
-0.000306 9.7e-05 -0.002542
-0.000323 0.000107 -0.002516
-0.000344 0.000112 -0.002497
-0.000366 0.000114 -0.002486
-0.000389 0.000115 -0.002477
-0.000413 0.000113 -0.002473
-3.2e-05 0.000666 -0.002989
-5.6e-05 0.00061 -0.002993
4.2e-05 0.000556 -0.002993
0.000116 0.000477 -0.002989
-7e-06 0.000474 -0.002994
-0.000592 0.000664 -0.00258
-0.000677 -5e-06 -0.002658
-0.0007 -5e-06 -0.00265
-0.000723 -4e-06 -0.00264
-0.000747 -4e-06 -0.002634
-0.000841 -4e-06 -0.002605
-0.000864 -4e-06 -0.002597
-0.000888 -4e-06 -0.00259
-0.000911 -3e-06 -0.002582
-0.001183 0.000125 -0.002211
-0.001205 0.000127 -0.002199
-0.001228 0.000128 -0.00219
-0.001252 0.000128 -0.002184
-0.001277 0.000126 -0.002182
-0.001303 0.00012 -0.002187
-0.000163 -3e-06 -0.002749
-0.000187 -3e-06 -0.002742
-0.000211 -3e-06 -0.002735
-0.000234 -2e-06 -0.002726
-0.000253 4e-06 -0.002705
-0.000268 1.8e-05 -0.002671
-0.00028 3.6e-05 -0.002627
-0.000292 5.5e-05 -0.00258
-0.000306 7e-05 -0.002541
-0.000323 7.9e-05 -0.002516
-0.000344 8.5e-05 -0.002497
-0.000366 8.7e-05 -0.002485
-0.000389 8.8e-05 -0.002477
-0.000413 8.6e-05 -0.002473
-3.2e-05 0.000638 -0.002993
-0.000106 0.000585 -0.002989
0.000566 0.000742 -0.002543
-0.000154 0.000495 -0.002947
0.000684 0.000594 -0.00271
-0.000638 -8e-06 -0.002616
-0.000663 -1e-05 -0.002613
-0.000687 -1.2e-05 -0.002609
-0.00071 -1e-05 -0.002599
-0.000734 -1e-05 -0.002592
-0.000757 -1e-05 -0.002584
-0.000884 -2.6e-05 -0.00191
-0.000828 -1.1e-05 -0.002563
-0.000851 -1e-05 -0.002555
-0.000875 -1e-05 -0.002547
-0.000945 -1e-05 -0.002526
-0.000969 -1e-05 -0.002519
-0.000992 -1e-05 -0.002511
-0.001016 -1e-05 -0.002504
-0.001039 -9e-06 -0.002496
-0.001062 -8e-06 -0.002487
-0.001183 9.8e-05 -0.002211
-0.001205 0.0001 -0.002199
-0.001228 0.000101 -0.002189
-0.001252 0.000101 -0.002183
-0.001277 9.9e-05 -0.002181
-0.001304 9.3e-05 -0.002185
-0.001328 8.5e-05 -0.002202
-0.000154 0.000721 -0.002928
-0.000174 -1e-05 -0.0027
-0.000199 -1.1e-05 -0.002697
-0.000221 -1e-05 -0.002686
-0.000243 -8e-06 -0.002674
-0.000264 -4e-06 -0.002658
-0.00028 8e-06 -0.002627
-0.000292 2.7e-05 -0.002581
-0.000306 4.3e-05 -0.002542
-0.000323 5.3e-05 -0.002514
-0.000343 5.8e-05 -0.002496
-0.000365 6e-05 -0.002485
-0.000389 6e-05 -0.002477
-0.000413 5.9e-05 -0.002472
-0.000105 0.000641 -0.002984
0.000141 0.00057 -0.002965
-0.000202 0.000504 -0.002869
-0.000467 0.000688 -0.002473
-7e-06 0.000447 -0.002994
-0.00062 -7e-06 -0.002558
-0.000644 -7e-06 -0.00255
-0.000861 -2.7e-05 -0.001918
-0.000838 -2.8e-05 -0.001927
-0.00083 -5e-06 -0.002488
-0.000926 -6e-06 -0.002462
-0.000949 -6e-06 -0.002455
-0.000973 -7e-06 -0.00245
-0.000997 -7e-06 -0.002441
-0.00102 -7e-06 -0.002435
-0.001045 -8e-06 -0.00243
-0.001068 -8e-06 -0.002423
-0.001183 7.1e-05 -0.00221
-0.001205 7.3e-05 -0.002198
-0.001228 7.4e-05 -0.002189
-0.001252 7.4e-05 -0.002182
-0.001277 7.1e-05 -0.002181
-0.001304 6.6e-05 -0.002183
-0.001333 5.8e-05 -0.002194
-0.000815 -2.8e-05 -0.001935
-0.000202 -6e-06 -0.002622
-0.000225 -6e-06 -0.002615
-0.000272 -5e-06 -0.002599
-0.000292 1e-06 -0.00258
-0.000307 1.4e-05 -0.002545
-0.000323 2.5e-05 -0.002515
-0.000343 3.1e-05 -0.002496
-0.000365 3.3e-05 -0.002484
-0.000389 3.4e-05 -0.002476
-0.000413 3.2e-05 -0.002472
0.001162 0.000672 -0.002233
0.000116 0.000559 -0.002988
-5.6e-05 0.000474 -0.002993
6.7e-05 0.000475 -0.002993
-0.000517 0.000733 -0.002489
-0.000601 -5e-06 -0.002497
-0.000625 -5e-06 -0.00249
-0.000649 -5e-06 -0.002483
-0.000672 -5e-06 -0.002475
-0.000695 -3e-06 -0.002465
-0.000719 -5e-06 -0.002461
-0.000743 -5e-06 -0.002454
-0.000792 -2.9e-05 -0.001944
-0.000768 -2.9e-05 -0.001952
-0.000745 -3e-05 -0.00196
-0.000932 -6e-06 -0.002398
-0.000955 -5e-06 -0.00239
-0.000978 -5e-06 -0.002382
-0.001002 -5e-06 -0.002375
-0.001026 -5e-06 -0.002368
-0.001049 -5e-06 -0.00236
-0.001205 4.7e-05 -0.002197
-0.001228 4.8e-05 -0.002188
-0.001252 4.7e-05 -0.002182
-0.001277 4.4e-05 -0.002181
-0.001304 3.9e-05 -0.002184
-0.001333 3.1e-05 -0.002193
-0.000722 -3e-05 -0.001967
-0.000698 -3e-05 -0.001975
-0.000161 -6e-06 -0.002574
-0.000184 -6e-06 -0.002566
-0.00013 0.000454 -0.002978
-0.000254 -5e-06 -0.002542
-0.00028 -8e-06 -0.002542
-0.000302 -6e-06 -0.00253
-0.000322 0.0 -0.002511
-0.000343 4e-06 -0.002495
-0.000365 6e-06 -0.002483
-0.000388 7e-06 -0.002475
-0.000413 6e-06 -0.00247
1.8e-05 0.00061 -0.002994
9.1e-05 0.000557 -0.002992
0.000566 0.000717 -0.002538
0.000444 0.000721 -0.00247
-0.000542 0.000725 -0.002507
4.2e-05 0.000584 -0.002993
-0.000585 -6e-06 -0.002444
-0.000609 -6e-06 -0.002437
-0.000631 -5e-06 -0.002428
-0.000655 -6e-06 -0.002422
-0.000679 -6e-06 -0.002416
-0.000703 -6e-06 -0.002408
-0.000726 -5e-06 -0.002399
-0.000675 -3e-05 -0.001982
-0.000892 -7e-06 -0.002352
-0.000915 -7e-06 -0.002343
-0.000938 -6e-06 -0.002336
-0.000962 -6e-06 -0.002328
-0.000985 -6e-06 -0.002321
-0.001008 -5e-06 -0.002312
-0.001205 1.9e-05 -0.002197
-0.001228 2.1e-05 -0.002188
-0.001252 1.9e-05 -0.002182
-0.001277 1.7e-05 -0.00218
-0.001304 1.2e-05 -0.002184
-0.001333 3e-06 -0.002194
-0.000651 -3e-05 -0.00199
-0.000143 -5e-06 -0.002516
-0.000167 -5e-06 -0.00251
0.000116 0.00045 -0.002989
-0.000106 0.000448 -0.002991
-0.000239 -7e-06 -0.002492
-0.000263 -8e-06 -0.002485
-0.000287 -8e-06 -0.00248
-0.000311 -9e-06 -0.002474
-0.000335 -1e-05 -0.002469
-0.000359 -1e-05 -0.002462
-0.000383 -1.1e-05 -0.002456
-8.1e-05 0.000611 -0.002991
9.2e-05 0.000585 -0.002991
1.8e-05 0.000556 -0.002993
-8.1e-05 0.000474 -0.002992
0.000141 0.000488 -0.002966
0.000469 0.00072 -0.002472
1.8e-05 0.000583 -0.002993
-0.00064 0.000661 -0.002645
-0.000597 -1.5e-05 -0.002399
-0.00062 -1.4e-05 -0.002391
-0.000644 -1.4e-05 -0.002384
-0.000668 -1.5e-05 -0.002378
-0.000691 -1.5e-05 -0.002371
-0.000715 -1.5e-05 -0.002363
-0.000738 -1.5e-05 -0.002356
-0.000628 -3e-05 -0.001998
-0.000604 -3e-05 -0.002005
-0.000856 -1.4e-05 -0.002318
-0.000879 -1.4e-05 -0.002311
-0.000902 -1.4e-05 -0.002303
-0.000926 -1.3e-05 -0.002296
-0.000949 -1.3e-05 -0.002288
-0.000972 -1.3e-05 -0.002279
-0.000996 -1.2e-05 -0.002271
-0.001203 -4e-06 -0.002191
-0.001226 -4e-06 -0.002183
-0.00125 -5e-06 -0.002176
-0.001274 -5e-06 -0.00217
-0.001298 -6e-06 -0.002164
0.000542 0.000732 -0.002505
-0.000107 -1.2e-05 -0.002481
-0.000131 -1.3e-05 -0.002476
4.2e-05 0.000529 -0.002992
0.000141 0.000461 -0.002966
0.000251 0.000617 -0.002718
-0.000227 -1.5e-05 -0.002455
-0.000251 -1.5e-05 -0.002447
-0.000275 -1.5e-05 -0.002441
-0.000178 0.000513 -0.002908
-0.000321 -1.5e-05 -0.002423
-0.000344 -1.5e-05 -0.002416
-0.000154 0.000604 -0.002946
-3.2e-05 0.000501 -0.002993
0.000141 0.000516 -0.002965
-0.000154 0.00055 -0.002946
-0.000106 0.000475 -0.00299
0.000444 0.000694 -0.00247
0.000644 0.000622 -0.002658
0.000591 0.000674 -0.002573
-0.000603 -1.4e-05 -0.002335
-0.000627 -1.5e-05 -0.00233
-0.000651 -1.5e-05 -0.002323
-0.000674 -1.5e-05 -0.002315
-0.000698 -1.6e-05 -0.00231
-0.000721 -1.5e-05 -0.0023
-0.000839 -1.5e-05 -0.002264
-0.000863 -1.5e-05 -0.002257
-0.001123 -1.6e-05 -0.002183
-0.001146 -1.5e-05 -0.002173
-0.001169 -1.5e-05 -0.002164
-0.001192 -1.5e-05 -0.002157
-0.001216 -1.5e-05 -0.002149
-0.001239 -1.4e-05 -0.002139
-0.001262 -1.3e-05 -0.002131
-0.001285 -1.2e-05 -0.002121
0.000591 0.000701 -0.002573
-9.2e-05 -1.6e-05 -0.002433
-0.000116 -1.6e-05 -0.002426
9.1e-05 0.000448 -0.002992
0.000166 0.000645 -0.002921
-0.00021 -1.6e-05 -0.002397
-0.000233 -1.5e-05 -0.002389
-0.000279 -1.4e-05 -0.002372
-0.000303 -1.4e-05 -0.002366
-0.000326 -1.4e-05 -0.002358
0.000206 0.000546 -0.002828
-5.6e-05 0.000501 -0.002993
-3.2e-05 0.000447 -0.002993
0.000469 0.000694 -0.002471
0.000722 0.000568 -0.002757
0.000419 0.000692 -0.002473
0.000395 0.000716 -0.00248
0.000566 0.00069 -0.002537
-0.000581 -3.1e-05 -0.002012
-0.000725 -1.1e-05 -0.002229
-0.000748 -1e-05 -0.002221
-0.000772 -1.2e-05 -0.002216
-0.000796 -1.2e-05 -0.00221
-0.000819 -1.1e-05 -0.002201
-0.000557 -3e-05 -0.002019
-0.000985 -1.3e-05 -0.002153
-0.001081 -1.4e-05 -0.002129
-0.001104 -1.4e-05 -0.00212
-0.001128 -1.5e-05 -0.002116
-0.001152 -1.6e-05 -0.002109
-0.001175 -1.5e-05 -0.002102
-0.001199 -1.6e-05 -0.002094
-0.001223 -1.7e-05 -0.00209
-0.001246 -1.5e-05 -0.002079
-0.001269 -1.5e-05 -0.002071
-0.001293 -1.5e-05 -0.002064
0.000542 0.000705 -0.002505
-7.4e-05 -1.4e-05 -0.002374
-9.7e-05 -1.4e-05 -0.002367
-0.00012 -1.3e-05 -0.002358
-0.000143 -1.1e-05 -0.002347
-0.00019 -1.1e-05 -0.002332
-0.000213 -1.1e-05 -0.002324
-0.000259 -1e-05 -0.002307
-0.000283 -1e-05 -0.002301
-0.000306 -9e-06 -0.002293
-0.00033 -9e-06 -0.002285
-0.000178 0.00054 -0.002908
-5.6e-05 0.000447 -0.002993
-7e-06 0.000501 -0.002994
1.7e-05 0.000502 -0.002994
0.000492 0.000739 -0.002489
-0.000178 0.000622 -0.002908
-0.000592 0.000717 -0.002581
-0.000564 -7e-06 -0.002208
-0.000588 -7e-06 -0.002202
-0.000611 -8e-06 -0.002195
1.8e-05 0.0007 -0.002977
-0.000492 0.000685 -0.002478
-0.000706 -7e-06 -0.002166
-0.000729 -7e-06 -0.002158
-0.000753 -7e-06 -0.002151
-0.000776 -8e-06 -0.002145
-0.000965 -9e-06 -0.002089
-0.000989 -9e-06 -0.002082
-0.001012 -8e-06 -0.002074
-0.00106 -9e-06 -0.002061
-0.001083 -9e-06 -0.002054
-0.00125 -1.2e-05 -0.00201
-0.001274 -1.2e-05 -0.002003
-2.9e-05 -8e-06 -0.002314
-5.4e-05 -1e-05 -0.002309
-7.7e-05 -9e-06 -0.002302
-0.0001 -8e-06 -0.002293
-0.000124 -8e-06 -0.002286
-0.000146 -7e-06 -0.002276
0.00095 0.00042 -0.002841
-0.000194 -7e-06 -0.002262
-0.000217 -6e-06 -0.002253
-0.00024 -6e-06 -0.002245
-0.000263 -6e-06 -0.002237
-0.000287 -6e-06 -0.002231
-0.000311 -6e-06 -0.002223
-0.000106 0.000503 -0.00299
0.000116 0.000504 -0.002989
0.00037 0.000737 -0.002492
-0.00013 0.000535 -0.002978
-0.000202 0.000641 -0.002867
-0.000522 -6e-06 -0.002157
-0.000546 -6e-06 -0.00215
-0.00057 -6e-06 -0.002144
-0.000593 -6e-06 -0.002136
-0.000617 -7e-06 -0.00213
0.000518 0.000687 -0.002485
-0.000688 -8e-06 -0.002108
-0.000711 -7e-06 -0.002101
-0.000946 -6e-06 -0.002028
-0.00097 -6e-06 -0.002021
-0.000994 -6e-06 -0.002014
-0.001112 -7e-06 -0.001979
-0.001136 -7e-06 -0.001973
-0.000534 -3e-05 -0.002026
-0.001231 -9e-06 -0.001948
-1.1e-05 -7e-06 -0.002256
-3.4e-05 -6e-06 -0.002247
-5.8e-05 -6e-06 -0.002239
-8.1e-05 -5e-06 -0.002229
-0.000105 -6e-06 -0.002224
-0.000128 -6e-06 -0.002217
-0.000152 -7e-06 -0.002211
-0.000176 -6e-06 -0.002204
-0.000199 -6e-06 -0.002197
-0.000223 -7e-06 -0.002191
-0.000248 -8e-06 -0.002186
-0.000271 -8e-06 -0.002179
-0.000295 -9e-06 -0.002173
0.002462 0.000646 -0.001705
-0.000154 0.000469 -0.002946
-0.000202 0.000559 -0.002868
-0.000492 0.000712 -0.002478
0.000615 0.000686 -0.002605
0.000926 0.000447 -0.002849
-0.000461 -1.1e-05 -0.002126
-0.000485 -1.1e-05 -0.002119
-0.000509 -1.1e-05 -0.002112
-0.000532 -1.1e-05 -0.002106
-0.000555 -1.1e-05 -0.002097
-0.000579 -1.1e-05 -0.002091
-0.000603 -1.1e-05 -0.002084
-0.000626 -1.1e-05 -0.002076
-0.00065 -1.1e-05 -0.002068
-0.000673 -1.1e-05 -0.002061
-0.000697 -1.2e-05 -0.002055
-0.000838 -1e-05 -0.002009
-0.000861 -1e-05 -0.002002
-0.000885 -1e-05 -0.001994
