-0.002901 6.1e-05 -0.000535
-0.002881 7.2e-05 -0.000508
-0.002853 8.6e-05 -0.000479
-0.002821 0.000103 -0.00045
-0.002721 0.000153 -0.000387
-0.002667 0.00018 -0.000355
-0.002612 0.000208 -0.000322
-0.002551 0.000238 -0.000289
-0.002516 0.000255 -0.00026
-0.0025 0.000265 -0.000233
-0.002494 0.000269 -0.000207
-0.002492 0.000272 -0.000182
-0.002494 0.000273 -0.000157
-0.002498 0.000272 -0.000133
-0.002505 0.00027 -0.000109
-0.002517 0.000266 -8.6e-05
-0.002536 0.000259 -6.4e-05
-0.002564 0.000247 -4.2e-05
-0.002666 0.000203 -7e-06
-0.002708 0.000184 1.3e-05
-0.002747 0.000168 3.2e-05
-0.002787 0.000151 5.2e-05
-0.002822 0.000135 7.2e-05
-0.002856 0.000121 9.2e-05
-0.002889 0.000107 0.000112
-0.002921 9.4e-05 0.000133
-0.002951 8.1e-05 0.000154
-0.002966 7.6e-05 0.000176
-0.002704 0.00064 -0.000846
-0.00266 0.000657 -0.000853
-0.002423 0.000752 -0.000883
-0.001918 0.000755 -0.001615
-0.002913 0.00052 -0.000723
-0.002907 0.000518 -0.000747
-0.002567 0.000639 -0.000866
-0.002851 4.2e-05 -0.000777
-0.00286 3.9e-05 -0.000753
-0.002868 3.7e-05 -0.00073
-0.002874 3.5e-05 -0.000706
-0.00288 3.4e-05 -0.000682
-0.002884 3.4e-05 -0.000657
-0.002888 3.3e-05 -0.000633
-0.002891 3.3e-05 -0.000609
-0.002893 3.4e-05 -0.000584
-0.002893 3.6e-05 -0.000559
-0.002889 3.9e-05 -0.000534
-0.002877 4.6e-05 -0.000507
-0.002852 5.9e-05 -0.000479
-0.002821 7.6e-05 -0.00045
-0.002773 0.0001 -0.000419
-0.002721 0.000126 -0.000387
-0.002666 0.000153 -0.000355
-0.002608 0.000182 -0.000322
-0.002551 0.000211 -0.000289
-0.002516 0.000228 -0.00026
-0.002501 0.000237 -0.000233
-0.002494 0.000242 -0.000207
-0.002492 0.000245 -0.000182
-0.002494 0.000246 -0.000157
-0.002498 0.000245 -0.000133
-0.002505 0.000243 -0.000109
-0.002517 0.000239 -8.6e-05
-0.002535 0.000232 -6.3e-05
-0.002565 0.00022 -4.3e-05
-0.002617 0.000197 -2.5e-05
-0.002666 0.000176 -7e-06
-0.002708 0.000157 1.3e-05
-0.002747 0.00014 3.2e-05
-0.002787 0.000123 5.2e-05
-0.002822 0.000108 7.2e-05
-0.002857 9.4e-05 9.2e-05
-0.002888 8e-05 0.000113
-0.002919 6.7e-05 0.000133
-0.002944 5.7e-05 0.000155
-0.002955 5.3e-05 0.000178
-0.002913 0.000547 -0.000723
-0.002518 0.000714 -0.000871
-0.002546 0.000602 -0.001396
-0.002397 0.000677 -0.001194
-0.002467 0.00063 -0.00128
-0.002587 0.00062 -0.001495
-0.002831 2.4e-05 -0.000774
-0.00284 2.1e-05 -0.000751
-0.002847 1.9e-05 -0.000727
-0.002853 1.8e-05 -0.000703
-0.002859 1.7e-05 -0.000679
-0.002863 1.6e-05 -0.000655
-0.002867 1.6e-05 -0.00063
-0.00287 1.6e-05 -0.000606
-0.002872 1.7e-05 -0.000581
-0.002873 1.8e-05 -0.000557
-0.002871 2e-05 -0.000531
-0.002864 2.5e-05 -0.000506
-0.002846 3.5e-05 -0.000478
-0.002819 5e-05 -0.00045
-0.002774 7.2e-05 -0.000419
-0.002722 9.8e-05 -0.000387
-0.002608 0.000155 -0.000322
-0.00255 0.000184 -0.000289
-0.002516 0.000201 -0.00026
-0.002501 0.00021 -0.000233
-0.002493 0.000215 -0.000207
-0.002492 0.000218 -0.000182
-0.002494 0.000218 -0.000157
-0.002498 0.000218 -0.000133
-0.002505 0.000216 -0.000109
-0.002517 0.000212 -8.6e-05
-0.002535 0.000205 -6.3e-05
-0.002566 0.000192 -4.3e-05
-0.002618 0.000169 -2.5e-05
-0.002665 0.000149 -6e-06
-0.002709 0.00013 1.3e-05
-0.002748 0.000113 3.2e-05
-0.002787 9.6e-05 5.2e-05
-0.002822 8.1e-05 7.2e-05
-0.002855 6.7e-05 9.2e-05
-0.002888 5.3e-05 0.000113
-0.002915 4.2e-05 0.000134
-0.002932 3.6e-05 0.000156
-0.00294 3.3e-05 0.00018
-0.002504 0.000607 -0.001323
-0.002529 0.000616 -0.001361
-0.002435 0.000706 -0.001239
-0.002573 0.000535 -0.001542
-0.002585 0.000453 -0.001521
-0.002888 0.000571 -0.000793
-0.002795 1.3e-05 -0.000794
-0.002805 9e-06 -0.000771
-0.002812 7e-06 -0.000747
-0.002818 6e-06 -0.000723
-0.002823 5e-06 -0.000699
-0.002828 4e-06 -0.000675
-0.002832 4e-06 -0.00065
-0.002836 4e-06 -0.000626
-0.002838 4e-06 -0.000601
-0.002841 4e-06 -0.000577
-0.002843 5e-06 -0.000552
-0.002843 6e-06 -0.000528
-0.00284 9e-06 -0.000502
-0.00283 1.5e-05 -0.000476
-0.00281 2.7e-05 -0.000449
-0.002771 4.6e-05 -0.000418
-0.002721 7.2e-05 -0.000387
-0.002608 0.000128 -0.000322
-0.002547 0.000158 -0.000289
-0.002516 0.000174 -0.00026
-0.0025 0.000183 -0.000233
-0.002493 0.000188 -0.000207
-0.002492 0.00019 -0.000182
-0.002494 0.000191 -0.000157
-0.002498 0.000191 -0.000133
-0.002505 0.000189 -0.000109
-0.002516 0.000185 -8.6e-05
-0.002535 0.000178 -6.3e-05
-0.002565 0.000165 -4.3e-05
-0.002619 0.000142 -2.5e-05
-0.002666 0.000121 -6e-06
-0.002709 0.000102 1.3e-05
-0.002744 8.7e-05 3.3e-05
-0.002821 5.4e-05 7.2e-05
-0.002854 4.1e-05 9.2e-05
-0.002882 2.9e-05 0.000113
-0.002902 2.1e-05 0.000136
-0.002913 1.7e-05 0.000159
-0.00292 1.6e-05 0.000183
-0.002585 0.000534 -0.001521
-0.002564 0.000615 -0.00143
-0.00258 0.000601 -0.001465
-0.000819 0.000598 -0.002786
-0.002572 0.000454 -0.001542
-0.00253 0.00067 -0.001361
-0.002573 0.000617 -0.001542
-0.000228 0.000615 -0.00287
-0.001154 0.000705 -0.002581
-0.002767 2e-06 -0.000716
-0.00277 3e-06 -0.000692
-0.002773 2e-06 -0.000667
-0.002775 3e-06 -0.000643
-0.002103 -2.7e-05 -5e-06
-0.002788 3e-06 -0.000545
-0.002791 3e-06 -0.000521
-0.002793 4e-06 -0.000496
-0.002792 6e-06 -0.000471
-0.002787 1e-05 -0.000445
-0.002765 2.2e-05 -0.000418
-0.002716 4.7e-05 -0.000386
-0.002101 -2.7e-05 -2.9e-05
-0.002607 0.000101 -0.000322
-0.002549 0.00013 -0.000289
-0.002516 0.000147 -0.00026
-0.002501 0.000156 -0.000233
-0.002493 0.000161 -0.000207
-0.002492 0.000163 -0.000182
-0.002494 0.000164 -0.000157
-0.002497 0.000164 -0.000133
-0.002504 0.000162 -0.000109
-0.002516 0.000158 -8.6e-05
-0.002535 0.00015 -6.3e-05
-0.002565 0.000138 -4.3e-05
-0.002617 0.000115 -2.5e-05
-0.002665 9.4e-05 -6e-06
-0.002709 7.5e-05 1.3e-05
-0.002747 5.9e-05 3.2e-05
-0.002822 2.6e-05 6.8e-05
-0.002846 1.7e-05 9.2e-05
-0.002294 0.00069 -0.001068
-0.002523 0.000738 -0.000873
-0.002589 0.000592 -0.001496
-0.002564 0.000507 -0.00143
-0.002559 0.000483 -0.001563
-0.001695 0.000485 -0.002372
-0.002518 0.000632 -0.000871
-0.002546 0.000656 -0.001396
-0.002564 0.000642 -0.001431
-0.001843 0.000735 -0.001681
-0.002706 4e-06 -0.000708
-0.002707 5e-06 -0.000683
-0.002712 4e-06 -0.000659
-0.00237 0.00072 -0.000886
-0.002564 0.000534 -0.00143
-0.002501 0.000715 -0.001618
-0.001418 0.000642 -0.002221
-0.002729 4e-06 -0.000537
-0.002732 4e-06 -0.000513
-0.002737 3e-06 -0.000488
-0.002741 3e-06 -0.000464
-0.002744 3e-06 -0.00044
-0.002741 6e-06 -0.000414
-0.002608 7.4e-05 -0.000322
-0.002549 0.000103 -0.000289
-0.002514 0.00012 -0.00026
-0.0025 0.000129 -0.000233
-0.002493 0.000134 -0.000207
-0.002492 0.000136 -0.000182
-0.002493 0.000137 -0.000157
-0.002497 0.000137 -0.000133
-0.002504 0.000135 -0.000109
-0.002515 0.000131 -8.6e-05
-0.002535 0.000123 -6.3e-05
-0.002564 0.000112 -4.2e-05
-0.002617 8.8e-05 -2.5e-05
-0.002665 6.7e-05 -6e-06
-0.002708 4.8e-05 1.3e-05
-0.002748 3.1e-05 3.2e-05
-0.002287 0.000699 -0.001038
-0.002559 0.000591 -0.001563
-0.002572 0.00059 -0.001542
-0.002589 0.000537 -0.001496
-0.001736 0.000549 -0.00239
-0.002579 0.000656 -0.001464
-0.002556 0.000728 -0.001427
-0.00254 0.000487 -0.001593
-0.002301 0.000681 -0.001682
-0.002913 0.000574 -0.000723
-0.002567 0.000626 -0.001552
-0.002656 0.0 -0.000701
-0.00266 -0.0 -0.000677
-0.002665 -1e-06 -0.000653
-0.002669 -3e-06 -0.000628
-0.002673 -2e-06 -0.000604
-0.002676 -2e-06 -0.00058
-0.002679 -1e-06 -0.000555
-0.002683 -2e-06 -0.000531
-0.002687 -2e-06 -0.000506
-0.002691 -2e-06 -0.000482
-0.002695 -3e-06 -0.000458
-0.002698 -3e-06 -0.000433
-0.0027 -2e-06 -0.000409
-0.002693 3e-06 -0.000383
-0.002667 1.7e-05 -0.000355
-0.002607 4.7e-05 -0.000322
-0.002548 7.6e-05 -0.000289
-0.002514 9.3e-05 -0.00026
-0.002499 0.000102 -0.000233
-0.002493 0.000107 -0.000207
-0.002491 0.000109 -0.000182
-0.002493 0.00011 -0.000157
-0.002496 0.00011 -0.000133
-0.002504 0.000108 -0.000109
-0.002515 0.000104 -8.6e-05
-0.002535 9.6e-05 -6.3e-05
-0.002564 8.4e-05 -4.2e-05
-0.002615 6.2e-05 -2.4e-05
-0.002667 3.9e-05 -7e-06
-0.00271 2e-05 1.2e-05
-0.00274 8e-06 3.3e-05
-0.001173 0.00071 -0.002206
-0.001941 0.000713 -0.002087
-0.002899 0.000626 -0.000771
-0.002568 0.000585 -0.000866
-0.002369 0.000666 -0.000885
-0.002585 0.000648 -0.001494
-0.002592 -5e-06 -0.000817
-0.002596 -5e-06 -0.000792
-0.002546 0.000493 -0.001395
-0.002388 0.00062 -0.001691
-0.002159 0.000684 -0.001658
-0.002614 -6e-06 -0.000671
-0.002614 -4e-06 -0.000646
-0.002624 -6e-06 -0.000597
-0.002624 -4e-06 -0.000572
-0.002629 -5e-06 -0.000548
-0.00263 -4e-06 -0.000524
-0.002634 -4e-06 -0.000499
-0.002637 -4e-06 -0.000475
-0.002642 -5e-06 -0.000451
-0.002647 -2e-06 -0.000377
-0.002642 2e-06 -0.000351
-0.002491 8.2e-05 -0.000182
-0.002493 8.3e-05 -0.000157
-0.002496 8.3e-05 -0.000133
-0.002503 8.1e-05 -0.000109
-0.002515 7.7e-05 -8.5e-05
-0.002534 7e-05 -6.3e-05
-0.002562 5.8e-05 -4.2e-05
-0.002667 1.2e-05 -7e-06
-0.002692 1e-06 1.5e-05
-0.002707 -4e-06 3.8e-05
-0.002727 -2e-06 0.000209
-0.00273 -2e-06 0.000234
-0.002293 0.000706 -0.000986
-0.002907 0.000626 -0.000748
-0.002886 0.000627 -0.000792
-0.002513 0.000565 -0.001636
-0.002403 0.000653 -0.000874
-0.002463 0.000655 -0.000873
-0.002404 0.00068 -0.000874
-0.002572 0.000481 -0.001542
-0.002531 -2e-06 -0.000784
-0.002528 0.000508 -0.001361
-0.002099 -2.8e-05 -5.4e-05
-0.002551 -2e-06 -0.000637
-0.002558 -0.0 -0.000564
-0.002561 -0.0 -0.000539
-0.002564 0.0 -0.000515
-0.002567 0.0 -0.00049
-0.002208 0.000664 -0.001668
-0.002578 -0.0 -0.000417
-0.002588 -2e-06 -0.000369
-0.002588 -0.0 -0.000344
-0.002586 2e-06 -0.000319
-0.002491 5.5e-05 -0.000182
-0.002492 5.6e-05 -0.000157
-0.002495 5.6e-05 -0.000133
-0.002503 5.4e-05 -0.000109
-0.002515 5e-05 -8.5e-05
-0.002533 4.3e-05 -6.3e-05
-0.002562 3.1e-05 -4.2e-05
-0.002097 -2.9e-05 -7.8e-05
-0.002643 -1e-06 4.6e-05
-0.002648 -2e-06 7.1e-05
-0.002675 -5e-06 0.000216
-0.002678 -5e-06 0.000241
-0.002682 -5e-06 0.000265
-0.00196 0.000659 -0.002238
-0.002824 0.000648 -0.000819
-0.002744 0.000679 -0.000837
-0.002616 0.00062 -0.00086
-0.002094 -2.9e-05 -0.000103
-0.002092 -2.9e-05 -0.000128
-0.002473 2e-06 -0.000726
-0.002476 1e-06 -0.000702
-0.002302 0.000572 -0.001682
-0.002703 0.000613 -0.000845
-0.002492 2e-06 -0.000579
-0.002497 2e-06 -0.000555
-0.0025 1e-06 -0.000531
-0.002505 1e-06 -0.000507
-0.002508 1e-06 -0.000482
-0.002572 0.000508 -0.001542
-0.002513 1e-06 -0.000433
-0.002516 2e-06 -0.000409
-0.002517 3e-06 -0.000384
-0.002526 2e-06 -0.000335
-0.00253 1e-06 -0.000311
-0.00249 2.8e-05 -0.000181
-0.002492 2.9e-05 -0.000157
-0.002495 2.9e-05 -0.000133
-0.002502 2.7e-05 -0.000109
-0.002514 2.3e-05 -8.5e-05
-0.002533 1.6e-05 -6.3e-05
-0.002558 6e-06 -4.2e-05
-0.002573 0.0 -1.9e-05
-0.00258 3e-06 8e-05
-0.002585 2e-06 0.000104
-0.002601 -0.0 0.000176
-0.002604 -0.0 0.000201
-0.002608 -1e-06 0.000225
-0.002612 -1e-06 0.00025
-0.002614 -0.0 0.000274
-0.002518 0.000686 -0.000871
-0.002785 0.000663 -0.000828
-0.002575 0.000744 -0.000869
-0.002579 0.000548 -0.001464
-0.002375 9e-06 -0.000887
-0.002398 -0.0 -0.000865
-0.002398 1e-06 -0.00084
-0.002402 1e-06 -0.000816
-0.002406 1e-06 -0.000792
-0.002411 0.0 -0.000767
-0.002415 0.0 -0.000743
-0.00242 -1e-06 -0.000719
-0.002423 -1e-06 -0.000694
-0.002427 -1e-06 -0.00067
-0.002529 0.000589 -0.001361
-0.00266 0.000629 -0.000853
-0.002616 0.000647 -0.00086
-0.00244 -2e-06 -0.000572
-0.002445 -2e-06 -0.000548
-0.00245 -2e-06 -0.000524
-0.002454 -3e-06 -0.0005
-0.002457 -3e-06 -0.000475
-0.00246 -3e-06 -0.000451
-0.002463 -2e-06 -0.000426
-0.002468 -3e-06 -0.000402
-0.002472 -3e-06 -0.000378
-0.002474 -3e-06 -0.000353
-0.002477 -3e-06 -0.000329
-0.002481 -3e-06 -0.000304
-0.002487 3e-06 -0.000181
-0.002489 3e-06 -0.000156
-0.002492 3e-06 -0.000132
-0.002498 2e-06 -0.000108
-0.002507 -1e-06 -8.4e-05
-0.00251 -1e-06 -6e-05
-0.002516 -2e-06 -3.6e-05
-0.002518 -1e-06 -1.1e-05
-0.002521 -1e-06 1.3e-05
-0.002523 -1e-06 3.8e-05
-0.002526 -0.0 6.2e-05
-0.002527 1e-06 8.7e-05
-0.00253 1e-06 0.000111
-0.002533 1e-06 0.000136
-0.002536 2e-06 0.00016
-0.002537 2e-06 0.000185
-0.002541 2e-06 0.000209
-0.002544 2e-06 0.000234
-0.002548 1e-06 0.000258
-0.002568 0.000666 -0.000866
-0.002616 0.000728 -0.000861
-0.002439 0.000731 -0.00124
-0.00258 0.000646 -0.001519
-0.002342 -2e-06 -0.000882
-0.002347 -3e-06 -0.000858
-0.002351 -4e-06 -0.000834
-0.002357 -5e-06 -0.00081
-0.00236 -5e-06 -0.000785
-0.002364 -5e-06 -0.000761
-0.00237 -6e-06 -0.000737
-0.002375 -7e-06 -0.000713
-0.00238 -7e-06 -0.000689
-0.002384 -8e-06 -0.000664
-0.002563 0.000453 -0.00143
-0.002586 0.000425 -0.001521
-0.002887 0.000686 -0.000765
-0.002402 -1e-05 -0.000567
-0.002406 -1e-05 -0.000543
-0.002411 -1.1e-05 -0.000519
-0.002415 -1.1e-05 -0.000494
-0.00242 -1.2e-05 -0.00047
-0.00259 0.000428 -0.001496
-0.002426 -1.1e-05 -0.000421
-0.00243 -1.2e-05 -0.000397
-0.002433 -1.2e-05 -0.000373
-0.002437 -1.2e-05 -0.000348
-0.002442 -1.3e-05 -0.000324
-0.002444 -1.3e-05 -0.0003
-0.002461 -1.1e-05 -0.000153
-0.002463 -1.1e-05 -0.000128
-0.002466 -1e-05 -0.000104
-0.002469 -1e-05 -7.9e-05
-0.002472 -1e-05 -5.5e-05
-0.002473 -9e-06 -3e-05
-0.002475 -8e-06 -5e-06
-0.002477 -8e-06 1.9e-05
-0.002479 -7e-06 4.4e-05
-0.002481 -7e-06 6.8e-05
-0.002483 -6e-06 9.3e-05
-0.002485 -5e-06 0.000118
-0.002487 -5e-06 0.000142
-0.002488 -4e-06 0.000167
-0.002491 -3e-06 0.000191
-0.002493 -2e-06 0.000216
-0.002495 -2e-06 0.00024
-0.001146 0.000623 -0.002657
-0.002528 0.00048 -0.001361
-0.002745 0.000515 -0.000837
-0.002297 -1e-05 -0.000901
-0.002304 -1.2e-05 -0.000877
-0.002309 -1.3e-05 -0.000853
-0.002314 -1.3e-05 -0.000829
-0.002319 -1.3e-05 -0.000805
-0.002322 -1.3e-05 -0.00078
-0.002856 0.000693 -0.000808
-0.002518 0.000605 -0.000871
-0.0029 0.000461 -0.000771
-0.002294 0.000663 -0.001068
-0.002286 0.000672 -0.001037
-0.002502 0.000526 -0.001322
-0.002255 0.000699 -0.001675
-0.002436 0.00057 -0.001239
-0.00236 -1.4e-05 -0.000512
-0.002362 -1.4e-05 -0.000487
-0.002367 -1.3e-05 -0.000438
-0.002373 -1.4e-05 -0.000414
-0.002375 -1.3e-05 -0.00039
-0.002379 -1.4e-05 -0.000365
-0.002382 -1.4e-05 -0.000341
-0.0024 -1.3e-05 -0.000194
-0.002404 -1.3e-05 -0.00017
-0.002407 -1.3e-05 -0.000145
-0.002411 -1.3e-05 -0.000121
-0.002415 -1.4e-05 -9.7e-05
-0.002418 -1.3e-05 -7.2e-05
-0.002421 -1.3e-05 -4.8e-05
-0.002427 -1.4e-05 -2.4e-05
-0.00243 -1.4e-05 1e-06
-0.002433 -1.4e-05 2.5e-05
-0.002437 -1.4e-05 4.9e-05
-0.002442 -1.4e-05 7.4e-05
-0.002444 -1.4e-05 9.8e-05
-0.002448 -1.4e-05 0.000123
-0.002449 -1.3e-05 0.000147
-0.002452 -1.3e-05 0.000172
-0.002453 -1.2e-05 0.000196
-0.002454 -1.2e-05 0.000221
-0.002456 -1.1e-05 0.000246
-0.00209 -3e-05 -0.000152
-0.002559 0.000456 -0.001563
-0.002245 -1.3e-05 -0.000894
-0.00225 -1.3e-05 -0.00087
-0.002252 -1.3e-05 -0.000845
-0.002256 -1.3e-05 -0.000821
-0.001948 0.000645 -0.002125
-0.00259 0.000455 -0.001496
-0.002861 0.000498 -0.000808
-0.002889 0.000489 -0.000793
-0.002272 -1.1e-05 -0.000674
-0.002276 -1.2e-05 -0.00065
-0.002276 -1e-05 -0.000625
-0.00228 -1e-05 -0.0006
-0.002824 0.000512 -0.000818
-0.002785 0.000527 -0.000828
-0.002087 -3e-05 -0.000177
-0.002303 -1e-05 -0.00043
-0.002304 -9e-06 -0.000405
-0.002308 -9e-06 -0.000381
-0.002313 -1e-05 -0.000356
-0.002317 -1e-05 -0.000332
-0.002084 -3e-05 -0.000201
-0.002337 -1e-05 -0.000186
-0.002339 -1e-05 -0.000161
-0.002343 -1e-05 -0.000137
-0.002346 -1e-05 -0.000112
-0.002351 -1e-05 -8.8e-05
-0.00236 -1.1e-05 -4e-05
-0.002363 -1.1e-05 -1.5e-05
-0.002377 -1.2e-05 8.2e-05
-0.002381 -1.2e-05 0.000107
-0.002385 -1.2e-05 0.000131
-0.002388 -1.2e-05 0.000155
-0.002393 -1.3e-05 0.00018
-0.002395 -1.2e-05 0.000204
-0.00241 -1.4e-05 0.000277
-0.002413 -1.4e-05 0.000301
-0.002081 -3.1e-05 -0.000225
-0.002078 -3.1e-05 -0.00025
-0.002179 -1e-05 -0.00091
-0.002184 -1.1e-05 -0.000886
-0.002182 -9e-06 -0.000861
-0.002074 -3.1e-05 -0.000274
-0.002071 -3.1e-05 -0.000299
-0.002206 -7e-06 -0.000665
-0.002208 -7e-06 -0.00064
-0.00221 -6e-06 -0.000616
-0.002215 -7e-06 -0.000592
-0.002218 -7e-06 -0.000567
-0.002222 -7e-06 -0.000543
-0.002328 0.000704 -0.000922
-0.002468 0.000576 -0.00128
-0.002434 0.000598 -0.001238
-0.002288 0.000704 -0.001011
-0.00224 -6e-06 -0.000396
-0.002244 -6e-06 -0.000372
-0.002245 -5e-06 -0.000347
-0.002249 -6e-06 -0.000323
-0.00226 -6e-06 -0.00025
-0.002068 -3.1e-05 -0.000323
-0.002266 -6e-06 -0.000201
-0.002271 -6e-06 -0.000177
-0.00227 -4e-06 -0.000152
-0.002276 -6e-06 -0.000128
-0.002278 -5e-06 -0.000103
-0.002283 -6e-06 -7.9e-05
-0.002064 -3.1e-05 -0.000348
-0.002311 -8e-06 9.1e-05
-0.002314 -8e-06 0.000116
-0.00232 -9e-06 0.00014
-0.002326 -1e-05 0.000164
-0.002341 -1.1e-05 0.000261
-0.002345 -1.1e-05 0.000286
-0.002349 -1.1e-05 0.00031
-0.002113 -7e-06 -0.000901
-0.002114 -6e-06 -0.000876
-0.002119 -6e-06 -0.000852
-0.002127 -5e-06 -0.000779
-0.002129 -5e-06 -0.000754
-0.002133 -5e-06 -0.00073
-0.002704 0.000585 -0.000846
-0.002358 0.000701 -0.00115
-0.001876 0.000707 -0.001644
-0.002147 -4e-06 -0.000607
-0.002149 -3e-06 -0.000583
-0.002152 -3e-06 -0.000558
-0.002156 -3e-06 -0.000534
-0.002314 0.000706 -0.000942
-0.00258 0.000629 -0.001465
-0.002566 0.000712 -0.001486
-0.002173 -3e-06 -0.000412
-0.002177 -4e-06 -0.000388
-0.002183 -4e-06 -0.000364
-0.002185 -4e-06 -0.000339
-0.002189 -5e-06 -0.000315
-0.00219 -4e-06 -0.00029
-0.002195 -4e-06 -0.000266
-0.002198 -4e-06 -0.000241
-0.002204 -4e-06 -0.000192
-0.002207 -4e-06 -0.000168
-0.002211 -4e-06 -0.000144
-0.00222 -5e-06 -9.5e-05
-0.002222 -4e-06 -7.1e-05
-0.00223 -4e-06 3e-06
-0.002233 -3e-06 2.7e-05
-0.002237 -3e-06 5.2e-05
-0.002243 -5e-06 7.6e-05
-0.002245 -4e-06 0.0001
-0.002249 -5e-06 0.000125
-0.002254 -5e-06 0.000149
-0.002263 -5e-06 0.000222
-0.002267 -5e-06 0.000246
-0.00227 -5e-06 0.000271
-0.002275 -6e-06 0.000295
-0.002279 -6e-06 0.000319
-0.00206 -3e-05 -0.000372
-0.002057 -3e-05 -0.000396
-0.00205 -4e-06 -0.000892
-0.002053 -4e-06 -0.000868
-0.002056 -4e-06 -0.000844
-0.002059 -4e-06 -0.000819
-0.002061 -3e-06 -0.000795
-0.002065 -4e-06 -0.00077
-0.002069 -4e-06 -0.000746
-0.002074 -5e-06 -0.000722
-0.00266 0.000603 -0.000853
-0.002746 0.000569 -0.000837
-0.002404 0.000707 -0.000874
-0.002548 0.000682 -0.001568
-0.002095 -6e-06 -0.0006
-0.0021 -7e-06 -0.000576
-0.002103 -7e-06 -0.000552
-0.002292 0.000733 -0.000986
-0.002287 0.000731 -0.001011
-0.00229 0.000724 -0.001039
-0.001872 0.000686 -0.001899
-0.002124 -9e-06 -0.00043
-0.002128 -9e-06 -0.000406
-0.00213 -9e-06 -0.000381
-0.002134 -9e-06 -0.000357
-0.002138 -9e-06 -0.000333
-0.002141 -9e-06 -0.000308
-0.002145 -9e-06 -0.000284
-0.002148 -9e-06 -0.000259
-0.002152 -1e-05 -0.000235
-0.002155 -1e-05 -0.000211
-0.002157 -9e-06 -0.000186
-0.00216 -9e-06 -0.000162
-0.002163 -9e-06 -0.000137
-0.002174 -7e-06 -3.9e-05
-0.002177 -7e-06 -1.5e-05
-0.00218 -7e-06 1e-05
-0.002182 -6e-06 3.4e-05
-0.002184 -6e-06 5.9e-05
-0.002185 -5e-06 8.4e-05
-0.00219 -6e-06 0.000108
-0.002203 -4e-06 0.00023
-0.002206 -4e-06 0.000255
-0.002209 -3e-06 0.000279
-0.002213 -4e-06 0.000304
-0.002216 -4e-06 0.000328
-0.002052 -3e-05 -0.00042
-0.002546 0.000548 -0.001396
-0.002 -6e-06 -0.000861
-0.002006 -7e-06 -0.000837
-0.002011 -8e-06 -0.000813
-0.002016 -9e-06 -0.000789
-0.002022 -1e-05 -0.000764
-0.002027 -1.1e-05 -0.00074
-0.002031 -1.1e-05 -0.000716
-0.002785 0.000581 -0.000828
-0.002861 0.000553 -0.000808
-0.001152 0.000687 -0.002489
-0.00185 0.000709 -0.001849
-0.001821 0.000746 -0.001759
-0.00206 -1.5e-05 -0.000571
-0.002064 -1.6e-05 -0.000546
-0.002069 -1.6e-05 -0.000522
-0.002073 -1.7e-05 -0.000498
-0.002078 -1.7e-05 -0.000474
-0.002081 -1.8e-05 -0.000449
-0.002085 -1.8e-05 -0.000425
-0.002089 -1.8e-05 -0.000401
-0.002094 -1.9e-05 -0.000376
-0.002098 -1.9e-05 -0.000352
-0.002101 -1.9e-05 -0.000328
-0.002103 -1.9e-05 -0.000303
-0.002107 -1.9e-05 -0.000279
-0.002111 -1.9e-05 -0.000254
-0.002114 -1.9e-05 -0.00023
-0.002117 -1.9e-05 -0.000205
-0.002119 -1.8e-05 -0.000181
-0.002123 -1.9e-05 -0.000157
-0.002126 -1.8e-05 -0.000132
-0.002128 -1.8e-05 -0.000108
-0.002131 -1.7e-05 -8.3e-05
-0.002133 -1.7e-05 -5.9e-05
-0.002136 -1.7e-05 -3.4e-05
-0.002138 -1.6e-05 -9e-06
-0.002139 -1.5e-05 1.5e-05
-0.002142 -1.5e-05 4e-05
-0.002143 -1.4e-05 6.4e-05
-0.002145 -1.3e-05 8.9e-05
-0.002155 -9e-06 0.000237
-0.002158 -8e-06 0.000261
-0.002159 -7e-06 0.000286
-0.002048 -2.9e-05 -0.000445
-0.002043 -2.9e-05 -0.000469
-0.00259 0.00051 -0.001496
-0.002585 0.000507 -0.001521
-0.002482 0.000719 -0.001637
-0.002455 0.00068 -0.001683
-0.002345 0.0007 -0.000902
-0.0029 0.000543 -0.000771
-0.002541 0.000541 -0.001594
-0.002889 0.000544 -0.000793
-0.002745 0.000597 -0.000837
-0.002824 0.000566 -0.000818
-0.002529 0.000562 -0.001361
-0.002786 0.000554 -0.000828
-0.002579 0.000439 -0.001464
-0.002025 -2.6e-05 -0.000566
-0.00203 -2.7e-05 -0.000542
-0.002034 -2.8e-05 -0.000517
-0.002039 -2.8e-05 -0.000493
-0.002359 0.000592 -0.001151
-0.002316 0.000619 -0.001105
-0.002294 0.000636 -0.001068
-0.002286 0.000645 -0.001037
-0.002287 0.000649 -0.001011
-0.002292 0.000652 -0.000986
-0.002302 0.000652 -0.000963
-0.002313 0.000652 -0.000942
-0.002328 0.000649 -0.000921
-0.002345 0.000646 -0.000902
-0.00237 0.000638 -0.000886
-0.002405 0.000625 -0.000874
-0.002465 0.0006 -0.000874
-0.002518 0.000578 -0.000871
-0.002569 0.000557 -0.000867
-0.002616 0.000538 -0.00086
-0.00266 0.000521 -0.000853
-0.002704 0.000504 -0.000846
-0.002746 0.000487 -0.000837
-0.002785 0.000473 -0.000828
-0.002825 0.000458 -0.000818
-0.002862 0.000444 -0.000808
-0.00289 0.000435 -0.000793
-0.002901 0.000434 -0.000772
-0.002908 0.000436 -0.000747
-0.002913 0.000438 -0.000723
-0.002389 0.000511 -0.001692
-0.000962 0.000557 -0.002834
-0.000294 0.000693 -0.002673
-0.001948 0.000618 -0.002125
-0.002255 0.000672 -0.001675
-0.001954 0.000659 -0.002162
-0.001653 0.000639 -0.002354
-0.002561 0.0004 -0.001564
-0.002574 0.000399 -0.001543
-0.002586 0.000398 -0.001521
-0.00259 0.000401 -0.001496
-0.00258 0.000412 -0.001464
-0.002563 0.000425 -0.00143
-0.002546 0.000439 -0.001395
-0.002529 0.000453 -0.001361
-0.002502 0.000472 -0.001322
-0.002472 0.000492 -0.001282
-0.002435 0.000516 -0.001238
-0.002398 0.00054 -0.001195
-0.002359 0.000565 -0.001151
-0.002316 0.000592 -0.001104
-0.002294 0.000609 -0.001068
-0.002286 0.000618 -0.001037
-0.002287 0.000622 -0.001011
-0.002292 0.000625 -0.000986
-0.002302 0.000625 -0.000963
-0.002313 0.000624 -0.000941
-0.002327 0.000623 -0.000921
-0.002345 0.000618 -0.000902
-0.00237 0.000611 -0.000886
-0.002405 0.000598 -0.000874
-0.002465 0.000573 -0.000874
-0.002517 0.000551 -0.00087
-0.002568 0.00053 -0.000866
-0.002617 0.000511 -0.000861
-0.002661 0.000493 -0.000853
-0.002704 0.000476 -0.000846
-0.002746 0.00046 -0.000837
-0.002784 0.000446 -0.000827
-0.002827 0.000429 -0.000819
-0.002863 0.000416 -0.000809
-0.00289 0.000407 -0.000794
-0.002902 0.000406 -0.000772
-0.002909 0.000408 -0.000748
-0.002915 0.00041 -0.000724
-0.002347 0.000527 -0.001688
-0.001838 0.000532 -0.002366
-0.001872 0.000713 -0.001899
-0.002527 0.000594 -0.001615
-0.001055 0.000559 -0.002801
-0.002429 0.000659 -0.001693
-0.002548 0.000375 -0.001585
-0.002561 0.000373 -0.001564
-0.002574 0.000372 -0.001543
-0.002586 0.000371 -0.001521
-0.00259 0.000374 -0.001496
-0.002579 0.000385 -0.001464
-0.002563 0.000398 -0.001429
-0.002546 0.000412 -0.001395
-0.002529 0.000426 -0.001361
-0.002502 0.000444 -0.001322
-0.002471 0.000466 -0.001281
-0.002435 0.000489 -0.001238
-0.002399 0.000513 -0.001195
-0.002358 0.000538 -0.00115
-0.002317 0.000565 -0.001105
-0.002294 0.000581 -0.001068
-0.002286 0.00059 -0.001037
-0.002287 0.000595 -0.001011
-0.002292 0.000598 -0.000986
-0.002301 0.000598 -0.000963
-0.002313 0.000597 -0.000941
-0.002327 0.000595 -0.000921
-0.002345 0.000591 -0.000902
-0.00237 0.000584 -0.000886
-0.002404 0.000571 -0.000874
-0.002519 0.000523 -0.000871
-0.002568 0.000503 -0.000866
-0.002616 0.000484 -0.00086
-0.002661 0.000466 -0.000854
-0.002705 0.000449 -0.000846
-0.002746 0.000433 -0.000837
-0.002785 0.000418 -0.000828
-0.002826 0.000403 -0.000819
-0.002863 0.000389 -0.000808
-0.00289 0.00038 -0.000794
-0.002902 0.000379 -0.000772
-0.002909 0.000381 -0.000748
-0.002916 0.000382 -0.000724
-0.002051 0.000676 -0.001631
-0.001822 0.000755 -0.001728
-0.002255 0.000645 -0.001675
-0.001875 0.000672 -0.002332
-0.002109 0.000732 -0.001648
-0.002208 0.000718 -0.001667
-0.002493 0.000677 -0.001651
-0.002548 0.000348 -0.001585
-0.002561 0.000346 -0.001564
-0.002574 0.000345 -0.001543
-0.002586 0.000344 -0.001521
-0.00259 0.000347 -0.001496
-0.002579 0.000358 -0.001464
-0.002563 0.000371 -0.00143
-0.002545 0.000385 -0.001395
-0.002528 0.000399 -0.001361
-0.002504 0.000417 -0.001323
-0.002435 0.000462 -0.001238
-0.002398 0.000486 -0.001195
-0.002315 0.000538 -0.001104
-0.002294 0.000554 -0.001068
-0.002286 0.000563 -0.001037
-0.002287 0.000568 -0.001011
-0.002292 0.000571 -0.000986
-0.002301 0.000571 -0.000963
-0.002313 0.00057 -0.000941
-0.002327 0.000568 -0.000921
-0.002345 0.000564 -0.000902
-0.00237 0.000556 -0.000886
-0.002404 0.000544 -0.000874
-0.002521 0.000495 -0.000872
-0.002568 0.000476 -0.000866
-0.002616 0.000457 -0.00086
-0.002662 0.000438 -0.000854
-0.002705 0.000422 -0.000846
-0.002745 0.000406 -0.000837
-0.002785 0.000391 -0.000828
-0.002825 0.000376 -0.000818
-0.002863 0.000362 -0.000809
-0.002891 0.000353 -0.000794
-0.002902 0.000352 -0.000772
-0.002909 0.000353 -0.000748
-0.002916 0.000355 -0.000724
-0.001986 0.000706 -0.001608
-0.002465 0.000565 -0.001691
-0.001838 0.00056 -0.002365
-0.000386 0.00069 -0.002468
-0.002527 0.000648 -0.001615
-0.001139 0.000531 -0.002691
-0.002548 0.00032 -0.001585
-0.002561 0.000319 -0.001564
-0.002574 0.000317 -0.001543
-0.002586 0.000316 -0.001521
-0.00259 0.00032 -0.001496
-0.002579 0.00033 -0.001464
-0.002563 0.000344 -0.00143
-0.002546 0.000357 -0.001395
-0.002529 0.000371 -0.001361
-0.002503 0.00039 -0.001322
-0.002471 0.000411 -0.001281
-0.002435 0.000434 -0.001238
-0.002397 0.000459 -0.001194
-0.00236 0.000483 -0.001151
-0.002294 0.000527 -0.001068
-0.002286 0.000536 -0.001037
-0.002287 0.000541 -0.001011
-0.002292 0.000543 -0.000986
-0.002301 0.000544 -0.000963
-0.002313 0.000543 -0.000941
-0.002327 0.000541 -0.000921
-0.002345 0.000537 -0.000901
-0.00237 0.000529 -0.000886
-0.002405 0.000517 -0.000874
-0.002521 0.000468 -0.000872
-0.002569 0.000448 -0.000866
-0.002616 0.000429 -0.00086
-0.002662 0.000411 -0.000854
-0.002705 0.000395 -0.000846
-0.002745 0.000379 -0.000837
-0.002786 0.000364 -0.000828
-0.002825 0.000349 -0.000819
-0.002863 0.000334 -0.000808
-0.002891 0.000325 -0.000794
-0.002902 0.000325 -0.000772
-0.002909 0.000327 -0.000748
-0.002915 0.000329 -0.000724
-0.001821 0.000701 -0.001727
-0.002346 0.000609 -0.001687
-0.002541 0.000595 -0.001594
-0.001949 0.000652 -0.002265
-0.002513 0.000647 -0.001635
-0.001819 0.000504 -0.002382
-0.002549 0.000293 -0.001585
-0.002562 0.000291 -0.001564
-0.002575 0.00029 -0.001543
-0.002586 0.000289 -0.001521
-0.00259 0.000292 -0.001496
-0.002579 0.000303 -0.001464
-0.002563 0.000317 -0.00143
-0.002547 0.00033 -0.001396
-0.002529 0.000344 -0.001361
-0.002502 0.000363 -0.001322
-0.002471 0.000384 -0.001281
-0.002435 0.000407 -0.001238
-0.002358 0.000457 -0.00115
-0.002318 0.000483 -0.001105
-0.002293 0.0005 -0.001067
-0.002286 0.000509 -0.001037
-0.002287 0.000514 -0.00101
-0.002292 0.000516 -0.000986
-0.002301 0.000517 -0.000963
-0.002313 0.000516 -0.000941
-0.002327 0.000514 -0.000921
-0.002345 0.00051 -0.000902
-0.00237 0.000502 -0.000886
-0.002404 0.00049 -0.000874
-0.002522 0.00044 -0.000872
-0.002569 0.000421 -0.000867
-0.002617 0.000402 -0.000861
-0.002662 0.000384 -0.000854
-0.002704 0.000368 -0.000846
-0.002745 0.000352 -0.000837
-0.002785 0.000337 -0.000828
-0.002825 0.000322 -0.000818
-0.002863 0.000307 -0.000808
-0.002891 0.000298 -0.000794
-0.002903 0.000297 -0.000772
-0.002909 0.000299 -0.000748
-0.002916 0.000301 -0.000724
-0.002466 0.000511 -0.001692
-0.002108 0.000705 -0.001648
-0.002554 0.000597 -0.001573
-0.001152 0.000635 -0.002622
-0.002498 0.000647 -0.001655
-0.001877 0.00048 -0.002335
-0.002549 0.000266 -0.001585
-0.002562 0.000264 -0.001564
-0.002575 0.000263 -0.001543
-0.002586 0.000262 -0.001521
-0.00259 0.000265 -0.001496
-0.00258 0.000276 -0.001464
-0.002563 0.000289 -0.00143
-0.002547 0.000303 -0.001396
-0.002528 0.000317 -0.00136
-0.002501 0.000336 -0.001322
-0.00247 0.000357 -0.001281
-0.002435 0.00038 -0.001238
-0.002316 0.000456 -0.001104
-0.002293 0.000473 -0.001067
-0.002286 0.000482 -0.001037
-0.002287 0.000487 -0.00101
-0.002292 0.000489 -0.000986
-0.002301 0.000489 -0.000963
-0.002313 0.000489 -0.000941
-0.002327 0.000487 -0.000921
-0.002345 0.000482 -0.000902
-0.00237 0.000475 -0.000886
-0.002404 0.000463 -0.000874
-0.002521 0.000413 -0.000872
-0.00257 0.000393 -0.000867
-0.002617 0.000375 -0.000861
-0.002663 0.000357 -0.000854
-0.002705 0.00034 -0.000846
-0.002745 0.000325 -0.000837
-0.002786 0.000309 -0.000828
-0.002825 0.000294 -0.000818
-0.002863 0.00028 -0.000808
-0.002891 0.000271 -0.000794
-0.002903 0.00027 -0.000772
-0.00291 0.000272 -0.000748
-0.002916 0.000274 -0.000724
-0.001948 0.000746 -0.001609
-0.00254 0.000568 -0.001594
-0.001565 0.000733 -0.002309
-0.002159 0.000711 -0.001658
-0.002484 0.000618 -0.001675
-0.001949 0.000699 -0.002126
-0.002535 0.00024 -0.001606
-0.002548 0.000239 -0.001585
-0.002562 0.000237 -0.001564
-0.002574 0.000236 -0.001543
-0.002586 0.000235 -0.001521
-0.00259 0.000238 -0.001496
-0.002579 0.000249 -0.001464
-0.002564 0.000262 -0.00143
-0.002547 0.000276 -0.001396
-0.002529 0.00029 -0.001361
-0.002503 0.000308 -0.001322
-0.00247 0.00033 -0.00128
-0.002433 0.000354 -0.001237
-0.002356 0.000403 -0.001149
-0.002315 0.00043 -0.001104
-0.002293 0.000446 -0.001067
-0.002285 0.000455 -0.001037
-0.002287 0.00046 -0.00101
-0.002292 0.000462 -0.000986
-0.002301 0.000462 -0.000963
-0.002312 0.000462 -0.000941
-0.002327 0.00046 -0.000921
-0.002345 0.000455 -0.000901
-0.00237 0.000448 -0.000886
-0.002405 0.000435 -0.000874
-0.002466 0.000409 -0.000874
-0.002521 0.000386 -0.000872
-0.002571 0.000366 -0.000867
-0.002618 0.000347 -0.000861
-0.002662 0.000329 -0.000854
-0.002705 0.000313 -0.000846
-0.002746 0.000297 -0.000837
-0.002786 0.000282 -0.000828
-0.002825 0.000267 -0.000818
-0.002863 0.000253 -0.000808
-0.002891 0.000244 -0.000794
-0.002903 0.000243 -0.000772
-0.00291 0.000245 -0.000748
-0.002916 0.000246 -0.000724
-0.001985 0.000734 -0.001607
-0.002527 0.000567 -0.001615
-0.001957 0.000573 -0.002262
-0.002346 0.000636 -0.001687
-0.002528 0.00062 -0.001616
-0.001954 0.000686 -0.002162
-0.002535 0.000213 -0.001606
-0.002548 0.000211 -0.001585
-0.002562 0.00021 -0.001564
-0.002574 0.000209 -0.001543
-0.002586 0.000208 -0.001521
-0.002589 0.000211 -0.001495
-0.002579 0.000222 -0.001464
-0.002564 0.000235 -0.00143
-0.002547 0.000249 -0.001396
-0.00253 0.000262 -0.001361
-0.002503 0.000281 -0.001322
-0.002469 0.000303 -0.00128
-0.002432 0.000328 -0.001237
-0.002357 0.000376 -0.001149
-0.002316 0.000402 -0.001104
-0.002293 0.000419 -0.001067
-0.002285 0.000428 -0.001037
-0.002286 0.000432 -0.00101
-0.002292 0.000435 -0.000986
-0.002301 0.000435 -0.000963
-0.002312 0.000435 -0.000941
-0.002327 0.000433 -0.00092
-0.002345 0.000428 -0.000901
-0.00237 0.000421 -0.000885
-0.002406 0.000408 -0.000875
-0.002466 0.000382 -0.000874
-0.002522 0.000359 -0.000872
-0.002571 0.000338 -0.000867
-0.002617 0.00032 -0.000861
-0.002662 0.000303 -0.000854
-0.002704 0.000286 -0.000845
-0.002746 0.00027 -0.000837
-0.002786 0.000255 -0.000828
-0.002827 0.000239 -0.000819
-0.002863 0.000226 -0.000808
-0.00289 0.000217 -0.000793
-0.002902 0.000216 -0.000772
-0.00291 0.000217 -0.000748
-0.002916 0.000219 -0.000724
-0.001948 0.000564 -0.002125
-0.002429 0.000577 -0.001693
-0.002567 0.000599 -0.001552
-0.000888 0.00059 -0.002844
-0.002553 0.000651 -0.001573
-0.001799 0.000504 -0.002395
-0.002549 0.000184 -0.001585
-0.002562 0.000183 -0.001564
-0.002574 0.000182 -0.001542
-0.002585 0.000181 -0.00152
-0.002589 0.000185 -0.001495
-0.002579 0.000195 -0.001464
-0.002564 0.000208 -0.00143
-0.002547 0.000221 -0.001396
-0.00253 0.000235 -0.001361
-0.002502 0.000254 -0.001322
-0.00247 0.000276 -0.001281
-0.002433 0.0003 -0.001237
-0.002358 0.000348 -0.00115
-0.002315 0.000375 -0.001104
-0.002293 0.000392 -0.001067
-0.002285 0.000401 -0.001037
-0.002286 0.000405 -0.00101
-0.002292 0.000408 -0.000986
-0.002301 0.000408 -0.000963
-0.002312 0.000408 -0.000941
-0.002326 0.000405 -0.00092
-0.002345 0.000401 -0.000901
-0.002369 0.000394 -0.000885
-0.002406 0.00038 -0.000875
-0.002466 0.000355 -0.000875
-0.002521 0.000332 -0.000872
-0.002571 0.000311 -0.000867
-0.002617 0.000293 -0.000861
-0.002662 0.000275 -0.000854
-0.002705 0.000259 -0.000846
-0.002746 0.000243 -0.000837
-0.002787 0.000227 -0.000828
-0.002826 0.000212 -0.000819
-0.002861 0.000199 -0.000808
-0.002889 0.00019 -0.000793
-0.002902 0.000189 -0.000772
-0.002909 0.000191 -0.000748
-0.002916 0.000192 -0.000724
-0.001957 0.000519 -0.002262
-0.0025 0.000564 -0.001656
-0.001133 0.000664 -0.002723
-0.001962 0.000608 -0.002233
-0.002541 0.00065 -0.001594
-0.001468 0.000589 -0.002253
-0.002549 0.000157 -0.001585
-0.002561 0.000156 -0.001564
-0.002573 0.000155 -0.001542
-0.002583 0.000155 -0.00152
-0.002588 0.000158 -0.001495
-0.002579 0.000168 -0.001464
-0.002563 0.000181 -0.00143
-0.002547 0.000194 -0.001396
-0.00253 0.000208 -0.001361
-0.002503 0.000226 -0.001322
-0.00247 0.000249 -0.001281
-0.002432 0.000273 -0.001237
-0.002356 0.000322 -0.001149
-0.002315 0.000348 -0.001104
-0.002293 0.000364 -0.001067
-0.002285 0.000374 -0.001037
-0.002286 0.000378 -0.00101
-0.002291 0.000381 -0.000985
-0.0023 0.000381 -0.000962
-0.002312 0.000381 -0.000941
-0.002326 0.000378 -0.00092
-0.002345 0.000374 -0.000901
-0.00237 0.000366 -0.000885
-0.002406 0.000353 -0.000875
-0.002467 0.000327 -0.000875
-0.002521 0.000305 -0.000872
-0.002571 0.000284 -0.000867
-0.002618 0.000265 -0.000861
-0.002663 0.000248 -0.000854
-0.002705 0.000232 -0.000846
-0.002746 0.000216 -0.000837
-0.002787 0.0002 -0.000828
-0.002825 0.000186 -0.000818
-0.002861 0.000173 -0.000807
-0.002888 0.000164 -0.000792
-0.002901 0.000162 -0.000771
-0.002909 0.000163 -0.000748
-0.002916 0.000165 -0.000724
-0.001468 0.000726 -0.002252
-0.001854 0.000734 -0.001852
-0.002513 0.000592 -0.001636
-0.001955 0.000691 -0.00223
-0.000855 0.000578 -0.00282
-0.002387 0.000702 -0.00169
-0.002547 0.000131 -0.001584
-0.002559 0.00013 -0.001563
-0.00257 0.000129 -0.001541
-0.00258 0.00013 -0.001518
-0.002586 0.000132 -0.001494
-0.002578 0.000141 -0.001463
-0.002564 0.000153 -0.00143
-0.002547 0.000167 -0.001396
-0.00253 0.000181 -0.001361
-0.002503 0.000199 -0.001322
-0.00247 0.000221 -0.001281
-0.002432 0.000246 -0.001237
-0.002396 0.000269 -0.001194
-0.002356 0.000295 -0.001149
-0.002314 0.000321 -0.001103
-0.002292 0.000338 -0.001067
-0.002285 0.000346 -0.001037
-0.002286 0.000351 -0.00101
-0.002292 0.000353 -0.000985
-0.002301 0.000354 -0.000962
-0.002312 0.000353 -0.000941
-0.002326 0.000351 -0.00092
-0.002345 0.000347 -0.000901
-0.00237 0.000339 -0.000885
-0.002405 0.000326 -0.000874
-0.002466 0.0003 -0.000875
-0.002522 0.000277 -0.000872
-0.002571 0.000257 -0.000867
-0.002618 0.000238 -0.000861
-0.002662 0.000221 -0.000854
-0.002705 0.000204 -0.000846
-0.002746 0.000188 -0.000837
-0.002787 0.000173 -0.000828
-0.002825 0.000158 -0.000818
-0.002861 0.000145 -0.000807
-0.002886 0.000138 -0.000791
-0.002898 0.000137 -0.00077
-0.002907 0.000137 -0.000747
-0.002915 0.000138 -0.000723
-0.00194 0.000605 -0.002086
-0.002388 0.000593 -0.001691
-0.0025 0.000591 -0.001656
-0.001909 0.000698 -0.001995
-0.00243 0.000632 -0.001694
-0.002345 0.000691 -0.001687
-0.001154 0.000559 -0.002536
-0.002543 0.000106 -0.001583
-0.002555 0.000105 -0.001561
-0.002566 0.000104 -0.001539
-0.002575 0.000105 -0.001516
-0.002581 0.000107 -0.001492
-0.002577 0.000114 -0.001463
-0.002563 0.000126 -0.00143
-0.002547 0.000139 -0.001396
-0.00253 0.000153 -0.001361
-0.002503 0.000172 -0.001322
-0.00247 0.000194 -0.001281
-0.002433 0.000218 -0.001237
-0.002395 0.000243 -0.001193
-0.002357 0.000267 -0.00115
-0.002315 0.000294 -0.001104
-0.002291 0.000311 -0.001066
-0.002285 0.000319 -0.001036
-0.002286 0.000324 -0.00101
-0.002291 0.000326 -0.000985
-0.0023 0.000327 -0.000962
-0.002312 0.000326 -0.000941
-0.002326 0.000324 -0.00092
-0.002345 0.00032 -0.000901
-0.002369 0.000312 -0.000885
-0.002406 0.000299 -0.000875
-0.002466 0.000273 -0.000874
-0.002522 0.00025 -0.000872
-0.00257 0.000231 -0.000867
-0.002619 0.000211 -0.000861
-0.002662 0.000194 -0.000854
-0.002705 0.000177 -0.000846
-0.002746 0.000161 -0.000837
-0.002787 0.000146 -0.000828
-0.002825 0.000131 -0.000818
-0.00286 0.000118 -0.000807
-0.002881 0.000113 -0.000789
-0.002893 0.000112 -0.000768
-0.002903 0.000112 -0.000745
-0.002911 0.000113 -0.000722
-0.001696 0.000701 -0.002374
-0.002302 0.000626 -0.001682
-0.002465 0.000593 -0.001691
-0.001925 0.000679 -0.002041
-0.001948 0.000672 -0.002125
-0.002387 0.000675 -0.00169
-0.002426 0.000688 -0.001691
-0.002536 8.2e-05 -0.001579
-0.002548 8.1e-05 -0.001558
-0.002558 8.1e-05 -0.001535
-0.002568 8.1e-05 -0.001513
-0.002575 8.3e-05 -0.001489
-0.002575 8.8e-05 -0.001462
-0.002562 0.0001 -0.001429
-0.002547 0.000112 -0.001396
-0.002529 0.000127 -0.001361
-0.002503 0.000145 -0.001322
-0.002469 0.000167 -0.00128
-0.002394 0.000216 -0.001193
-0.002357 0.00024 -0.00115
-0.002315 0.000267 -0.001104
-0.002292 0.000284 -0.001066
-0.002286 0.000292 -0.001037
-0.002286 0.000297 -0.00101
-0.002292 0.000299 -0.000985
-0.002301 0.0003 -0.000962
-0.002312 0.000299 -0.000941
-0.002326 0.000297 -0.00092
-0.002345 0.000292 -0.000901
-0.00237 0.000285 -0.000885
-0.002406 0.000271 -0.000875
-0.002465 0.000247 -0.000874
-0.00252 0.000223 -0.000871
-0.002571 0.000203 -0.000867
-0.002618 0.000184 -0.000861
-0.002662 0.000166 -0.000854
-0.002706 0.000149 -0.000846
-0.002746 0.000134 -0.000837
-0.002787 0.000118 -0.000828
-0.002824 0.000104 -0.000818
-0.002857 9.3e-05 -0.000806
-0.002875 8.9e-05 -0.000786
-0.002887 8.8e-05 -0.000765
-0.002896 8.8e-05 -0.000742
-0.002905 8.9e-05 -0.000719
-0.002514 0.000538 -0.001636
-0.001891 0.000692 -0.001948
-0.002301 0.000654 -0.001682
-0.001155 0.000739 -0.002493
-0.00246 0.00065 -0.001688
-0.000783 0.000699 -0.002753
-0.002525 6.1e-05 -0.001575
-0.002537 6e-05 -0.001553
-0.002548 5.9e-05 -0.001531
-0.002558 5.9e-05 -0.001508
-0.002565 6.1e-05 -0.001485
-0.002569 6.4e-05 -0.001459
-0.002562 7.3e-05 -0.001429
-0.002547 8.5e-05 -0.001396
-0.00253 9.9e-05 -0.001361
-0.002503 0.000118 -0.001322
-0.002468 0.000141 -0.00128
-0.002434 0.000163 -0.001238
-0.002395 0.000189 -0.001193
-0.002356 0.000213 -0.001149
-0.002313 0.00024 -0.001103
-0.002291 0.000257 -0.001066
-0.002286 0.000265 -0.001037
-0.002286 0.000269 -0.00101
-0.002292 0.000272 -0.000985
-0.002301 0.000272 -0.000962
-0.002312 0.000272 -0.000941
-0.002327 0.00027 -0.00092
-0.002345 0.000265 -0.000901
-0.00237 0.000257 -0.000886
-0.002406 0.000244 -0.000875
-0.002465 0.000219 -0.000874
-0.002569 0.000176 -0.000866
-0.002617 0.000157 -0.000861
-0.002662 0.000139 -0.000854
-0.002706 0.000122 -0.000846
-0.002746 0.000107 -0.000837
-0.002787 9.1e-05 -0.000828
-0.002823 7.8e-05 -0.000817
-0.00285 6.9e-05 -0.000802
-0.002865 6.7e-05 -0.000782
-0.002877 6.6e-05 -0.00076
-0.002887 6.6e-05 -0.000738
-0.001953 0.000578 -0.002161
-0.001958 0.000566 -0.002197
-0.00194 0.000632 -0.002086
-0.001953 0.000632 -0.002161
-0.002542 0.000622 -0.001595
-0.001147 0.000677 -0.002658
-0.002522 0.000678 -0.001611
-0.001737 0.000467 -0.002391
-0.001952 0.000567 -0.00227
-0.002481 0.000647 -0.001673
-0.002544 3.9e-05 -0.001502
-0.002552 4e-05 -0.001479
-0.002558 4.2e-05 -0.001454
-0.002557 4.8e-05 -0.001427
-0.002547 5.8e-05 -0.001396
-0.002529 7.2e-05 -0.001361
-0.002503 9.1e-05 -0.001322
-0.002467 0.000114 -0.001279
-0.002434 0.000136 -0.001237
-0.002394 0.000161 -0.001193
-0.002356 0.000186 -0.001149
-0.002315 0.000212 -0.001103
-0.002291 0.00023 -0.001066
-0.002286 0.000238 -0.001037
-0.002286 0.000242 -0.00101
-0.002292 0.000245 -0.000985
-0.002301 0.000245 -0.000962
-0.002312 0.000244 -0.000941
-0.002327 0.000242 -0.00092
-0.002345 0.000238 -0.000901
-0.00237 0.00023 -0.000886
-0.002406 0.000217 -0.000875
-0.002467 0.000191 -0.000875
-0.00252 0.00017 -0.000871
-0.00257 0.000149 -0.000867
-0.002617 0.00013 -0.000861
-0.002662 0.000112 -0.000854
-0.002706 9.5e-05 -0.000846
-0.002746 8e-05 -0.000837
-0.002785 6.5e-05 -0.000828
-0.002818 5.3e-05 -0.000815
-0.002839 4.8e-05 -0.000798
-0.002854 4.5e-05 -0.000777
-0.002864 4.5e-05 -0.000755
-0.001819 0.000613 -0.002381
-0.001814 0.000671 -0.002374
-0.001835 0.000671 -0.002361
-0.001959 0.000593 -0.002198
-0.00243 0.000604 -0.001694
-0.00114 0.000639 -0.002692
-0.001736 0.000603 -0.00239
-0.001798 0.000586 -0.002394
-0.001182 0.000751 -0.002208
-0.002555 0.000624 -0.001574
-0.002346 0.000663 -0.001687
-0.002463 0.000621 -0.00169
-0.002542 2.3e-05 -0.001447
-0.002545 2.7e-05 -0.001422
-0.002541 3.4e-05 -0.001393
-0.002528 4.6e-05 -0.00136
-0.002503 6.4e-05 -0.001322
-0.002431 0.00011 -0.001236
-0.002395 0.000134 -0.001193
-0.002357 0.000159 -0.001149
-0.002315 0.000185 -0.001104
-0.002292 0.000202 -0.001066
-0.002285 0.00021 -0.001037
-0.002287 0.000215 -0.00101
-0.002292 0.000217 -0.000985
-0.002301 0.000218 -0.000963
-0.002313 0.000217 -0.000941
-0.002327 0.000215 -0.00092
-0.002345 0.000211 -0.000901
-0.002371 0.000203 -0.000886
-0.002406 0.00019 -0.000874
-0.002465 0.000165 -0.000874
-0.00252 0.000142 -0.000871
-0.00257 0.000122 -0.000867
-0.002618 0.000103 -0.000861
-0.002661 8.6e-05 -0.000853
-0.002704 6.9e-05 -0.000845
-0.002745 5.3e-05 -0.000837
-0.002781 4e-05 -0.000826
-0.002807 3.2e-05 -0.00081
-0.002825 2.8e-05 -0.000791
-0.001908 0.00059 -0.001994
-0.001875 0.000738 -0.001902
-0.001919 0.000727 -0.001616
-0.001948 0.00072 -0.001608
-0.001897 0.000535 -0.00232
-0.002209 0.00069 -0.001668
-0.002255 0.000726 -0.001675
-0.00247 8e-06 -0.00155
-0.002481 8e-06 -0.001528
-0.001925 0.000624 -0.002041
-0.001962 0.000553 -0.002233
-0.001957 0.000546 -0.002262
-0.001653 0.000584 -0.002354
-0.002524 1e-05 -0.001412
-0.002525 1.5e-05 -0.001385
-0.002519 2.3e-05 -0.001356
-0.0025 3.8e-05 -0.001321
-0.002468 5.9e-05 -0.00128
-0.002429 8.4e-05 -0.001235
-0.002395 0.000107 -0.001193
-0.002356 0.000132 -0.001149
-0.002315 0.000158 -0.001103
-0.002292 0.000175 -0.001067
-0.002285 0.000183 -0.001037
-0.002287 0.000188 -0.00101
-0.002292 0.00019 -0.000985
-0.002301 0.000191 -0.000963
-0.002313 0.00019 -0.000941
-0.002327 0.000188 -0.00092
-0.002345 0.000184 -0.000901
-0.002371 0.000176 -0.000886
-0.002405 0.000163 -0.000874
-0.002465 0.000138 -0.000874
-0.002521 0.000114 -0.000872
-0.00257 9.4e-05 -0.000867
-0.002618 7.5e-05 -0.000861
-0.002662 5.8e-05 -0.000853
-0.002703 4.2e-05 -0.000845
-0.00274 2.9e-05 -0.000834
-0.002769 1.9e-05 -0.00082
-0.002788 1.4e-05 -0.000802
-0.00183 0.000706 -0.001702
-0.002333 1.6e-05 -0.001676
-0.002356 9e-06 -0.001661
-0.001925 0.00057 -0.002041
-0.001468 0.000671 -0.002252
-0.001943 0.00049 -0.002282
-0.002428 1e-06 -0.001531
-0.002438 1e-06 -0.001509
-0.002449 1e-06 -0.001487
-0.001896 0.000732 -0.001629
-0.001876 0.000734 -0.001644
-0.001925 0.000597 -0.002041
-0.002161 0.000737 -0.00166
-0.002495 8e-06 -0.001346
-0.002488 1.7e-05 -0.001315
-0.002467 3.3e-05 -0.001279
-0.00243 5.7e-05 -0.001236
-0.002394 8e-05 -0.001193
-0.002355 0.000105 -0.001148
-0.002315 0.000131 -0.001104
-0.002292 0.000147 -0.001066
-0.002285 0.000156 -0.001036
-0.002286 0.000161 -0.00101
-0.002292 0.000163 -0.000985
-0.002301 0.000163 -0.000963
-0.002313 0.000163 -0.000941
-0.002327 0.000161 -0.00092
-0.002345 0.000157 -0.000901
-0.002371 0.000149 -0.000886
-0.002405 0.000136 -0.000874
-0.002521 8.7e-05 -0.000872
-0.002571 6.7e-05 -0.000867
-0.002618 4.8e-05 -0.000861
-0.002659 3.3e-05 -0.000852
-0.002697 1.8e-05 -0.000842
-0.002723 1e-05 -0.000827
-0.002743 5e-06 -0.000808
-0.002755 4e-06 -0.000787
-0.002767 3e-06 -0.000765
-0.002776 4e-06 -0.000742
-0.002465 0.000711 -0.001659
-0.002298 4e-06 -0.001662
-0.002309 4e-06 -0.00164
-0.00232 4e-06 -0.001618
-0.001518 0.000565 -0.002282
-0.002379 4e-06 -0.001483
-0.00239 4e-06 -0.00146
-0.002397 5e-06 -0.001437
-0.002408 5e-06 -0.001414
-0.002427 5e-06 -0.001369
-0.002438 4e-06 -0.001347
-0.002448 5e-06 -0.001324
-0.002457 5e-06 -0.001302
-0.002455 1.2e-05 -0.001274
-0.002429 3e-05 -0.001235
-0.002394 5.3e-05 -0.001192
-0.002292 0.000121 -0.001066
-0.002285 0.000129 -0.001036
-0.002286 0.000134 -0.00101
-0.002291 0.000136 -0.000985
-0.002301 0.000136 -0.000963
-0.002313 0.000136 -0.000941
-0.002327 0.000134 -0.00092
-0.002345 0.00013 -0.000901
-0.00237 0.000122 -0.000885
-0.002405 0.000109 -0.000874
-0.002465 8.4e-05 -0.000874
-0.002521 6e-05 -0.000872
-0.002571 4e-05 -0.000867
-0.002616 2.2e-05 -0.00086
-0.002649 1e-05 -0.000848
-0.00267 5e-06 -0.00083
-0.002681 4e-06 -0.000808
-0.002689 5e-06 -0.000785
-0.002699 4e-06 -0.000762
-0.002711 4e-06 -0.00074
-0.002721 4e-06 -0.000718
-0.00276 5e-06 -0.000628
-0.002771 4e-06 -0.000606
-0.002193 2e-05 -0.00167
-0.002236 5e-06 -0.00166
-0.002247 3e-06 -0.001639
-0.002257 4e-06 -0.001617
-0.002266 4e-06 -0.001594
-0.002526 0.000713 -0.001581
-0.00194 0.000551 -0.002086
-0.001947 0.000537 -0.002125
-0.002332 1e-06 -0.001461
-0.002343 1e-06 -0.001439
-0.002353 1e-06 -0.001417
-0.002364 -0.0 -0.001395
-0.0025 0.000482 -0.001656
-0.002385 -1e-06 -0.001351
-0.002398 -2e-06 -0.001329
-0.002466 0.000483 -0.001692
-0.002418 -2e-06 -0.001284
-0.002426 -1e-06 -0.001261
-0.002419 8e-06 -0.001231
-0.002395 2.6e-05 -0.001193
-0.002356 5.1e-05 -0.001149
-0.002291 9.4e-05 -0.001066
-0.002284 0.000102 -0.001036
-0.002286 0.000107 -0.00101
-0.002291 0.000109 -0.000985
-0.002301 0.000109 -0.000962
-0.002313 0.000109 -0.000941
-0.002327 0.000106 -0.00092
-0.002345 0.000102 -0.000901
-0.00237 9.5e-05 -0.000885
-0.002405 8.2e-05 -0.000874
-0.002465 5.6e-05 -0.000874
-0.002524 3.1e-05 -0.000873
-0.00257 1.3e-05 -0.000866
-0.0026 3e-06 -0.000853
-0.002617 -1e-06 -0.000833
-0.002625 -0.0 -0.00081
-0.002634 1e-06 -0.000787
-0.002644 1e-06 -0.000764
-0.002652 2e-06 -0.000741
-0.002709 4e-06 -0.000605
-0.002718 4e-06 -0.000582
-0.002173 4e-06 -0.00166
-0.001849 0.000682 -0.001848
-0.00242 0.000719 -0.001685
-0.002216 -3e-06 -0.001599
-0.002228 -4e-06 -0.001577
-0.002239 -4e-06 -0.001555
-0.00243 0.000495 -0.001694
-0.001961 0.0005 -0.002232
-0.001871 0.000632 -0.001898
-0.002288 -4e-06 -0.001442
-0.002299 -4e-06 -0.00142
-0.002311 -5e-06 -0.001398
-0.002322 -5e-06 -0.001376
-0.002486 0.000481 -0.001677
-0.002513 0.000484 -0.001635
-0.002368 -3e-06 -0.001262
-0.00238 -4e-06 -0.00124
-0.002386 -2e-06 -0.001216
-0.002383 4e-06 -0.001188
-0.002358 2.2e-05 -0.00115
-0.002291 6.6e-05 -0.001066
-0.002285 7.5e-05 -0.001036
-0.002286 8e-05 -0.001009
-0.002291 8.2e-05 -0.000985
-0.0023 8.2e-05 -0.000962
-0.002312 8.2e-05 -0.000941
-0.002327 7.9e-05 -0.00092
-0.002344 7.5e-05 -0.000901
-0.002368 6.8e-05 -0.000885
-0.002404 5.5e-05 -0.000873
-0.002519 5e-06 -0.000871
-0.002544 -1e-06 -0.000855
-0.002561 -4e-06 -0.000835
-0.002591 -4e-06 -0.000768
-0.0026 -4e-06 -0.000745
-0.002611 -4e-06 -0.000723
-0.002621 -4e-06 -0.0007
-0.002016 -2.6e-05 -0.000593
-0.002007 -2.6e-05 -0.000616
-0.001998 -2.7e-05 -0.000639
-0.001908 0.000644 -0.001994
-0.002167 -5e-06 -0.001577
-0.002175 -4e-06 -0.001553
-0.001958 0.000511 -0.002197
-0.001958 0.000491 -0.002263
-0.001952 0.000524 -0.002161
-0.001989 -2.7e-05 -0.000662
-0.002232 -3e-06 -0.001417
-0.002242 -2e-06 -0.001394
-0.002254 -3e-06 -0.001373
-0.002262 -2e-06 -0.00135
-0.00198 -2.8e-05 -0.000685
-0.002299 -0.0 -0.001258
-0.002308 -0.0 -0.001235
-0.00233 -1e-06 -0.001191
-0.002339 -1e-06 -0.001168
-0.002341 4e-06 -0.001142
-0.002317 2.1e-05 -0.001104
-0.002292 3.9e-05 -0.001066
-0.002284 4.8e-05 -0.001036
-0.002285 5.3e-05 -0.001009
-0.002291 5.5e-05 -0.000985
-0.0023 5.5e-05 -0.000962
-0.002312 5.5e-05 -0.00094
-0.002326 5.3e-05 -0.00092
-0.002344 4.8e-05 -0.000901
-0.002368 4.1e-05 -0.000884
-0.001972 -2.8e-05 -0.000708
-0.002483 -2e-06 -0.000855
-0.002495 -3e-06 -0.000833
-0.002504 -2e-06 -0.00081
-0.002513 -2e-06 -0.000787
-0.001962 -2.9e-05 -0.000731
-0.002553 -2e-06 -0.000697
-0.002562 -1e-06 -0.000674
-0.001952 -2.9e-05 -0.000753
-0.002107 0.000624 -0.001647
-0.00205 0.000649 -0.001631
