-0.002245 9e-05 -0.001046
-0.002255 9e-05 -0.001023
-0.002268 8.9e-05 -0.001002
-0.002283 8.6e-05 -0.000981
-0.002303 8.1e-05 -0.000963
-0.00233 7.2e-05 -0.000948
-0.002373 5.5e-05 -0.000941
-0.002494 4e-06 -0.000941
-0.002517 -3e-06 -0.000924
-0.002529 -3e-06 -0.000902
-0.002539 -3e-06 -0.00088
-0.002641 -4e-06 -0.000655
-0.00265 -4e-06 -0.000633
0.000849 -1.9e-05 0.00195
0.000826 -1.9e-05 0.001958
-0.001858 0.000708 -0.001661
-0.002015 -2.5e-05 -0.000592
-0.002212 -2e-06 -0.001462
-0.002221 -2e-06 -0.001439
-0.002232 -2e-06 -0.001417
-0.002241 -2e-06 -0.001394
-0.002249 -1e-06 -0.001371
-0.002262 -2e-06 -0.001349
-0.002282 -2e-06 -0.001305
-0.002292 -1e-06 -0.001282
-0.002299 -1e-06 -0.001258
-0.002306 1e-06 -0.001234
-0.002294 1.2e-05 -0.001202
-0.00224 5e-05 -0.001124
-0.002237 5.7e-05 -0.001096
-0.002238 6.1e-05 -0.001069
-0.002245 6.3e-05 -0.001045
-0.002255 6.3e-05 -0.001023
-0.002267 6.2e-05 -0.001001
-0.002282 5.9e-05 -0.000981
-0.002302 5.4e-05 -0.000963
-0.002329 4.6e-05 -0.000948
-0.002374 2.8e-05 -0.000941
-0.002452 -2e-06 -0.000922
-0.002461 -1e-06 -0.000899
-0.002469 0.0 -0.000875
-0.00248 -1e-06 -0.000853
-0.002007 -2.6e-05 -0.000616
-0.001998 -2.7e-05 -0.000639
-0.001989 -2.7e-05 -0.000662
0.000803 -1.9e-05 0.001966
0.00078 -1.9e-05 0.001974
-0.00198 -2.8e-05 -0.000685
-0.002113 1e-06 -0.001526
-0.002139 3e-06 -0.001457
-0.002149 3e-06 -0.001434
-0.002155 4e-06 -0.00141
-0.00197 -2.8e-05 -0.000707
-0.001798 0.000675 -0.001933
-0.001873 0.00058 -0.002159
-0.00224 2.3e-05 -0.001124
-0.002236 3e-05 -0.001095
-0.002238 3.4e-05 -0.001069
-0.002244 3.6e-05 -0.001045
-0.002254 3.6e-05 -0.001023
-0.002267 3.5e-05 -0.001001
-0.002282 3.2e-05 -0.000981
-0.002302 2.7e-05 -0.000963
-0.002328 1.9e-05 -0.000947
-0.002362 7e-06 -0.000936
-0.001961 -2.8e-05 -0.00073
-0.002426 5e-06 -0.000802
-0.002434 6e-06 -0.000779
-0.002467 5e-06 -0.000713
-0.002476 5e-06 -0.00069
-0.002487 5e-06 -0.000668
-0.002499 4e-06 -0.000646
-0.002512 2e-06 -0.000625
-0.002564 2e-06 -0.000513
-0.002576 0.0 -0.000492
-0.002587 -0.0 -0.000469
0.000756 -2e-05 0.001983
0.000733 -2e-05 0.00199
-0.002049 6e-06 -0.001497
-0.00206 6e-06 -0.001475
-0.002071 5e-06 -0.001453
-0.002082 5e-06 -0.001431
-0.001878 0.000567 -0.002195
-0.000266 0.00072 -0.002499
-0.002488 0.000535 -0.001678
-0.001859 0.000505 -0.002352
-0.002459 0.000532 -0.001719
-0.002444 0.000531 -0.001739
-0.002176 2e-06 -0.00123
-0.002187 2e-06 -0.001208
-0.002199 1e-06 -0.001186
-0.002352 0.000721 -0.001758
-0.002443 0.000614 -0.001738
-0.002227 2e-06 -0.001118
-0.002232 5e-06 -0.001093
-0.002236 8e-06 -0.001068
-0.002244 9e-06 -0.001045
-0.002254 9e-06 -0.001022
-0.002265 9e-06 -0.001
-0.002279 7e-06 -0.00098
-0.002296 3e-06 -0.00096
-0.002368 2e-06 -0.000803
-0.002377 3e-06 -0.000781
-0.002387 3e-06 -0.000758
-0.002415 4e-06 -0.00069
-0.002424 4e-06 -0.000667
-0.002436 3e-06 -0.000645
-0.002445 4e-06 -0.000622
-0.002453 5e-06 -0.000599
-0.002463 5e-06 -0.000576
-0.002504 5e-06 -0.000486
-0.002513 5e-06 -0.000464
-0.002523 6e-06 -0.000441
0.00071 -2e-05 0.001998
0.000686 -2e-05 0.002006
-0.001972 3e-06 -0.001544
-0.001983 2e-06 -0.001522
-0.001063 0.000559 -0.002667
-0.001681 0.000625 -0.002441
-0.002018 -0.0 -0.001457
-0.002027 -0.0 -0.001434
-0.001639 0.000643 -0.002422
-0.001767 0.000742 -0.001746
-0.001795 0.000744 -0.001705
-0.001882 0.000556 -0.002229
-0.001083 0.000738 -0.002474
-0.001882 0.000682 -0.002299
-0.001874 0.000688 -0.002159
-0.002399 0.00054 -0.001764
-0.001797 0.000621 -0.001933
-0.002408 0.000707 -0.00174
-0.002152 -7e-06 -0.001193
-0.002164 -8e-06 -0.001171
-0.002386 0.000711 -0.001753
-0.002459 0.000614 -0.001718
-0.002196 -8e-06 -0.001104
-0.002206 -9e-06 -0.001082
-0.002217 -1e-05 -0.00106
-0.002227 -1e-05 -0.001037
-0.002237 -1e-05 -0.001015
-0.002247 -9e-06 -0.000992
-0.002257 -9e-06 -0.00097
-0.002266 -9e-06 -0.000947
-0.002286 -9e-06 -0.000902
-0.002295 -8e-06 -0.000879
-0.002323 -7e-06 -0.00081
-0.002333 -7e-06 -0.000788
-0.002341 -6e-06 -0.000765
-0.002351 -6e-06 -0.000742
-0.00236 -5e-06 -0.000719
-0.002368 -4e-06 -0.000696
-0.002376 -3e-06 -0.000672
-0.002385 -3e-06 -0.000649
-0.002393 -2e-06 -0.000626
-0.002402 -1e-06 -0.000603
-0.002412 -1e-06 -0.00058
-0.002437 1e-06 -0.000511
-0.002444 3e-06 -0.000487
-0.002454 3e-06 -0.000464
-0.001888 0.000479 -0.002298
-0.002459 0.000478 -0.001718
-0.001812 0.000716 -0.001687
-0.001948 -7e-06 -0.001506
-0.00196 -8e-06 -0.001485
-0.001972 -9e-06 -0.001463
-0.001984 -9e-06 -0.001441
-0.001996 -1e-05 -0.00142
-0.002008 -1.1e-05 -0.001398
-0.002019 -1.1e-05 -0.001376
-0.001887 0.000642 -0.002299
-0.002487 0.000644 -0.001677
-0.001182 0.000744 -0.002176
-0.001063 0.000721 -0.002668
-0.002071 -1.3e-05 -0.001264
-0.001758 0.000684 -0.00177
-0.002427 0.000705 -0.001724
-0.002113 -1.4e-05 -0.001175
-0.002122 -1.4e-05 -0.001152
-0.001506 0.000703 -0.002354
-0.001779 0.000745 -0.001723
-0.001597 0.000688 -0.002403
-0.002162 -1.4e-05 -0.001062
-0.002171 -1.3e-05 -0.001039
-0.002182 -1.4e-05 -0.001017
-0.002192 -1.3e-05 -0.000994
-0.002202 -1.4e-05 -0.000972
-0.002222 -1.4e-05 -0.000927
-0.002232 -1.4e-05 -0.000905
-0.002243 -1.4e-05 -0.000882
-0.002252 -1.4e-05 -0.00086
-0.002261 -1.3e-05 -0.000837
-0.002283 -1.4e-05 -0.000792
-0.002293 -1.4e-05 -0.00077
-0.002304 -1.4e-05 -0.000748
-0.002314 -1.4e-05 -0.000725
-0.002324 -1.4e-05 -0.000703
-0.002334 -1.4e-05 -0.000681
-0.002345 -1.5e-05 -0.000658
-0.002354 -1.4e-05 -0.000635
-0.002363 -1.4e-05 -0.000612
-0.002371 -9e-06 -0.000589
-0.002405 -9e-06 -0.000496
-0.002413 -8e-06 -0.000473
-0.002421 -7e-06 -0.000449
-0.001952 -2.9e-05 -0.000753
-0.002457 0.000706 -0.001685
-0.001905 -1.2e-05 -0.001487
-0.001915 -1.2e-05 -0.001465
-0.001926 -1.3e-05 -0.001443
-0.001946 -1.3e-05 -0.001398
-0.001956 -1.3e-05 -0.001375
-0.001967 -1.3e-05 -0.001353
-0.001976 -1.2e-05 -0.00133
-0.001984 -1.1e-05 -0.001307
-0.001888 0.000533 -0.002298
-0.002427 0.000532 -0.001756
-0.002014 -1.1e-05 -0.001239
-0.002024 -1.2e-05 -0.001217
-0.001942 -2.9e-05 -0.000776
-0.001932 -2.9e-05 -0.000798
-0.002101 -1e-05 -0.001035
-0.00211 -9e-06 -0.001012
-0.002119 -9e-06 -0.000989
-0.002131 -1e-05 -0.000968
-0.002161 -9e-06 -0.0009
-0.002175 -1.2e-05 -0.000879
-0.002185 -1.2e-05 -0.000857
-0.002197 -1.2e-05 -0.000835
-0.002204 -1.1e-05 -0.000811
-0.002248 -1.3e-05 -0.000723
-0.002256 -1.2e-05 -0.0007
-0.002275 -1.1e-05 -0.000654
-0.002287 -1.2e-05 -0.000633
-0.002299 -1.3e-05 -0.000611
-0.002313 -1.4e-05 -0.00059
-0.002319 -1.3e-05 -0.000566
-0.002361 -1.4e-05 -0.000477
-0.002377 -1.2e-05 -0.00043
-0.002389 -1.3e-05 -0.000408
-0.001922 -2.9e-05 -0.000821
-0.001912 -2.9e-05 -0.000843
-0.001838 -1.1e-05 -0.001484
-0.00185 -1.2e-05 -0.001463
-0.001857 -1e-05 -0.001439
-0.001866 -1e-05 -0.001416
-0.001911 -7e-06 -0.001301
-0.001921 -7e-06 -0.001279
-0.001939 -6e-06 -0.001232
-0.001949 -6e-06 -0.00121
-0.001959 -6e-06 -0.001188
-0.001989 -6e-06 -0.00112
-0.002 -6e-06 -0.001098
-0.002012 -7e-06 -0.001076
-0.00202 -6e-06 -0.001053
-0.002051 -6e-06 -0.000986
-0.00206 -6e-06 -0.000963
-0.002072 -7e-06 -0.000941
-0.002082 -7e-06 -0.000919
-0.001902 -2.9e-05 -0.000865
-0.001892 -2.9e-05 -0.000888
-0.001882 -2.9e-05 -0.00091
-0.002172 -7e-06 -0.000716
-0.002181 -6e-06 -0.000693
-0.001871 -2.8e-05 -0.000933
-0.002255 -8e-06 -0.000537
-0.002268 -9e-06 -0.000516
-0.002278 -9e-06 -0.000494
-0.00186 -2.8e-05 -0.000955
-0.002321 -1.1e-05 -0.000405
-0.002332 -1.1e-05 -0.000383
-0.002342 -1.1e-05 -0.000361
-0.001777 -7e-06 -0.001457
-0.001786 -6e-06 -0.001434
-0.001794 -5e-06 -0.001411
-0.001808 -7e-06 -0.00139
-0.002355 0.000638 -0.00176
-0.002312 0.000655 -0.001755
-0.001853 -4e-06 -0.001275
-0.001863 -4e-06 -0.001253
-0.001874 -5e-06 -0.001231
-0.001883 -4e-06 -0.001208
-0.001892 -4e-06 -0.001185
-0.001902 -4e-06 -0.001162
-0.001912 -4e-06 -0.00114
-0.001924 -5e-06 -0.001118
-0.001933 -4e-06 -0.001095
-0.001941 -3e-06 -0.001072
-0.001953 -4e-06 -0.00105
-0.001964 -5e-06 -0.001028
-0.001973 -4e-06 -0.001005
-0.001994 -4e-06 -0.00096
-0.002003 -4e-06 -0.000937
-0.002013 -4e-06 -0.000915
-0.002022 -4e-06 -0.000892
-0.002114 -4e-06 -0.000691
-0.002123 -4e-06 -0.000668
-0.002177 -5e-06 -0.000557
-0.002196 -5e-06 -0.000511
-0.002207 -5e-06 -0.000489
-0.002218 -6e-06 -0.000467
-0.002241 -7e-06 -0.000423
-0.002249 -6e-06 -0.0004
-0.00226 -7e-06 -0.000378
-0.002268 -6e-06 -0.000354
-0.002281 -7e-06 -0.000333
-0.00178 0.000502 -0.002411
-0.001709 -4e-06 -0.001454
-0.00172 -4e-06 -0.001432
-0.001753 0.000677 -0.001798
-0.00246 0.000505 -0.001719
-0.001779 0.000642 -0.001885
-0.001862 0.000542 -0.002117
-0.002267 0.000673 -0.001749
-0.001832 0.00058 -0.002027
-0.001799 -4e-06 -0.001251
-0.001809 -4e-06 -0.001229
-0.00182 -5e-06 -0.001207
-0.001832 -6e-06 -0.001185
-0.001844 -6e-06 -0.001163
-0.001852 -6e-06 -0.00114
-0.001865 -7e-06 -0.001119
-0.001875 -7e-06 -0.001096
-0.001886 -7e-06 -0.001074
-0.001896 -8e-06 -0.001052
-0.001906 -7e-06 -0.001029
-0.001917 -8e-06 -0.001007
-0.001928 -8e-06 -0.000985
-0.001938 -8e-06 -0.000963
-0.001948 -8e-06 -0.00094
-0.001959 -9e-06 -0.000918
-0.001969 -9e-06 -0.000896
-0.001979 -9e-06 -0.000873
-0.001988 -9e-06 -0.00085
-0.001998 -8e-06 -0.000827
-0.002009 -9e-06 -0.000805
-0.002057 -8e-06 -0.000692
-0.002066 -7e-06 -0.000669
-0.002114 -6e-06 -0.000556
-0.002123 -5e-06 -0.000533
-0.002133 -5e-06 -0.00051
-0.00214 -4e-06 -0.000486
-0.002151 -4e-06 -0.000464
-0.002161 -4e-06 -0.000442
-0.002173 -5e-06 -0.00042
-0.00219 -3e-06 -0.000374
-0.0022 -3e-06 -0.000351
-0.002211 -4e-06 -0.000329
-0.002118 0.000652 -0.00172
-0.001799 0.000639 -0.002396
-0.001668 -5e-06 -0.001409
-0.002473 0.000479 -0.001698
-0.001833 0.000714 -0.001672
-0.002474 0.000506 -0.001699
-0.002445 0.000504 -0.001739
-0.002425 0.000615 -0.001754
-0.002397 0.000622 -0.001763
-0.000307 0.000676 -0.002462
-0.001759 -1.1e-05 -0.001233
-0.001771 -1.2e-05 -0.001212
-0.001783 -1.3e-05 -0.00119
-0.001793 -1.3e-05 -0.001168
-0.001804 -1.3e-05 -0.001146
-0.001817 -1.4e-05 -0.001124
-0.001827 -1.5e-05 -0.001102
-0.001839 -1.5e-05 -0.00108
-0.00185 -1.6e-05 -0.001058
-0.001861 -1.7e-05 -0.001036
-0.001872 -1.7e-05 -0.001014
-0.001883 -1.7e-05 -0.000992
-0.001892 -1.7e-05 -0.000969
-0.001902 -1.7e-05 -0.000946
-0.001912 -1.7e-05 -0.000924
-0.001922 -1.7e-05 -0.000902
-0.001933 -1.7e-05 -0.000879
-0.001943 -1.8e-05 -0.000857
-0.001953 -1.8e-05 -0.000835
-0.001964 -1.8e-05 -0.000812
-0.001973 -1.8e-05 -0.000789
-0.001983 -1.7e-05 -0.000767
-0.001992 -1.7e-05 -0.000744
-0.002002 -1.7e-05 -0.000721
-0.00201 -1.6e-05 -0.000698
-0.002021 -1.6e-05 -0.000676
-0.00203 -1.6e-05 -0.000653
-0.002039 -1.5e-05 -0.00063
-0.002075 -1.3e-05 -0.000538
-0.002083 -1.2e-05 -0.000515
-0.002093 -1.2e-05 -0.000492
-0.002101 -1.1e-05 -0.000469
-0.002109 -1e-05 -0.000445
-0.002118 -9e-06 -0.000423
-0.002144 -7e-06 -0.000353
-0.002153 -6e-06 -0.00033
-0.002161 -6e-06 -0.000307
-0.002169 -5e-06 -0.000283
-0.002267 0.000563 -0.00175
-0.002218 0.000584 -0.001741
-0.001752 0.000732 -0.001798
-0.001878 0.000513 -0.002195
-0.001752 0.000704 -0.001798
-0.001759 0.000691 -0.001836
-0.001832 0.000607 -0.002027
-0.002488 0.000507 -0.001678
-0.001877 0.000507 -0.002335
-0.002218 0.000611 -0.001741
-0.001766 0.000689 -0.001745
-0.002311 0.000574 -0.001755
-0.002356 0.000556 -0.001761
-0.002267 0.000591 -0.001749
-0.002443 0.000705 -0.001705
-0.001784 -2.5e-05 -0.00111
-0.001795 -2.6e-05 -0.001088
-0.001806 -2.6e-05 -0.001066
-0.001818 -2.7e-05 -0.001044
-0.001829 -2.8e-05 -0.001022
-0.001839 -2.8e-05 -0.001
-0.00185 -2.8e-05 -0.000977
-0.001778 0.000691 -0.001723
-0.001794 0.000691 -0.001704
-0.001812 0.000689 -0.001687
-0.001833 0.000687 -0.001672
-0.001857 0.000681 -0.001661
-0.001887 0.000673 -0.001654
-0.001928 0.000658 -0.001656
-0.002064 0.000594 -0.001707
-0.002119 0.000571 -0.001721
-0.00217 0.000549 -0.001732
-0.002219 0.000529 -0.001741
-0.002268 0.000509 -0.00175
-0.002311 0.000492 -0.001754
-0.002356 0.000475 -0.00176
-0.002398 0.000458 -0.001764
-0.002428 0.00045 -0.001757
-0.002444 0.00045 -0.001738
-0.002458 0.000451 -0.001718
-0.002473 0.000452 -0.001698
-0.002487 0.000453 -0.001678
-0.002501 0.000455 -0.001657
-0.001138 0.000749 -0.002199
-0.001506 0.000649 -0.002354
-0.00182 0.000585 -0.002382
-0.001839 0.000613 -0.002367
-0.001681 0.000652 -0.002441
-0.001888 0.000452 -0.002298
-0.001885 0.000463 -0.002264
-0.001881 0.000474 -0.002229
-0.001878 0.000486 -0.002194
-0.001873 0.000499 -0.002158
-0.001862 0.000515 -0.002117
-0.001846 0.000534 -0.002071
-0.001832 0.000553 -0.002027
-0.001816 0.000572 -0.001981
-0.001796 0.000594 -0.001932
-0.001779 0.000614 -0.001885
-0.001758 0.000637 -0.001835
-0.001753 0.000649 -0.001799
-0.001757 0.000657 -0.001769
-0.001766 0.000662 -0.001744
-0.001778 0.000664 -0.001723
-0.001794 0.000664 -0.001704
-0.001812 0.000662 -0.001687
-0.001833 0.000659 -0.001672
-0.001857 0.000655 -0.00166
-0.001887 0.000646 -0.001654
-0.001927 0.000631 -0.001655
-0.002064 0.000567 -0.001706
-0.002119 0.000544 -0.001721
-0.002171 0.000521 -0.001733
-0.00222 0.000501 -0.001742
-0.002267 0.000482 -0.001749
-0.002311 0.000465 -0.001754
-0.002356 0.000447 -0.00176
-0.002399 0.000431 -0.001764
-0.002428 0.000423 -0.001757
-0.002444 0.000423 -0.001738
-0.002459 0.000424 -0.001718
-0.002473 0.000425 -0.001698
-0.002487 0.000426 -0.001678
-0.002501 0.000427 -0.001657
-0.001058 0.000574 -0.002702
-0.001406 0.000698 -0.002293
-0.001839 0.000586 -0.002367
-0.001886 0.000623 -0.002307
-0.00164 0.00067 -0.002423
-0.001888 0.000425 -0.002298
-0.001885 0.000436 -0.002264
-0.001882 0.000447 -0.002229
-0.001877 0.000459 -0.002194
-0.001873 0.000471 -0.002158
-0.001862 0.000488 -0.002117
-0.001847 0.000507 -0.002071
-0.001831 0.000526 -0.002026
-0.001816 0.000545 -0.001981
-0.001796 0.000567 -0.001932
-0.001778 0.000588 -0.001884
-0.001758 0.00061 -0.001835
-0.001753 0.000622 -0.001799
-0.001756 0.00063 -0.001769
-0.001765 0.000635 -0.001744
-0.001778 0.000637 -0.001723
-0.001794 0.000637 -0.001704
-0.001812 0.000635 -0.001687
-0.001833 0.000632 -0.001672
-0.001857 0.000627 -0.00166
-0.001888 0.000618 -0.001654
-0.001929 0.000603 -0.001657
-0.002063 0.00054 -0.001706
-0.002118 0.000517 -0.00172
-0.002171 0.000494 -0.001732
-0.00222 0.000474 -0.001742
-0.002267 0.000455 -0.001749
-0.002311 0.000438 -0.001755
-0.002355 0.000421 -0.00176
-0.002399 0.000404 -0.001764
-0.002428 0.000396 -0.001757
-0.002444 0.000396 -0.001738
-0.002459 0.000396 -0.001718
-0.002473 0.000398 -0.001698
-0.002487 0.000399 -0.001677
-0.002501 0.0004 -0.001657
-0.00174 0.000528 -0.00244
-0.001597 0.000607 -0.002402
-0.00176 0.000583 -0.002426
-0.001819 0.000612 -0.002382
-0.001507 0.000729 -0.002356
-0.001888 0.000397 -0.002298
-0.001885 0.000408 -0.002264
-0.001882 0.000419 -0.00223
-0.001877 0.000432 -0.002194
-0.001873 0.000444 -0.002158
-0.001863 0.00046 -0.002117
-0.001847 0.00048 -0.002071
-0.001832 0.000499 -0.002027
-0.001815 0.000519 -0.00198
-0.001796 0.00054 -0.001932
-0.001778 0.00056 -0.001884
-0.001758 0.000582 -0.001835
-0.001752 0.000596 -0.001798
-0.001755 0.000604 -0.001768
-0.001765 0.000608 -0.001744
-0.001778 0.00061 -0.001722
-0.001794 0.000609 -0.001704
-0.001812 0.000608 -0.001687
-0.001833 0.000605 -0.001672
-0.001857 0.0006 -0.00166
-0.001888 0.000591 -0.001654
-0.002065 0.000512 -0.001707
-0.002118 0.00049 -0.00172
-0.002171 0.000467 -0.001733
-0.00222 0.000447 -0.001742
-0.002267 0.000428 -0.001749
-0.002312 0.00041 -0.001755
-0.002355 0.000393 -0.00176
-0.002399 0.000376 -0.001764
-0.002428 0.000369 -0.001757
-0.002445 0.000368 -0.001739
-0.002459 0.000369 -0.001719
-0.002474 0.00037 -0.001698
-0.002487 0.000371 -0.001678
-0.002501 0.000373 -0.001657
-0.001639 0.000561 -0.002422
-0.001681 0.000571 -0.00244
-0.00178 0.000583 -0.002412
-0.00178 0.000611 -0.002411
-0.001066 0.000736 -0.002628
-0.001888 0.00037 -0.002298
-0.001885 0.000381 -0.002264
-0.001882 0.000392 -0.00223
-0.001878 0.000405 -0.002194
-0.001873 0.000417 -0.002158
-0.001862 0.000434 -0.002116
-0.001847 0.000453 -0.002071
-0.001832 0.000471 -0.002027
-0.001813 0.000493 -0.001978
-0.001797 0.000512 -0.001932
-0.001778 0.000533 -0.001884
-0.001757 0.000556 -0.001834
-0.001752 0.000569 -0.001797
-0.001756 0.000576 -0.001768
-0.001765 0.000581 -0.001744
-0.001778 0.000582 -0.001722
-0.001794 0.000582 -0.001704
-0.001812 0.000581 -0.001687
-0.001832 0.000578 -0.001672
-0.001857 0.000573 -0.00166
-0.001888 0.000564 -0.001655
-0.001929 0.000549 -0.001657
-0.002065 0.000485 -0.001708
-0.002117 0.000463 -0.00172
-0.002171 0.00044 -0.001733
-0.00222 0.00042 -0.001742
-0.002267 0.0004 -0.00175
-0.002312 0.000383 -0.001755
-0.002356 0.000366 -0.00176
-0.002399 0.000349 -0.001765
-0.002428 0.000342 -0.001756
-0.002444 0.000342 -0.001737
-0.002458 0.000343 -0.001717
-0.002472 0.000344 -0.001697
-0.002487 0.000345 -0.001677
-0.002501 0.000346 -0.001657
-0.00107 0.000625 -0.002632
-0.001639 0.000589 -0.002421
-0.0018 0.000584 -0.002397
-0.001858 0.000615 -0.00235
-0.001551 0.000709 -0.002378
-0.001888 0.000343 -0.002298
-0.001886 0.000354 -0.002264
-0.001882 0.000366 -0.002229
-0.001878 0.000377 -0.002195
-0.001873 0.00039 -0.002158
-0.001862 0.000406 -0.002117
-0.001847 0.000425 -0.002072
-0.001831 0.000445 -0.002026
-0.001813 0.000465 -0.001979
-0.001797 0.000485 -0.001932
-0.001778 0.000506 -0.001884
-0.001757 0.000529 -0.001834
-0.001752 0.000542 -0.001798
-0.001757 0.000549 -0.001769
-0.001765 0.000553 -0.001744
-0.001778 0.000555 -0.001722
-0.001794 0.000555 -0.001704
-0.001812 0.000554 -0.001687
-0.001833 0.000551 -0.001672
-0.001857 0.000546 -0.00166
-0.001887 0.000537 -0.001654
-0.001928 0.000522 -0.001656
-0.002065 0.000458 -0.001707
-0.002117 0.000436 -0.00172
-0.002171 0.000413 -0.001733
-0.00222 0.000392 -0.001742
-0.002268 0.000373 -0.00175
-0.002312 0.000356 -0.001755
-0.002356 0.000339 -0.00176
-0.002399 0.000322 -0.001764
-0.002428 0.000314 -0.001756
-0.002444 0.000314 -0.001738
-0.002459 0.000315 -0.001718
-0.002473 0.000316 -0.001698
-0.002487 0.000317 -0.001677
-0.002501 0.000319 -0.001657
-0.00178 0.000556 -0.002411
-0.00155 0.000629 -0.002377
-0.001716 0.000586 -0.002449
-0.00176 0.000611 -0.002425
-0.001797 0.000668 -0.002393
-0.001887 0.000316 -0.002298
-0.001886 0.000327 -0.002264
-0.001882 0.000338 -0.002229
-0.001878 0.00035 -0.002194
-0.001873 0.000363 -0.002158
-0.001862 0.000379 -0.002117
-0.001848 0.000397 -0.002073
-0.001832 0.000417 -0.002026
-0.001814 0.000438 -0.001979
-0.001797 0.000458 -0.001933
-0.001778 0.000479 -0.001884
-0.001757 0.000501 -0.001834
-0.001752 0.000515 -0.001797
-0.001756 0.000522 -0.001769
-0.001765 0.000526 -0.001744
-0.001778 0.000528 -0.001722
-0.001794 0.000528 -0.001704
-0.001812 0.000526 -0.001687
-0.001833 0.000524 -0.001672
-0.001857 0.000519 -0.00166
-0.001888 0.00051 -0.001654
-0.001927 0.000496 -0.001655
-0.002065 0.00043 -0.001708
-0.002117 0.000408 -0.001719
-0.002172 0.000385 -0.001733
-0.00222 0.000365 -0.001742
-0.002267 0.000346 -0.001749
-0.002312 0.000329 -0.001755
-0.002356 0.000311 -0.00176
-0.002398 0.000295 -0.001764
-0.002428 0.000287 -0.001756
-0.002445 0.000287 -0.001738
-0.002459 0.000287 -0.001719
-0.002474 0.000288 -0.001698
-0.002488 0.00029 -0.001678
-0.002502 0.000291 -0.001658
-0.002516 0.000292 -0.001637
-0.00182 0.000558 -0.002382
-0.00107 0.000721 -0.002454
-0.001596 0.000634 -0.002402
-0.001551 0.000683 -0.002377
-0.001817 0.000669 -0.002378
-0.001887 0.000289 -0.002298
-0.001885 0.0003 -0.002264
-0.001881 0.000311 -0.002229
-0.001877 0.000323 -0.002194
-0.001873 0.000336 -0.002158
-0.001862 0.000352 -0.002116
-0.001848 0.00037 -0.002072
-0.001831 0.00039 -0.002026
-0.001814 0.00041 -0.001979
-0.001797 0.000431 -0.001932
-0.001777 0.000452 -0.001883
-0.001757 0.000474 -0.001834
-0.001751 0.000488 -0.001797
-0.001756 0.000495 -0.001768
-0.001765 0.000499 -0.001744
-0.001778 0.000501 -0.001722
-0.001794 0.000501 -0.001704
-0.001812 0.000499 -0.001687
-0.001833 0.000496 -0.001672
-0.001857 0.000491 -0.00166
-0.001887 0.000483 -0.001654
-0.001927 0.000468 -0.001655
-0.002065 0.000404 -0.001707
-0.002117 0.000381 -0.001719
-0.002171 0.000358 -0.001733
-0.002221 0.000338 -0.001742
-0.002267 0.000319 -0.00175
-0.002312 0.000301 -0.001755
-0.002357 0.000284 -0.001761
-0.002398 0.000268 -0.001764
-0.002428 0.00026 -0.001756
-0.002444 0.00026 -0.001738
-0.002459 0.000261 -0.001718
-0.002473 0.000262 -0.001698
-0.002488 0.000263 -0.001678
-0.002502 0.000264 -0.001657
-0.001068 0.000711 -0.002273
-0.001071 0.000738 -0.002411
-0.001457 0.0007 -0.002325
-0.001064 0.000694 -0.002669
-0.001881 0.000254 -0.002327
-0.001887 0.000262 -0.002298
-0.001885 0.000273 -0.002264
-0.001881 0.000285 -0.002229
-0.001877 0.000296 -0.002194
-0.001873 0.000308 -0.002158
-0.001861 0.000325 -0.002116
-0.001848 0.000343 -0.002072
-0.001831 0.000363 -0.002026
-0.001814 0.000383 -0.001979
-0.001797 0.000404 -0.001932
-0.001777 0.000426 -0.001883
-0.001757 0.000448 -0.001833
-0.001752 0.00046 -0.001797
-0.001755 0.000468 -0.001768
-0.001765 0.000472 -0.001744
-0.001778 0.000474 -0.001722
-0.001794 0.000473 -0.001704
-0.001812 0.000472 -0.001687
-0.001833 0.000469 -0.001672
-0.001857 0.000464 -0.001661
-0.001888 0.000455 -0.001654
-0.001929 0.00044 -0.001656
-0.002171 0.000331 -0.001733
-0.00222 0.000311 -0.001742
-0.002268 0.000291 -0.00175
-0.002313 0.000274 -0.001756
-0.002356 0.000257 -0.001761
-0.002398 0.000242 -0.001763
-0.002427 0.000233 -0.001756
-0.002444 0.000233 -0.001738
-0.002459 0.000233 -0.001718
-0.002474 0.000234 -0.001698
-0.002488 0.000235 -0.001678
-0.002502 0.000237 -0.001657
-0.001069 0.000571 -0.002631
-0.001071 0.000703 -0.002501
-0.001072 0.000729 -0.002502
-0.001885 0.000652 -0.002305
-0.001598 0.000715 -0.002404
-0.001887 0.000235 -0.002298
-0.001885 0.000245 -0.002264
-0.00188 0.000257 -0.002228
-0.001877 0.000269 -0.002194
-0.001873 0.000281 -0.002158
-0.001862 0.000298 -0.002116
-0.001848 0.000316 -0.002072
-0.001831 0.000336 -0.002026
-0.001814 0.000356 -0.001979
-0.001797 0.000376 -0.001932
-0.001778 0.000398 -0.001884
-0.001756 0.000421 -0.001833
-0.001752 0.000433 -0.001797
-0.001756 0.000441 -0.001768
-0.001765 0.000445 -0.001744
-0.001778 0.000446 -0.001722
-0.001794 0.000446 -0.001704
-0.001812 0.000445 -0.001687
-0.001833 0.000442 -0.001672
-0.001857 0.000437 -0.001661
-0.001888 0.000428 -0.001654
-0.001927 0.000414 -0.001655
-0.002064 0.00035 -0.001707
-0.002119 0.000326 -0.001721
-0.002171 0.000304 -0.001733
-0.002221 0.000283 -0.001743
-0.002267 0.000265 -0.001749
-0.002313 0.000246 -0.001756
-0.002357 0.000229 -0.001761
-0.002398 0.000214 -0.001763
-0.002427 0.000206 -0.001755
-0.002444 0.000205 -0.001738
-0.002459 0.000206 -0.001718
-0.002474 0.000207 -0.001698
-0.002488 0.000208 -0.001678
-0.00176 0.000502 -0.002426
-0.00107 0.000687 -0.002544
-0.00107 0.000713 -0.002544
-0.001873 0.000646 -0.002329
-0.00188 0.000201 -0.002326
-0.001887 0.000207 -0.002298
-0.001884 0.000219 -0.002263
-0.001881 0.00023 -0.002229
-0.001877 0.000242 -0.002194
-0.001873 0.000254 -0.002158
-0.001862 0.000271 -0.002116
-0.001848 0.000289 -0.002072
-0.001832 0.000309 -0.002026
-0.001813 0.000329 -0.001978
-0.001797 0.000349 -0.001933
-0.001778 0.000371 -0.001884
-0.001756 0.000394 -0.001833
-0.001752 0.000406 -0.001797
-0.001756 0.000413 -0.001768
-0.001765 0.000418 -0.001744
-0.001778 0.000419 -0.001722
-0.001794 0.000419 -0.001704
-0.001812 0.000418 -0.001687
-0.001833 0.000415 -0.001672
-0.001857 0.00041 -0.00166
-0.001888 0.000401 -0.001654
-0.001929 0.000385 -0.001657
-0.002065 0.000322 -0.001707
-0.002119 0.000299 -0.001721
-0.002172 0.000276 -0.001733
-0.00222 0.000256 -0.001742
-0.002268 0.000237 -0.00175
-0.002313 0.000219 -0.001756
-0.002357 0.000202 -0.001761
-0.002398 0.000187 -0.001763
-0.002426 0.00018 -0.001755
-0.002443 0.000179 -0.001737
-0.002459 0.000179 -0.001718
-0.002473 0.00018 -0.001698
-0.002487 0.000181 -0.001677
0.000663 -2e-05 0.002014
-0.001072 0.000668 -0.00259
-0.001071 0.000695 -0.00259
-0.001107 0.000731 -0.002216
-0.001875 0.000716 -0.002287
-0.001886 0.00018 -0.002297
-0.001884 0.000191 -0.002264
-0.00188 0.000203 -0.002229
-0.001877 0.000215 -0.002194
-0.001873 0.000227 -0.002158
-0.001862 0.000243 -0.002117
-0.001848 0.000262 -0.002072
-0.001831 0.000281 -0.002026
-0.001814 0.000302 -0.001979
-0.001797 0.000322 -0.001932
-0.001777 0.000344 -0.001883
-0.001757 0.000366 -0.001834
-0.001751 0.000379 -0.001797
-0.001755 0.000386 -0.001768
-0.001765 0.00039 -0.001743
-0.001778 0.000392 -0.001722
-0.001794 0.000392 -0.001704
-0.001812 0.00039 -0.001687
-0.001833 0.000388 -0.001672
-0.001857 0.000383 -0.00166
-0.001888 0.000374 -0.001654
-0.00193 0.000357 -0.001658
-0.002065 0.000295 -0.001707
-0.00212 0.000271 -0.001721
-0.002172 0.000249 -0.001733
-0.002221 0.000229 -0.001742
-0.002267 0.00021 -0.001749
-0.002314 0.000192 -0.001756
-0.002357 0.000175 -0.001761
-0.002398 0.00016 -0.001763
-0.002424 0.000153 -0.001753
-0.002442 0.000152 -0.001736
-0.002458 0.000153 -0.001717
-0.002473 0.000153 -0.001697
-0.002487 0.000155 -0.001677
-0.001063 0.000725 -0.002309
-0.000984 0.000669 -0.002821
-0.001407 0.000725 -0.002293
-0.001058 0.000683 -0.002702
-0.001878 0.000148 -0.002324
-0.001886 0.000153 -0.002297
-0.001884 0.000164 -0.002263
-0.00188 0.000176 -0.002228
-0.001877 0.000188 -0.002193
-0.001873 0.0002 -0.002158
-0.001861 0.000217 -0.002115
-0.001848 0.000235 -0.002072
-0.001832 0.000254 -0.002026
-0.001813 0.000275 -0.001978
-0.001797 0.000295 -0.001933
-0.001777 0.000317 -0.001883
-0.001758 0.000338 -0.001835
-0.001752 0.000352 -0.001797
-0.001755 0.000359 -0.001768
-0.001765 0.000363 -0.001743
-0.001778 0.000365 -0.001722
-0.001794 0.000365 -0.001704
-0.001812 0.000363 -0.001687
-0.001833 0.00036 -0.001672
-0.001858 0.000355 -0.001661
-0.001888 0.000346 -0.001654
-0.001929 0.000331 -0.001657
-0.002065 0.000268 -0.001707
-0.00212 0.000244 -0.001722
-0.002171 0.000223 -0.001732
-0.002221 0.000201 -0.001743
-0.002268 0.000183 -0.00175
-0.002314 0.000165 -0.001757
-0.002357 0.000148 -0.001761
-0.002396 0.000134 -0.001762
-0.002422 0.000128 -0.001751
-0.00244 0.000127 -0.001734
-0.002456 0.000127 -0.001715
-0.002471 0.000127 -0.001696
-0.002486 0.000128 -0.001676
-0.001069 0.000738 -0.002273
-0.00107 0.000652 -0.002632
-0.00107 0.00068 -0.002632
-0.001838 0.000641 -0.002365
-0.001876 0.000122 -0.002322
-0.001885 0.000126 -0.002297
-0.001884 0.000137 -0.002263
-0.00188 0.000149 -0.002228
-0.001877 0.000161 -0.002193
-0.001873 0.000173 -0.002158
-0.001862 0.000189 -0.002116
-0.001847 0.000208 -0.002071
-0.001833 0.000226 -0.002027
-0.001814 0.000248 -0.001979
-0.001797 0.000267 -0.001932
-0.001778 0.000289 -0.001883
-0.001758 0.000311 -0.001835
-0.001751 0.000325 -0.001797
-0.001755 0.000332 -0.001768
-0.001765 0.000336 -0.001744
-0.001778 0.000338 -0.001722
-0.001794 0.000338 -0.001704
-0.001812 0.000336 -0.001687
-0.001833 0.000333 -0.001672
-0.001858 0.000328 -0.001661
-0.001888 0.000319 -0.001654
-0.001931 0.000303 -0.001658
-0.002003 0.000269 -0.001687
-0.002065 0.000241 -0.001707
-0.002119 0.000217 -0.001721
-0.002172 0.000195 -0.001733
-0.002221 0.000174 -0.001743
-0.002267 0.000156 -0.001749
-0.002313 0.000138 -0.001756
-0.002357 0.000121 -0.00176
-0.002395 0.000108 -0.00176
-0.002417 0.000104 -0.001747
-0.002435 0.000102 -0.00173
-0.002452 0.000102 -0.001712
-0.002468 0.000102 -0.001693
-0.002482 0.000103 -0.001673
-0.002496 0.000104 -0.001652
-0.001158 0.000722 -0.002185
-0.001876 0.000589 -0.002334
-0.000845 0.000583 -0.002872
-0.001758 0.000639 -0.002424
-0.001871 9.8e-05 -0.002318
-0.001883 0.0001 -0.002295
-0.001883 0.00011 -0.002263
-0.00188 0.000122 -0.002228
-0.001877 0.000133 -0.002193
-0.001873 0.000145 -0.002158
-0.001862 0.000162 -0.002116
-0.001848 0.00018 -0.002072
-0.001832 0.000199 -0.002026
-0.001815 0.00022 -0.00198
-0.001798 0.00024 -0.001933
-0.001777 0.000262 -0.001883
-0.001757 0.000284 -0.001834
-0.001752 0.000297 -0.001797
-0.001755 0.000305 -0.001767
-0.001765 0.000309 -0.001743
-0.001778 0.000311 -0.001722
-0.001794 0.00031 -0.001704
-0.001812 0.000309 -0.001687
-0.001833 0.000306 -0.001672
-0.001858 0.000301 -0.001661
-0.001888 0.000292 -0.001654
-0.001931 0.000276 -0.001658
-0.002002 0.000242 -0.001686
-0.002064 0.000214 -0.001707
-0.00212 0.00019 -0.001721
-0.002172 0.000168 -0.001733
-0.002221 0.000147 -0.001743
-0.002268 0.000129 -0.00175
-0.002313 0.000111 -0.001756
-0.002357 9.4e-05 -0.001761
-0.00239 8.3e-05 -0.001757
-0.002411 8e-05 -0.001742
-0.002429 7.9e-05 -0.001725
-0.002445 7.9e-05 -0.001707
-0.002461 7.9e-05 -0.001688
-0.002476 7.9e-05 -0.001668
-0.00249 8.1e-05 -0.001647
-0.002502 8.3e-05 -0.001626
-0.000892 0.00042 -0.002857
-0.000963 0.000475 -0.002835
-0.001875 0.000617 -0.002332
-0.001713 0.000642 -0.002445
-0.001865 7.4e-05 -0.002313
-0.001878 7.6e-05 -0.002291
-0.001883 8.3e-05 -0.002263
-0.00188 9.5e-05 -0.002228
-0.001877 0.000106 -0.002193
-0.001872 0.000119 -0.002157
-0.001862 0.000135 -0.002116
-0.001848 0.000153 -0.002072
-0.001832 0.000172 -0.002026
-0.001815 0.000193 -0.001979
-0.001797 0.000213 -0.001932
-0.001776 0.000236 -0.001882
-0.001757 0.000257 -0.001834
-0.001751 0.00027 -0.001796
-0.001755 0.000278 -0.001767
-0.001765 0.000282 -0.001743
-0.001778 0.000283 -0.001722
-0.001794 0.000283 -0.001704
-0.001812 0.000282 -0.001687
-0.001833 0.000279 -0.001672
-0.001858 0.000274 -0.001661
-0.001888 0.000265 -0.001654
-0.001929 0.00025 -0.001657
-0.002064 0.000187 -0.001707
-0.00212 0.000162 -0.001721
-0.002171 0.000141 -0.001733
-0.002221 0.00012 -0.001742
-0.002267 0.000102 -0.001749
-0.002313 8.4e-05 -0.001756
-0.002354 6.8e-05 -0.001758
-0.002382 6.1e-05 -0.00175
-0.002403 5.8e-05 -0.001735
-0.00242 5.7e-05 -0.001718
-0.002437 5.7e-05 -0.001699
-0.002452 5.7e-05 -0.00168
-0.002467 5.8e-05 -0.00166
-0.002481 5.9e-05 -0.00164
-0.002494 6.1e-05 -0.001618
-0.002506 6.3e-05 -0.001596
-0.001769 -2.4e-05 -0.001133
-0.00121 0.000741 -0.002174
-0.001681 0.000598 -0.002441
-0.001779 0.000638 -0.002411
-0.001835 0.000671 -0.002361
-0.00164 0.000696 -0.002423
-0.00187 5.4e-05 -0.002285
-0.00188 5.8e-05 -0.00226
-0.00188 6.8e-05 -0.002228
-0.001877 7.9e-05 -0.002193
-0.001872 9.2e-05 -0.002157
-0.001862 0.000107 -0.002116
-0.001848 0.000126 -0.002072
-0.001833 0.000145 -0.002027
-0.001815 0.000165 -0.001979
-0.001797 0.000186 -0.001932
-0.001776 0.000208 -0.001882
-0.001757 0.00023 -0.001834
-0.001751 0.000243 -0.001796
-0.001755 0.000251 -0.001767
-0.001765 0.000255 -0.001743
-0.001778 0.000256 -0.001722
-0.001794 0.000256 -0.001704
-0.001812 0.000255 -0.001687
-0.001833 0.000252 -0.001672
-0.001858 0.000246 -0.001661
-0.001888 0.000238 -0.001654
-0.002066 0.000159 -0.001708
-0.00212 0.000135 -0.001721
-0.002171 0.000114 -0.001732
-0.002266 7.5e-05 -0.001748
-0.002312 5.7e-05 -0.001755
-0.002348 4.5e-05 -0.001753
-0.002372 4e-05 -0.001741
-0.002392 3.7e-05 -0.001725
-0.002409 3.7e-05 -0.001708
-0.002425 3.7e-05 -0.001689
-0.00244 3.7e-05 -0.00167
-0.002455 3.8e-05 -0.00165
-0.002469 3.9e-05 -0.00163
-0.002482 4.1e-05 -0.001609
-0.002495 4.3e-05 -0.001587
-0.001754 -2.5e-05 -0.001152
-0.000713 0.000507 -0.002778
-0.001058 0.000656 -0.002701
-0.001853 0.000673 -0.002343
-0.001734 0.000669 -0.002431
-0.001844 3.3e-05 -0.002295
-0.001859 3.3e-05 -0.002275
-0.001871 3.6e-05 -0.002253
-0.001877 4.2e-05 -0.002226
-0.001876 5.2e-05 -0.002193
-0.001873 6.4e-05 -0.002158
-0.001861 8.1e-05 -0.002115
-0.001847 9.9e-05 -0.002072
-0.001831 0.000118 -0.002026
-0.001816 0.000138 -0.00198
-0.001797 0.000159 -0.001932
-0.001776 0.000181 -0.001882
-0.001757 0.000203 -0.001834
-0.001751 0.000216 -0.001796
-0.001755 0.000224 -0.001767
-0.001765 0.000228 -0.001743
-0.001778 0.000229 -0.001722
-0.001794 0.000229 -0.001703
-0.001812 0.000227 -0.001687
-0.001834 0.000224 -0.001672
-0.001858 0.000219 -0.001661
-0.001888 0.00021 -0.001654
-0.001929 0.000195 -0.001656
-0.002065 0.000132 -0.001707
-0.00212 0.000108 -0.001721
-0.002172 8.6e-05 -0.001733
-0.002221 6.6e-05 -0.001742
-0.002266 4.8e-05 -0.001748
-0.002306 3.3e-05 -0.00175
-0.002336 2.5e-05 -0.001743
-0.002357 2.1e-05 -0.001729
-0.002376 2e-05 -0.001713
-0.002393 1.9e-05 -0.001694
-0.002409 1.9e-05 -0.001676
-0.002425 1.9e-05 -0.001657
-0.00244 2e-05 -0.001637
-0.002454 2.1e-05 -0.001617
-0.002468 2.2e-05 -0.001596
-0.002481 2.4e-05 -0.001575
-0.002492 2.7e-05 -0.001553
-0.001739 -2.6e-05 -0.001172
-0.001552 0.0006 -0.002379
-0.001071 0.00074 -0.002546
-0.001795 1.7e-05 -0.002317
-0.001812 1.6e-05 -0.0023
-0.001828 1.6e-05 -0.002281
-0.001844 1.6e-05 -0.002262
-0.001857 1.7e-05 -0.002241
-0.001867 2.1e-05 -0.002217
-0.001871 2.8e-05 -0.002188
-0.001871 3.8e-05 -0.002156
-0.00186 5.4e-05 -0.002115
-0.001847 7.2e-05 -0.002071
-0.001832 9.1e-05 -0.002026
-0.001815 0.000111 -0.00198
-0.001796 0.000132 -0.001931
-0.001777 0.000154 -0.001883
-0.001758 0.000175 -0.001834
-0.001751 0.000189 -0.001796
-0.001755 0.000196 -0.001767
-0.001765 0.0002 -0.001743
-0.001778 0.000202 -0.001722
-0.001794 0.000202 -0.001703
-0.001812 0.0002 -0.001687
-0.001833 0.000197 -0.001672
-0.001858 0.000192 -0.001661
-0.001888 0.000184 -0.001654
-0.00193 0.000167 -0.001657
-0.002064 0.000105 -0.001707
-0.002122 8e-05 -0.001723
-0.002171 5.9e-05 -0.001732
-0.002219 4e-05 -0.001741
-0.002261 2.4e-05 -0.001744
-0.002293 1.4e-05 -0.001739
-0.002317 9e-06 -0.001727
-0.002337 7e-06 -0.001712
-0.002355 6e-06 -0.001694
-0.002372 5e-06 -0.001676
-0.002387 5e-06 -0.001657
-0.002404 5e-06 -0.001639
-0.002419 5e-06 -0.00162
-0.002434 6e-06 -0.0016
-0.002448 7e-06 -0.001579
-0.002462 9e-06 -0.001559
-0.002474 1.1e-05 -0.001537
-0.001724 -2.7e-05 -0.001192
-0.001791 0.0007 -0.002384
-0.001755 4e-06 -0.002316
-0.001772 3e-06 -0.002298
-0.001788 3e-06 -0.002279
-0.001806 2e-06 -0.002262
-0.001821 3e-06 -0.002242
-0.001835 4e-06 -0.002222
-0.001848 5e-06 -0.002201
-0.001857 9e-06 -0.002177
-0.001861 1.7e-05 -0.002148
-0.001857 2.9e-05 -0.002112
-0.001846 4.6e-05 -0.00207
-0.001831 6.4e-05 -0.002026
-0.001814 8.4e-05 -0.001979
-0.001796 0.000105 -0.001931
-0.001776 0.000127 -0.001882
-0.001757 0.000148 -0.001834
-0.001751 0.000162 -0.001796
-0.001755 0.000169 -0.001767
-0.001764 0.000173 -0.001743
-0.001778 0.000175 -0.001722
-0.001794 0.000175 -0.001703
-0.001812 0.000173 -0.001686
-0.001833 0.00017 -0.001672
-0.001858 0.000165 -0.00166
-0.001888 0.000156 -0.001654
-0.00193 0.00014 -0.001657
-0.002002 0.000106 -0.001686
-0.002067 7.6e-05 -0.001708
-0.002121 5.3e-05 -0.001722
-0.00217 3.3e-05 -0.001731
-0.002212 1.7e-05 -0.001735
-0.002244 7e-06 -0.00173
-0.002267 3e-06 -0.001717
-0.002285 2e-06 -0.0017
-0.002302 1e-06 -0.001682
-0.002317 2e-06 -0.001662
-0.002334 1e-06 -0.001644
-0.00235 1e-06 -0.001625
-0.002384 -0.0 -0.00159
-0.002398 1e-06 -0.00157
-0.002414 1e-06 -0.001551
-0.00243 1e-06 -0.001532
-0.001709 -2.7e-05 -0.001211
-0.001772 0.000699 -0.002399
-0.001716 -0.0 -0.002283
-0.001731 1e-06 -0.002263
-0.001747 1e-06 -0.002245
-0.001763 1e-06 -0.002226
-0.001779 1e-06 -0.002207
-0.001794 1e-06 -0.002187
-0.001808 3e-06 -0.002167
-0.001824 3e-06 -0.002148
-0.001837 4e-06 -0.002127
-0.001845 9e-06 -0.002102
-0.001843 2e-05 -0.002068
-0.00183 3.8e-05 -0.002025
-0.001814 5.7e-05 -0.001978
-0.001796 7.8e-05 -0.001931
-0.001776 0.0001 -0.001882
-0.001757 0.000121 -0.001834
-0.00175 0.000135 -0.001796
-0.001755 0.000142 -0.001767
-0.001765 0.000146 -0.001743
-0.001778 0.000148 -0.001722
-0.001794 0.000148 -0.001703
-0.001812 0.000146 -0.001686
-0.001833 0.000143 -0.001672
-0.001858 0.000138 -0.00166
-0.001888 0.000129 -0.001654
-0.00193 0.000113 -0.001657
-0.002003 7.8e-05 -0.001687
-0.002067 4.9e-05 -0.001708
-0.00212 2.7e-05 -0.001721
-0.002161 1.1e-05 -0.001724
-0.002189 4e-06 -0.001715
-0.002207 3e-06 -0.001698
-0.002223 3e-06 -0.001679
-0.002237 4e-06 -0.001659
-0.002253 4e-06 -0.00164
-0.002268 4e-06 -0.001621
-0.002286 3e-06 -0.001604
-0.001674 0.000712 -0.00243
-0.001667 3e-06 -0.002241
-0.001683 3e-06 -0.002223
-0.001701 2e-06 -0.002205
-0.001716 2e-06 -0.002186
-0.001733 2e-06 -0.002168
-0.001749 2e-06 -0.002149
-0.001766 1e-06 -0.002131
-0.00178 2e-06 -0.002111
-0.001797 2e-06 -0.002093
-0.001814 1e-06 -0.002076
-0.001826 3e-06 -0.002053
-0.001827 1.3e-05 -0.002021
-0.001814 3e-05 -0.001978
-0.001796 5.1e-05 -0.001931
-0.001775 7.4e-05 -0.001881
-0.001757 9.4e-05 -0.001834
-0.001751 0.000108 -0.001796
-0.001756 0.000115 -0.001767
-0.001765 0.000119 -0.001743
-0.001778 0.000121 -0.001722
-0.001794 0.00012 -0.001703
-0.001812 0.000119 -0.001686
-0.001833 0.000116 -0.001672
-0.001858 0.000111 -0.00166
-0.001888 0.000102 -0.001654
-0.001928 8.7e-05 -0.001655
-0.00207 2e-05 -0.001711
-0.00211 5e-06 -0.001713
-0.002137 -1e-06 -0.001703
-0.002154 -2e-06 -0.001685
-0.002168 -1e-06 -0.001665
-0.002185 -1e-06 -0.001647
-0.002199 -0.0 -0.001627
-0.002214 0.0 -0.001607
-0.00223 0.0 -0.001588
-0.002245 1e-06 -0.001569
-0.002261 0.0 -0.00155
-0.001693 -2.7e-05 -0.00123
-0.001877 0.000561 -0.002335
-0.001859 0.00056 -0.002352
-0.001645 -1e-06 -0.002191
-0.001662 -2e-06 -0.002173
-0.001679 -2e-06 -0.002155
-0.001696 -2e-06 -0.002137
-0.001714 -3e-06 -0.00212
-0.00173 -4e-06 -0.002101
-0.001747 -5e-06 -0.002083
-0.001763 -5e-06 -0.002064
-0.001888 0.000514 -0.002309
-0.001081 0.000718 -0.002246
-0.001839 0.000559 -0.002367
-0.001808 6e-06 -0.001974
-0.001797 2.3e-05 -0.001931
-0.001775 4.6e-05 -0.001881
-0.001751 8.1e-05 -0.001796
-0.001754 8.8e-05 -0.001767
-0.001765 9.2e-05 -0.001743
-0.001778 9.4e-05 -0.001722
-0.001794 9.3e-05 -0.001703
-0.001812 9.2e-05 -0.001686
-0.001832 8.9e-05 -0.001671
-0.001857 8.4e-05 -0.00166
-0.001888 7.5e-05 -0.001654
-0.002054 2e-06 -0.001698
-0.002078 -2e-06 -0.001686
-0.002096 -3e-06 -0.001668
-0.002177 -4e-06 -0.001576
-0.002191 -3e-06 -0.001556
-0.002209 -4e-06 -0.001539
-0.002224 -4e-06 -0.001519
-0.001678 -2.7e-05 -0.001249
-0.00159 -5e-06 -0.002177
-0.001607 -5e-06 -0.002159
-0.001623 -5e-06 -0.002139
-0.001636 -3e-06 -0.002118
-0.001703 -5e-06 -0.002046
-0.001716 -3e-06 -0.002025
-0.000568 0.000657 -0.002594
-0.00107 0.000695 -0.002453
-0.00107 0.000659 -0.002544
-0.001071 0.000676 -0.0025
-0.001757 4e-05 -0.001834
-0.00175 5.4e-05 -0.001795
-0.001754 6.1e-05 -0.001767
-0.001764 6.5e-05 -0.001743
-0.001777 6.7e-05 -0.001721
-0.001793 6.6e-05 -0.001703
-0.001812 6.5e-05 -0.001686
-0.001832 6.2e-05 -0.001671
-0.001857 5.7e-05 -0.00166
-0.001887 4.8e-05 -0.001653
-0.002015 -1e-06 -0.001665
-0.002031 -1e-06 -0.001646
-0.002079 -1e-06 -0.001589
-0.002095 -1e-06 -0.001571
-0.002144 -2e-06 -0.001516
-0.002159 -1e-06 -0.001496
-0.002174 -0.0 -0.001476
-0.001662 -2.8e-05 -0.001268
-0.001646 -2.8e-05 -0.001287
-0.001631 -2.8e-05 -0.001306
-0.001541 -2e-06 -0.002135
-0.001556 -1e-06 -0.002115
-0.001571 -0.0 -0.002095
-0.001587 -1e-06 -0.002077
-0.001601 1e-06 -0.002056
-0.001616 1e-06 -0.002037
-0.00174 0.000501 -0.00244
-0.001689 5e-06 -0.001937
-0.001706 5e-06 -0.00192
-0.001721 6e-06 -0.001899
-0.001756 4e-06 -0.001865
-0.001756 1.3e-05 -0.001833
-0.00175 2.7e-05 -0.001795
-0.001754 3.4e-05 -0.001766
-0.001764 3.8e-05 -0.001742
-0.001777 4e-05 -0.001721
-0.001793 3.9e-05 -0.001702
-0.001811 3.8e-05 -0.001685
-0.001831 3.5e-05 -0.00167
-0.001856 3e-05 -0.001659
-0.001886 2.2e-05 -0.001652
-0.002024 6e-06 -0.001543
-0.00204 6e-06 -0.001524
-0.001614 -2.8e-05 -0.001325
-0.002201 5e-06 -0.001338
-0.002221 2e-06 -0.001323
-0.002273 -0.0 -0.00127
-0.002289 0.0 -0.00125
-0.002303 1e-06 -0.001231
-0.001598 -2.8e-05 -0.001343
-0.001583 -2.8e-05 -0.001362
-0.001501 5e-06 -0.002068
-0.001517 5e-06 -0.00205
-0.001533 5e-06 -0.002031
-0.00155 5e-06 -0.002013
-0.001565 6e-06 -0.001993
-0.001717 0.000503 -0.00245
-0.001887 0.000569 -0.002308
-0.001647 4e-06 -0.001902
-0.001663 4e-06 -0.001883
-0.00168 3e-06 -0.001865
-0.001115 0.000724 -0.002209
-0.001136 0.000724 -0.002196
-0.001209 0.000714 -0.002172
-0.001751 8e-06 -0.001764
-0.001764 1.1e-05 -0.001742
-0.001777 1.2e-05 -0.001721
-0.001792 1.3e-05 -0.001702
-0.00181 1.2e-05 -0.001684
-0.00183 9e-06 -0.001669
-0.001853 5e-06 -0.001657
-0.001876 0.0 -0.001644
-0.001906 2e-06 -0.001605
-0.001922 2e-06 -0.001586
-0.001938 1e-06 -0.001567
-0.001954 1e-06 -0.001548
-0.002002 2e-06 -0.001492
-0.002064 3e-06 -0.001415
-0.002079 3e-06 -0.001396
-0.002095 3e-06 -0.001377
-0.00211 3e-06 -0.001358
-0.002126 4e-06 -0.001339
-0.002142 4e-06 -0.00132
-0.002157 5e-06 -0.0013
-0.002171 5e-06 -0.00128
-0.002187 5e-06 -0.001262
-0.002235 5e-06 -0.001205
-0.002253 5e-06 -0.001188
-0.002268 5e-06 -0.001168
-0.001567 -2.8e-05 -0.001381
-0.001069 0.000685 -0.002408
-0.001071 0.000649 -0.002501
-0.00146 3e-06 -0.002034
-0.001477 2e-06 -0.002016
-0.001493 3e-06 -0.001997
-0.00151 2e-06 -0.001979
-0.001527 1e-06 -0.001962
-0.001544 0.0 -0.001944
-0.001561 -1e-06 -0.001926
-0.001578 -2e-06 -0.001908
-0.001596 -2e-06 -0.00189
-0.001613 -2e-06 -0.001872
-0.00163 -3e-06 -0.001855
-0.001647 -4e-06 -0.001837
-0.001009 0.000557 -0.002818
-0.001877 0.000534 -0.002335
-0.00182 0.000531 -0.002382
-0.00178 0.000529 -0.002412
-0.001681 0.000544 -0.00244
-0.001704 0.000704 -0.002431
-0.001765 -8e-06 -0.001711
-0.001781 -7e-06 -0.001692
-0.001798 -8e-06 -0.001674
-0.001814 -8e-06 -0.001656
-0.00183 -8e-06 -0.001637
-0.001847 -9e-06 -0.001619
-0.001863 -9e-06 -0.0016
-0.001879 -9e-06 -0.001581
-0.001895 -9e-06 -0.001562
-0.00191 -9e-06 -0.001544
-0.001926 -8e-06 -0.001525
-0.001942 -8e-06 -0.001505
-0.002033 -6e-06 -0.001389
-0.002049 -5e-06 -0.00137
-0.002064 -5e-06 -0.001351
-0.002079 -4e-06 -0.001331
-0.002094 -4e-06 -0.001312
-0.002108 -3e-06 -0.001291
-0.002123 -2e-06 -0.001272
-0.002138 -1e-06 -0.001252
-0.002152 -0.0 -0.001232
-0.002213 1e-06 -0.001154
-0.002227 3e-06 -0.001135
-0.001066 0.000705 -0.002359
-0.001069 0.000668 -0.002453
-0.001428 -5e-06 -0.002007
-0.001446 -6e-06 -0.00199
-0.001465 -7e-06 -0.001973
-0.001482 -8e-06 -0.001956
-0.0015 -9e-06 -0.001938
-0.001518 -1.1e-05 -0.001921
-0.001535 -1.2e-05 -0.001904
-0.001553 -1.2e-05 -0.001886
-0.00157 -1.2e-05 -0.001868
-0.001587 -1.4e-05 -0.001851
-0.001604 -1.4e-05 -0.001833
-0.001068 0.000731 -0.002361
-0.001069 0.000713 -0.002407
-0.0018 0.00053 -0.002397
-0.001839 0.000531 -0.002367
-0.001862 0.00071 -0.002313
-0.001847 0.000705 -0.002335
-0.001747 -1.4e-05 -0.001664
-0.00176 -1.2e-05 -0.001642
-0.001777 -1.3e-05 -0.001625
-0.001794 -1.4e-05 -0.001607
-0.001811 -1.4e-05 -0.001588
-0.001826 -1.3e-05 -0.001569
-0.00184 -1.2e-05 -0.001548
-0.001858 -1.4e-05 -0.001531
-0.001874 -1.4e-05 -0.001513
-0.002016 -1.3e-05 -0.001342
-0.002035 -1.4e-05 -0.001326
-0.002049 -1.3e-05 -0.001306
-0.002066 -1.4e-05 -0.001288
-0.002082 -1.3e-05 -0.001269
-0.002097 -1.3e-05 -0.00125
-0.002112 -1.3e-05 -0.00123
-0.002127 -1.2e-05 -0.001211
-0.00217 -9e-06 -0.00115
-0.002184 -8e-06 -0.001129
-0.002199 -7e-06 -0.00111
-0.001551 -2.8e-05 -0.0014
-0.001399 -1.4e-05 -0.001982
-0.001415 -1.4e-05 -0.001963
-0.001431 -1.4e-05 -0.001945
-0.001448 -1.4e-05 -0.001926
-0.001463 -1.4e-05 -0.001907
-0.001478 -1.3e-05 -0.001888
-0.001494 -1.4e-05 -0.001869
-0.001509 -1.3e-05 -0.001849
-0.001525 -1.3e-05 -0.00183
-0.00154 -1.2e-05 -0.001811
-0.001556 -1.2e-05 -0.001792
-0.001571 -1.2e-05 -0.001773
-0.001588 -1.2e-05 -0.001755
-0.001534 -2.8e-05 -0.001418
-0.001518 -2.7e-05 -0.001437
-0.001501 -2.7e-05 -0.001455
-0.001485 -2.7e-05 -0.001473
-0.001871 -1e-05 -0.001414
-0.001886 -9e-06 -0.001394
-0.001469 -2.7e-05 -0.001492
-0.001986 -1.2e-05 -0.001285
-0.002001 -1.1e-05 -0.001265
-0.002018 -1.2e-05 -0.001248
-0.002052 -1.3e-05 -0.001212
-0.002069 -1.4e-05 -0.001194
-0.002116 -1.3e-05 -0.001137
-0.002133 -1.4e-05 -0.001119
-0.002148 -1.3e-05 -0.001099
-0.002166 -1.4e-05 -0.001082
-0.001065 0.000612 -0.002668
-0.001059 0.000602 -0.002701
-0.001355 -1.4e-05 -0.001944
-0.001367 -1.2e-05 -0.001923
-0.001382 -1.1e-05 -0.001903
-0.001396 -1e-05 -0.001883
-0.001411 -9e-06 -0.001863
-0.001429 -1.1e-05 -0.001846
-0.001443 -9e-06 -0.001825
-0.000963 0.000556 -0.002836
-0.001728 0.000702 -0.002422
-0.001488 -8e-06 -0.001767
-0.001504 -7e-06 -0.001748
-0.001521 -8e-06 -0.00173
-0.001534 -6e-06 -0.001709
-0.001839 0.000504 -0.002367
-0.001582 -7e-06 -0.001653
-0.001596 -6e-06 -0.001632
-0.0018 0.000557 -0.002397
-0.001629 -6e-06 -0.001596
-0.001644 -6e-06 -0.001576
-0.001716 0.000558 -0.002449
-0.00174 0.000556 -0.00244
-0.00176 0.000556 -0.002426
-0.000674 0.000695 -0.002735
-0.001452 -2.6e-05 -0.00151
-0.001773 -6e-06 -0.001427
-0.001804 -6e-06 -0.001389
-0.00182 -6e-06 -0.00137
-0.001837 -6e-06 -0.001352
-0.001435 -2.6e-05 -0.001528
-0.001418 -2.5e-05 -0.001546
-0.001401 -2.4e-05 -0.001564
-0.002065 -9e-06 -0.001093
-0.002082 -1e-05 -0.001075
-0.002098 -1e-05 -0.001057
0.000639 -2e-05 0.002021
-0.00183 0.000702 -0.002353
-0.001329 -6e-06 -0.001858
-0.001346 -7e-06 -0.00184
-0.00136 -6e-06 -0.00182
-0.001377 -6e-06 -0.001802
-0.001407 -5e-06 -0.001763
-0.00107 0.000622 -0.002499
-0.001453 -4e-06 -0.001705
-0.00147 -4e-06 -0.001687
-0.001057 0.000547 -0.002701
-8.1e-05 0.000489 -0.00296
-0.00182 0.000503 -0.002382
-0.001533 -4e-06 -0.001611
-0.001549 -4e-06 -0.001593
-0.001565 -4e-06 -0.001574
-0.001581 -4e-06 -0.001555
-0.001598 -4e-06 -0.001537
-0.001613 -4e-06 -0.001517
-0.00171 0.000672 -0.00244
-0.001738 0.000611 -0.002438
-0.001117 0.000749 -0.002213
-0.001707 -3e-06 -0.001403
-0.001723 -3e-06 -0.001385
-0.001739 -3e-06 -0.001366
-0.001757 -4e-06 -0.001349
-0.001774 -5e-06 -0.001331
-0.001787 -4e-06 -0.001309
-0.001804 -5e-06 -0.001292
-0.001505 0.000595 -0.002353
-0.001551 0.000574 -0.002378
0.000616 -2e-05 0.002029
0.000593 -2e-05 0.002037
-0.001064 0.000586 -0.002668
-0.001264 -3e-06 -0.001835
-0.001281 -4e-06 -0.001817
-0.001312 -4e-06 -0.001779
-0.001329 -4e-06 -0.001761
-0.001345 -4e-06 -0.001743
-0.001361 -4e-06 -0.001724
-0.001377 -5e-06 -0.001705
-0.001068 0.000748 -0.002318
-0.001681 0.000516 -0.002441
-0.001597 0.000553 -0.002402
-0.001071 0.000723 -0.00259
-0.001477 -7e-06 -0.001596
-0.001493 -7e-06 -0.001577
-0.001509 -7e-06 -0.001559
-0.001526 -7e-06 -0.00154
-0.001542 -7e-06 -0.001522
-0.001558 -8e-06 -0.001503
-0.001575 -8e-06 -0.001485
-0.001591 -8e-06 -0.001467
-0.001607 -8e-06 -0.001448
-0.001751 0.000699 -0.002412
-0.001639 -9e-06 -0.001411
-0.001655 -9e-06 -0.001391
-0.001671 -8e-06 -0.001373
-0.001687 -8e-06 -0.001354
-0.001703 -8e-06 -0.001336
-0.001718 -8e-06 -0.001316
-0.001733 -7e-06 -0.001296
-0.001749 -8e-06 -0.001278
-0.001765 -8e-06 -0.001259
-0.001069 0.000658 -0.002408
-0.001182 0.000719 -0.002176
-0.001224 -6e-06 -0.001801
-0.001241 -7e-06 -0.001784
-0.001456 0.000647 -0.002323
-0.001071 0.000587 -0.002589
-0.001292 -9e-06 -0.00173
-0.00131 -1e-05 -0.001712
-0.001327 -1e-05 -0.001695
-0.001343 -1.1e-05 -0.001676
-0.001361 -1.2e-05 -0.001659
-0.001639 0.000535 -0.002421
-0.0018 0.000503 -0.002397
0.000569 -2e-05 0.002044
-0.001429 -1.4e-05 -0.001588
-0.001446 -1.5e-05 -0.00157
-0.001462 -1.5e-05 -0.001551
-0.001479 -1.5e-05 -0.001533
-0.001496 -1.6e-05 -0.001515
-0.001512 -1.6e-05 -0.001496
-0.001528 -1.6e-05 -0.001478
-0.001545 -1.7e-05 -0.00146
-0.001561 -1.7e-05 -0.001441
-0.001577 -1.7e-05 -0.001423
-0.001593 -1.7e-05 -0.001404
-0.001609 -1.7e-05 -0.001385
-0.001626 -1.7e-05 -0.001367
-0.001641 -1.7e-05 -0.001348
-0.001657 -1.7e-05 -0.001329
-0.001673 -1.7e-05 -0.00131
-0.001689 -1.7e-05 -0.001291
-0.001704 -1.7e-05 -0.001272
-0.00172 -1.6e-05 -0.001253
-0.001736 -1.6e-05 -0.001234
-0.001751 -1.6e-05 -0.001214
-0.001766 -1.6e-05 -0.001195
-0.001781 -1.5e-05 -0.001175
-0.001066 0.000678 -0.002359
-0.00107 0.00064 -0.002453
-0.001887 0.000541 -0.002309
-0.001859 0.000532 -0.002352
-0.001505 0.000622 -0.002353
-0.001407 0.000671 -0.002294
-0.001071 0.000605 -0.002544
-0.001717 0.000531 -0.00245
-0.001596 0.00058 -0.002401
-0.001071 0.000641 -0.00259
-0.000892 0.000448 -0.002857
-0.001221 0.000709 -0.002171
0.000545 -2e-05 0.002051
-0.001505 0.000568 -0.002353
-0.001551 0.000546 -0.002378
-0.001596 0.000526 -0.002402
-0.001639 0.000507 -0.002422
-0.001681 0.000489 -0.002441
-0.001717 0.000476 -0.00245
-0.001739 0.000474 -0.002439
-0.001759 0.000475 -0.002425
-0.001779 0.000476 -0.00241
-0.001799 0.000476 -0.002396
-0.001819 0.000477 -0.002381
-0.001839 0.000478 -0.002366
-0.001858 0.000478 -0.002351
-0.001877 0.00048 -0.002335
