-0.000191 0.000723 -0.002758
-0.000987 0.000502 -0.002829
-0.001404 0.000565 -0.002289
-0.001455 0.000539 -0.002322
-0.001505 0.000514 -0.002352
-0.001551 0.000492 -0.002378
-0.001596 0.000472 -0.002401
-0.00164 0.000452 -0.002423
-0.001681 0.000435 -0.00244
-0.001716 0.000422 -0.002449
-0.00174 0.00042 -0.00244
-0.00176 0.00042 -0.002426
-0.00178 0.000421 -0.002411
-0.0018 0.000421 -0.002396
-0.001819 0.000422 -0.002382
-0.001839 0.000423 -0.002366
-0.001859 0.000424 -0.002352
-0.00178 0.000682 -0.00174
-0.001794 0.000687 -0.001718
-0.001812 0.00069 -0.0017
-0.000916 0.000501 -0.002852
-0.001055 0.000449 -0.002744
-0.001062 0.000461 -0.00271
-0.00107 0.000472 -0.002677
-0.001077 0.000483 -0.002643
-0.001078 0.000499 -0.0026
-0.001079 0.000516 -0.002557
-0.001079 0.000533 -0.002512
-0.001077 0.000552 -0.002465
-0.001077 0.00057 -0.00242
-0.001075 0.000589 -0.002372
-0.001072 0.000609 -0.002323
-0.001076 0.000623 -0.002284
-0.001087 0.000631 -0.002256
-0.001102 0.000636 -0.002234
-0.00112 0.000638 -0.002217
-0.001141 0.000637 -0.002204
-0.001164 0.000636 -0.002193
-0.001187 0.000633 -0.002184
-0.000842 0.000669 -0.002862
-0.00094 0.000582 -0.002845
-0.001059 0.00056 -0.002735
-0.001404 0.000537 -0.002289
-0.001456 0.000511 -0.002322
-0.001505 0.000487 -0.002352
-0.001551 0.000465 -0.002378
-0.001596 0.000444 -0.002401
-0.00164 0.000425 -0.002423
-0.001682 0.000407 -0.002441
-0.001717 0.000395 -0.002449
-0.00174 0.000393 -0.00244
-0.00176 0.000393 -0.002426
-0.00178 0.000394 -0.002411
-0.0018 0.000394 -0.002396
-0.001819 0.000395 -0.002381
-0.001839 0.000396 -0.002366
-0.001859 0.000397 -0.002351
-0.001045 0.000413 -0.002774
-0.001056 0.000421 -0.002745
-0.001062 0.000433 -0.00271
-0.00107 0.000445 -0.002677
-0.001077 0.000456 -0.002643
-0.001078 0.000472 -0.0026
-0.001079 0.000489 -0.002556
-0.001079 0.000507 -0.002512
-0.001077 0.000525 -0.002465
-0.001077 0.000543 -0.00242
-0.001075 0.000562 -0.002372
-0.001072 0.000582 -0.002323
-0.001075 0.000596 -0.002283
-0.001087 0.000604 -0.002256
-0.001102 0.000609 -0.002233
-0.00112 0.000611 -0.002217
-0.001141 0.00061 -0.002204
-0.001164 0.000609 -0.002193
-0.001023 0.000708 -0.002781
-0.001048 0.000652 -0.002777
-0.00075 0.000595 -0.002813
-0.000893 0.000474 -0.002859
-0.001404 0.00051 -0.002289
-0.001456 0.000484 -0.002323
-0.001505 0.000459 -0.002353
-0.001551 0.000438 -0.002377
-0.001597 0.000417 -0.002402
-0.00164 0.000398 -0.002423
-0.001682 0.00038 -0.002441
-0.001717 0.000368 -0.002449
-0.00174 0.000366 -0.002439
-0.00176 0.000366 -0.002425
-0.00178 0.000367 -0.002411
-0.001799 0.000367 -0.002396
-0.001819 0.000368 -0.002381
-0.001839 0.000369 -0.002367
-0.001859 0.00037 -0.002352
-0.001878 0.000371 -0.002336
-0.001045 0.000386 -0.002773
-0.001055 0.000395 -0.002744
-0.001062 0.000406 -0.00271
-0.00107 0.000417 -0.002677
-0.001077 0.000429 -0.002643
-0.001078 0.000445 -0.0026
-0.00108 0.000461 -0.002558
-0.001078 0.00048 -0.002511
-0.001078 0.000498 -0.002465
-0.001077 0.000516 -0.002419
-0.001075 0.000535 -0.002372
-0.001072 0.000555 -0.002323
-0.001075 0.000569 -0.002283
-0.001087 0.000577 -0.002256
-0.001102 0.000582 -0.002234
-0.001121 0.000583 -0.002217
-0.001141 0.000583 -0.002204
-0.001164 0.000581 -0.002193
-0.000959 0.000698 -0.002824
-0.001061 0.000669 -0.002735
-0.00082 0.000559 -0.002872
-0.00101 0.000502 -0.00282
-0.001405 0.000482 -0.00229
-0.001456 0.000456 -0.002323
-0.001505 0.000432 -0.002352
-0.001551 0.000411 -0.002378
-0.001597 0.00039 -0.002402
-0.001641 0.00037 -0.002424
-0.001682 0.000353 -0.002441
-0.001716 0.000341 -0.002449
-0.001739 0.000339 -0.002439
-0.001759 0.00034 -0.002424
-0.001778 0.00034 -0.002409
-0.001799 0.000341 -0.002395
-0.001819 0.000341 -0.00238
-0.001838 0.000342 -0.002365
-0.001858 0.000343 -0.00235
-0.001878 0.000344 -0.002335
0.000543 0.000676 -0.00245
-0.001057 0.000368 -0.002745
-0.001063 0.000379 -0.00271
-0.00107 0.00039 -0.002678
-0.001077 0.000402 -0.002643
-0.001078 0.000418 -0.002601
-0.001079 0.000435 -0.002557
-0.001078 0.000452 -0.002511
-0.001077 0.000471 -0.002464
-0.001076 0.000489 -0.002419
-0.001075 0.000508 -0.002372
-0.001072 0.000527 -0.002323
-0.001075 0.000542 -0.002283
-0.001087 0.00055 -0.002256
-0.001102 0.000554 -0.002234
-0.00112 0.000556 -0.002217
-0.001141 0.000556 -0.002204
-0.001164 0.000554 -0.002193
-0.00075 0.000703 -0.002814
-0.000869 0.00061 -0.002866
-0.000893 0.000554 -0.002861
-0.001279 0.00072 -0.002187
-0.001504 0.000406 -0.002352
-0.001551 0.000384 -0.002377
-0.001597 0.000363 -0.002402
-0.001641 0.000343 -0.002423
-0.001682 0.000325 -0.002442
-0.001717 0.000313 -0.002449
-0.001739 0.000311 -0.002439
-0.00176 0.000312 -0.002425
-0.00178 0.000312 -0.002411
-0.001799 0.000313 -0.002396
-0.001819 0.000314 -0.002381
-0.001839 0.000314 -0.002366
-0.001858 0.000315 -0.002351
-0.001878 0.000317 -0.002336
-0.001893 0.00032 -0.002316
-0.000963 0.000474 -0.002836
-0.001057 0.000341 -0.002743
-0.001062 0.000353 -0.002709
-0.00107 0.000363 -0.002678
-0.001077 0.000374 -0.002643
-0.001079 0.00039 -0.002601
-0.001079 0.000407 -0.002557
-0.001078 0.000426 -0.002511
-0.001076 0.000444 -0.002463
-0.001076 0.000462 -0.002419
-0.001075 0.000481 -0.002371
-0.001072 0.0005 -0.002322
-0.001075 0.000515 -0.002283
-0.001086 0.000523 -0.002255
-0.001102 0.000527 -0.002234
-0.001121 0.000529 -0.002217
-0.001141 0.000529 -0.002204
-0.001164 0.000527 -0.002193
-0.001043 0.000714 -0.002761
-0.000786 0.000629 -0.002848
-0.00094 0.000555 -0.002846
0.000997 0.000502 -0.002827
-0.001406 0.000427 -0.002292
-0.001457 0.000401 -0.002324
-0.001505 0.000378 -0.002352
-0.001551 0.000357 -0.002377
-0.001596 0.000336 -0.002401
-0.00164 0.000316 -0.002423
-0.001682 0.000298 -0.002441
-0.001717 0.000286 -0.002449
-0.00174 0.000284 -0.00244
-0.00176 0.000284 -0.002426
-0.00178 0.000285 -0.002411
-0.0018 0.000286 -0.002396
-0.001819 0.000286 -0.002382
-0.00184 0.000286 -0.002368
-0.001859 0.000288 -0.002352
-0.001878 0.000289 -0.002336
-0.001893 0.000293 -0.002315
-0.001032 0.000505 -0.002808
-0.00075 0.000622 -0.002814
-0.001062 0.000325 -0.002709
-0.001069 0.000336 -0.002676
-0.001076 0.000348 -0.002641
-0.001079 0.000363 -0.002601
-0.001079 0.000381 -0.002556
-0.001078 0.000398 -0.002511
-0.001076 0.000417 -0.002463
-0.001076 0.000435 -0.002418
-0.001075 0.000454 -0.002371
-0.001072 0.000474 -0.002322
-0.001075 0.000488 -0.002283
-0.001086 0.000496 -0.002255
-0.001102 0.0005 -0.002234
-0.00112 0.000502 -0.002217
-0.001141 0.000502 -0.002204
-0.001164 0.0005 -0.002193
-0.000981 0.0007 -0.002812
-0.000893 0.000609 -0.00286
-0.000917 0.000555 -0.002853
-0.000893 0.000527 -0.002861
-0.001405 0.0004 -0.002291
-0.001457 0.000374 -0.002324
-0.001505 0.000351 -0.002352
-0.001551 0.000329 -0.002378
-0.001597 0.000308 -0.002402
-0.001641 0.000289 -0.002423
-0.001682 0.000271 -0.002441
-0.001716 0.000259 -0.002449
-0.00174 0.000257 -0.002439
-0.00176 0.000257 -0.002426
-0.00178 0.000258 -0.002411
-0.0018 0.000258 -0.002397
-0.00182 0.000259 -0.002382
-0.00184 0.000259 -0.002367
-0.001859 0.00026 -0.002352
-0.001878 0.000262 -0.002336
-0.001893 0.000266 -0.002315
-0.000231 0.000691 -0.002635
0.001061 0.000705 -0.002782
-0.001062 0.000298 -0.002709
-0.00107 0.000308 -0.002677
-0.001076 0.000321 -0.002642
-0.001078 0.000336 -0.0026
-0.001078 0.000354 -0.002555
-0.001079 0.00037 -0.002512
-0.001076 0.00039 -0.002463
-0.001076 0.000408 -0.002418
-0.001075 0.000427 -0.002371
-0.001071 0.000447 -0.002321
-0.001075 0.000461 -0.002283
-0.001086 0.000469 -0.002254
-0.001102 0.000473 -0.002233
-0.001121 0.000475 -0.002217
-0.001141 0.000474 -0.002204
-0.001164 0.000473 -0.002193
-0.001002 0.000704 -0.002797
-0.00094 0.00061 -0.002845
-0.000987 0.000556 -0.002829
-0.00027 0.000713 -0.002512
-0.001405 0.000374 -0.00229
-0.001457 0.000347 -0.002324
-0.001506 0.000323 -0.002353
-0.001551 0.000302 -0.002377
-0.001597 0.000281 -0.002401
-0.00164 0.000262 -0.002423
-0.001682 0.000244 -0.002441
-0.001716 0.000232 -0.002448
-0.001739 0.00023 -0.002439
-0.00176 0.00023 -0.002425
-0.00178 0.000231 -0.002411
-0.0018 0.000231 -0.002396
-0.001819 0.000232 -0.002381
-0.001839 0.000233 -0.002366
-0.001859 0.000234 -0.002351
-0.001878 0.000235 -0.002335
-0.001893 0.000238 -0.002315
-0.000217 0.000675 -0.002674
-0.00087 0.000555 -0.002868
-0.001063 0.000272 -0.002708
-0.00107 0.000282 -0.002676
-0.001076 0.000294 -0.002642
-0.001078 0.000309 -0.0026
-0.001079 0.000326 -0.002556
-0.001079 0.000344 -0.002512
-0.001077 0.000363 -0.002464
-0.001075 0.000381 -0.002417
-0.001075 0.000399 -0.002371
-0.001071 0.00042 -0.002321
-0.001075 0.000434 -0.002282
-0.001086 0.000442 -0.002255
-0.001102 0.000446 -0.002234
-0.001121 0.000448 -0.002217
-0.001141 0.000447 -0.002204
-0.001163 0.000446 -0.002193
-0.000963 0.000637 -0.002836
-0.000845 0.000583 -0.002873
-0.000243 0.000736 -0.002592
-0.000869 0.000474 -0.002867
-0.001405 0.000346 -0.00229
-0.001456 0.00032 -0.002323
-0.001505 0.000296 -0.002353
-0.001551 0.000275 -0.002377
-0.001597 0.000254 -0.002402
-0.00164 0.000234 -0.002423
-0.001682 0.000216 -0.002442
-0.001716 0.000205 -0.002448
-0.001739 0.000203 -0.002438
-0.00176 0.000203 -0.002425
-0.00178 0.000204 -0.00241
-0.0018 0.000204 -0.002396
-0.001819 0.000205 -0.002381
-0.001839 0.000206 -0.002366
-0.001858 0.000207 -0.002351
-0.001877 0.000208 -0.002334
-0.001893 0.000212 -0.002314
-0.000356 0.000726 -0.002456
-0.000964 0.000555 -0.002838
-0.001063 0.000245 -0.002708
-0.00107 0.000255 -0.002677
-0.001076 0.000267 -0.002641
-0.001078 0.000283 -0.002599
-0.001079 0.000299 -0.002556
-0.001079 0.000316 -0.002512
-0.001078 0.000334 -0.002466
-0.001075 0.000354 -0.002417
-0.001074 0.000373 -0.00237
-0.001071 0.000393 -0.002321
-0.001075 0.000407 -0.002282
-0.001086 0.000415 -0.002254
-0.001102 0.000419 -0.002233
-0.00112 0.00042 -0.002217
-0.001141 0.00042 -0.002204
-0.001163 0.000419 -0.002193
-0.000963 0.00061 -0.002837
-0.000205 0.000685 -0.002717
-0.000543 0.000701 -0.002558
-0.001404 0.00032 -0.002289
-0.001457 0.000293 -0.002324
-0.001506 0.000269 -0.002353
-0.001551 0.000248 -0.002377
-0.001597 0.000226 -0.002403
-0.00164 0.000207 -0.002423
-0.001682 0.000189 -0.002442
-0.001715 0.000179 -0.002447
-0.001738 0.000177 -0.002437
-0.001759 0.000176 -0.002424
-0.001779 0.000177 -0.00241
-0.001799 0.000177 -0.002395
-0.001819 0.000178 -0.002381
-0.001839 0.000179 -0.002366
-0.001858 0.00018 -0.00235
-0.001876 0.000182 -0.002333
-0.001891 0.000186 -0.002312
-0.000332 0.000754 -0.002463
-0.00101 0.000557 -0.00282
-0.001062 0.000218 -0.002708
-0.00107 0.000227 -0.002677
-0.001076 0.000239 -0.002641
-0.001077 0.000256 -0.002599
-0.001079 0.000272 -0.002556
-0.001079 0.000289 -0.002512
-0.001078 0.000307 -0.002466
-0.001076 0.000327 -0.002417
-0.001074 0.000345 -0.00237
-0.001071 0.000365 -0.002321
-0.001075 0.00038 -0.002282
-0.001086 0.000387 -0.002255
-0.001102 0.000392 -0.002233
-0.001121 0.000393 -0.002217
-0.001141 0.000393 -0.002204
-0.000713 0.000724 -0.002779
-0.001009 0.000612 -0.002818
-0.000191 0.00067 -0.002756
-0.000204 0.000604 -0.002716
-0.001404 0.000293 -0.002288
-0.001457 0.000266 -0.002324
-0.001506 0.000242 -0.002353
-0.001552 0.00022 -0.002378
-0.001597 0.000199 -0.002402
-0.001641 0.000179 -0.002424
-0.001681 0.000163 -0.00244
-0.001714 0.000153 -0.002445
-0.001737 0.000151 -0.002435
-0.001758 0.00015 -0.002423
-0.001779 0.00015 -0.002409
-0.001799 0.000151 -0.002395
-0.001819 0.000151 -0.00238
-0.001838 0.000152 -0.002365
-0.001857 0.000153 -0.002349
-0.001875 0.000156 -0.002332
-0.00189 0.000159 -0.002311
-5.6e-05 0.00067 -0.00298
-0.000218 0.000729 -0.002676
-0.001061 0.00019 -0.002708
-0.001069 0.0002 -0.002676
-0.001077 0.000212 -0.002643
-0.001077 0.000229 -0.002598
-0.001078 0.000245 -0.002556
-0.001079 0.000262 -0.002512
-0.001078 0.00028 -0.002465
-0.001076 0.0003 -0.002417
-0.001074 0.000318 -0.00237
-0.00107 0.000339 -0.00232
-0.001075 0.000352 -0.002282
-0.001087 0.00036 -0.002255
-0.001102 0.000364 -0.002233
-0.00112 0.000366 -0.002217
-0.001141 0.000366 -0.002204
-0.000816 0.000674 -0.00286
0.000489 -3.3e-05 0.002038
-0.001059 0.000588 -0.002734
-0.000231 0.000664 -0.002635
-0.001405 0.000265 -0.00229
-0.001457 0.000238 -0.002324
-0.001506 0.000214 -0.002353
-0.001552 0.000193 -0.002378
-0.001597 0.000172 -0.002402
-0.001641 0.000152 -0.002424
-0.001681 0.000136 -0.00244
-0.001712 0.000127 -0.002442
-0.001735 0.000125 -0.002432
-0.001757 0.000124 -0.00242
-0.001777 0.000124 -0.002407
-0.001798 0.000124 -0.002393
-0.001817 0.000125 -0.002378
-0.001837 0.000126 -0.002363
-0.001855 0.000128 -0.002346
-0.001873 0.00013 -0.002328
-0.001889 0.000134 -0.002308
-0.001279 0.000747 -0.002189
-0.000205 0.000712 -0.002718
-0.001062 0.000163 -0.002708
-0.00107 0.000173 -0.002676
-0.001076 0.000185 -0.002641
-0.001078 0.000201 -0.002599
-0.001078 0.000218 -0.002555
-0.001079 0.000235 -0.002511
-0.001078 0.000253 -0.002465
-0.001076 0.000272 -0.002418
-0.001074 0.000291 -0.00237
-0.001071 0.000311 -0.002321
-0.001075 0.000325 -0.002282
-0.001087 0.000333 -0.002255
-0.001102 0.000337 -0.002234
-0.001121 0.000339 -0.002217
-0.001141 0.000339 -0.002204
-0.000984 0.000669 -0.002821
-0.00087 0.000582 -0.002867
-0.000217 0.000702 -0.002675
-0.001348 0.000739 -0.002247
-0.001405 0.000238 -0.00229
-0.001457 0.000211 -0.002324
-0.001506 0.000187 -0.002353
-0.001552 0.000166 -0.002378
-0.001598 0.000144 -0.002403
-0.00164 0.000126 -0.002423
-0.00168 0.000109 -0.002438
-0.001709 0.000103 -0.002437
-0.001732 0.000101 -0.002427
-0.001753 0.0001 -0.002415
-0.001774 9.9e-05 -0.002402
-0.001795 0.0001 -0.002389
-0.001815 0.0001 -0.002374
-0.001834 0.000101 -0.002358
-0.001852 0.000103 -0.002341
-0.00187 0.000106 -0.002324
-0.001886 0.000109 -0.002304
-0.00082 0.000477 -0.002874
0.000466 -3.3e-05 0.002045
-0.001063 0.000136 -0.002708
-0.00107 0.000146 -0.002676
-0.001076 0.000158 -0.002641
-0.001078 0.000174 -0.002599
-0.001078 0.000191 -0.002555
-0.001079 0.000208 -0.002511
-0.001078 0.000226 -0.002465
-0.001076 0.000245 -0.002418
-0.001074 0.000264 -0.00237
-0.001071 0.000284 -0.00232
-0.001075 0.000298 -0.002282
-0.001086 0.000306 -0.002254
-0.001102 0.00031 -0.002234
-0.001121 0.000312 -0.002217
-0.001142 0.000311 -0.002204
-0.000817 0.000644 -0.002865
-0.001059 0.000615 -0.002735
0.000494 0.000682 -0.002437
-0.000356 0.000754 -0.002456
-0.001405 0.00021 -0.00229
-0.001457 0.000184 -0.002324
-0.001505 0.000161 -0.002352
-0.001552 0.000139 -0.002378
-0.001598 0.000117 -0.002403
-0.00164 9.9e-05 -0.002422
-0.001677 8.5e-05 -0.002434
-0.001705 7.9e-05 -0.002431
-0.001727 7.7e-05 -0.00242
-0.001749 7.7e-05 -0.002408
-0.00177 7.6e-05 -0.002395
-0.00179 7.6e-05 -0.002381
-0.00181 7.7e-05 -0.002367
-0.001829 7.8e-05 -0.002351
-0.001848 8e-05 -0.002335
-0.001866 8.2e-05 -0.002317
-0.001882 8.5e-05 -0.002298
-0.000289 0.000721 -0.00249
-0.000191 0.000696 -0.002757
-0.001062 0.000109 -0.002708
-0.00107 0.000119 -0.002676
-0.001075 0.000132 -0.00264
-0.001078 0.000147 -0.002599
-0.001078 0.000164 -0.002555
-0.001079 0.000181 -0.002511
-0.001078 0.000199 -0.002465
-0.001076 0.000218 -0.002417
-0.001074 0.000237 -0.00237
-0.001071 0.000257 -0.00232
-0.001075 0.000271 -0.002282
-0.001086 0.000279 -0.002254
-0.001102 0.000283 -0.002234
-0.001121 0.000284 -0.002217
-0.001141 0.000284 -0.002204
-0.000869 0.000638 -0.002864
-0.001049 0.000597 -0.002779
-0.000261 0.000745 -0.002566
0.000518 0.000681 -0.002441
-0.001405 0.000183 -0.00229
-0.001457 0.000157 -0.002324
-0.001505 0.000134 -0.002352
-0.001552 0.000111 -0.002379
-0.001597 9.1e-05 -0.002401
-0.001639 7.2e-05 -0.002421
-0.001673 6.1e-05 -0.002428
-0.001699 5.7e-05 -0.002421
-0.001721 5.5e-05 -0.002411
-0.001742 5.5e-05 -0.002398
-0.001763 5.5e-05 -0.002385
-0.001784 5.5e-05 -0.002372
-0.001804 5.5e-05 -0.002357
-0.001823 5.6e-05 -0.002341
-0.001842 5.8e-05 -0.002325
-0.00186 6e-05 -0.002308
-0.001877 6.3e-05 -0.002289
-0.000243 0.000682 -0.00259
0.000442 -3.3e-05 0.002052
-0.001062 8.2e-05 -0.002708
-0.00107 9.1e-05 -0.002677
-0.001075 0.000104 -0.00264
-0.001077 0.00012 -0.002598
-0.001078 0.000136 -0.002555
-0.001078 0.000154 -0.002509
-0.001078 0.000172 -0.002465
-0.001076 0.00019 -0.002418
-0.001074 0.00021 -0.00237
-0.001071 0.00023 -0.002321
-0.001075 0.000244 -0.002282
-0.001086 0.000252 -0.002254
-0.001102 0.000256 -0.002234
-0.001121 0.000257 -0.002217
-0.001141 0.000257 -0.002204
-0.000844 0.00064 -0.002868
-0.001031 0.000587 -0.002806
-0.001049 0.00057 -0.002779
-0.000787 0.00052 -0.002849
-0.00135 0.000185 -0.002251
-0.001405 0.000156 -0.00229
-0.001458 0.000129 -0.002325
-0.001505 0.000107 -0.002351
-0.001553 8.3e-05 -0.00238
-0.001596 6.4e-05 -0.0024
-0.001637 4.7e-05 -0.002417
-0.001667 3.9e-05 -0.002418
-0.001691 3.7e-05 -0.002409
-0.001712 3.6e-05 -0.002398
-0.001734 3.5e-05 -0.002385
-0.001755 3.5e-05 -0.002372
-0.001775 3.5e-05 -0.002359
-0.001795 3.5e-05 -0.002344
-0.001814 3.6e-05 -0.002329
-0.001833 3.8e-05 -0.002313
-0.001852 4e-05 -0.002296
-0.001869 4.2e-05 -0.002278
-0.000256 0.000726 -0.002549
0.000395 0.000724 -0.002461
-0.001061 5.5e-05 -0.002707
-0.00107 6.4e-05 -0.002677
-0.001075 7.7e-05 -0.00264
-0.001077 9.3e-05 -0.002598
-0.001078 0.00011 -0.002555
-0.001078 0.000127 -0.002509
-0.001077 0.000145 -0.002464
-0.001076 0.000163 -0.002418
-0.001074 0.000182 -0.00237
-0.001071 0.000202 -0.002321
-0.001075 0.000217 -0.002282
-0.001086 0.000224 -0.002254
-0.001102 0.000228 -0.002234
-0.001121 0.00023 -0.002217
-0.001142 0.00023 -0.002204
-0.001164 0.000228 -0.002193
0.000165 0.000481 -0.00298
-0.000175 0.000657 -0.002789
-0.00082 0.000532 -0.002873
-0.000846 0.000528 -0.002874
-0.001348 0.000159 -0.002249
-0.001405 0.000129 -0.00229
-0.001457 0.000102 -0.002324
-0.001505 7.9e-05 -0.002352
-0.001551 5.7e-05 -0.002377
-0.001596 3.7e-05 -0.002401
-0.00163 2.6e-05 -0.002406
-0.001656 2.1e-05 -0.002402
-0.00168 1.9e-05 -0.002393
-0.001702 1.7e-05 -0.002382
-0.001723 1.7e-05 -0.002369
-0.001744 1.7e-05 -0.002356
-0.001764 1.7e-05 -0.002342
-0.001784 1.7e-05 -0.002328
-0.001804 1.8e-05 -0.002313
-0.001823 2e-05 -0.002297
-0.001841 2.1e-05 -0.00228
-0.001859 2.4e-05 -0.002262
-0.0012 0.000734 -0.002185
-0.000986 0.000611 -0.002828
-0.001058 3e-05 -0.002702
-0.001069 3.8e-05 -0.002674
-0.001075 5e-05 -0.00264
-0.001077 6.6e-05 -0.002597
-0.001078 8.3e-05 -0.002554
-0.001078 0.0001 -0.002509
-0.001077 0.000118 -0.002463
-0.001077 0.000136 -0.002418
-0.001074 0.000155 -0.00237
-0.001072 0.000175 -0.002322
-0.001075 0.000189 -0.002282
-0.001086 0.000197 -0.002254
-0.001102 0.000201 -0.002233
-0.001121 0.000203 -0.002217
-0.001142 0.000203 -0.002204
-0.001164 0.000201 -0.002193
-0.000176 0.000737 -0.002791
-0.001031 0.000615 -0.002805
-0.000231 0.000718 -0.002635
-0.001311 0.000734 -0.002208
-0.001405 0.000102 -0.00229
-0.001458 7.5e-05 -0.002325
-0.001505 5.2e-05 -0.002351
-0.001591 1.4e-05 -0.002393
-0.001618 9e-06 -0.002389
-0.001642 6e-06 -0.002381
-0.001664 4e-06 -0.00237
-0.001686 4e-06 -0.002358
-0.001707 3e-06 -0.002345
-0.001728 3e-06 -0.002332
-0.001748 3e-06 -0.002318
-0.001769 3e-06 -0.002304
-0.001788 4e-06 -0.002289
-0.001808 5e-06 -0.002274
-0.001827 6e-06 -0.002258
-0.001845 9e-06 -0.002241
-0.001861 1.3e-05 -0.002222
-0.000812 0.000707 -0.002848
-0.00103 9e-06 -0.002705
-0.001047 1.2e-05 -0.002686
-0.001062 1.7e-05 -0.002664
-0.001072 2.5e-05 -0.002635
-0.001077 3.9e-05 -0.002597
-0.001078 5.6e-05 -0.002554
-0.001077 7.3e-05 -0.002509
-0.001077 9.1e-05 -0.002464
-0.001076 0.000109 -0.002417
-0.001074 0.000128 -0.00237
-0.001072 0.000148 -0.002321
-0.001075 0.000162 -0.002282
-0.001086 0.00017 -0.002254
-0.001102 0.000174 -0.002233
-0.001121 0.000176 -0.002217
-0.001141 0.000176 -0.002204
-0.001164 0.000174 -0.002193
-0.000915 0.000665 -0.002849
-0.000916 0.000637 -0.002852
-0.000893 0.000582 -0.00286
0.000768 0.000599 -0.002736
-0.001405 7.5e-05 -0.00229
-0.001458 4.7e-05 -0.002325
-0.001503 2.6e-05 -0.002349
-0.001542 1.1e-05 -0.002364
-0.001571 4e-06 -0.002363
-0.001594 2e-06 -0.002353
-0.001617 -0.0 -0.002343
-0.001638 -1e-06 -0.00233
-0.001657 1e-06 -0.002314
-0.001678 1e-06 -0.0023
-0.001699 1e-06 -0.002287
-0.001719 1e-06 -0.002273
-0.001739 1e-06 -0.00226
-0.00176 1e-06 -0.002246
-0.001781 1e-06 -0.002233
-0.001801 1e-06 -0.002218
-0.001822 1e-06 -0.002206
-0.001842 3e-06 -0.002191
-0.000988 0.0 -0.002686
-0.001007 1e-06 -0.002671
-0.000712 0.000537 -0.002773
-0.001045 4e-06 -0.002639
-0.001061 8e-06 -0.002618
-0.001072 1.6e-05 -0.00259
-0.001077 2.9e-05 -0.002553
-0.001078 4.6e-05 -0.002509
-0.001077 6.4e-05 -0.002463
-0.001077 8.1e-05 -0.002419
-0.001074 0.000101 -0.00237
-0.001072 0.00012 -0.002321
-0.001075 0.000135 -0.002282
-0.001086 0.000143 -0.002254
-0.001102 0.000147 -0.002233
-0.00112 0.000149 -0.002216
-0.001141 0.000148 -0.002204
-0.001164 0.000147 -0.002193
-0.000891 0.000666 -0.002855
-0.001006 0.000671 -0.002809
-0.000917 0.000609 -0.002853
-0.00117 0.00077 -0.002171
-0.001405 4.7e-05 -0.00229
-0.001456 2.2e-05 -0.002323
-0.001495 6e-06 -0.002336
-0.00152 2e-06 -0.00233
-0.001541 2e-06 -0.002317
-0.001561 2e-06 -0.002303
-0.001603 2e-06 -0.002276
-0.001623 2e-06 -0.002263
-0.001643 3e-06 -0.002248
-0.001665 2e-06 -0.002236
-0.001686 2e-06 -0.002223
-0.001706 2e-06 -0.002208
-0.001727 2e-06 -0.002195
-0.001747 2e-06 -0.002181
-0.001767 2e-06 -0.002167
-0.001788 2e-06 -0.002155
-0.001808 2e-06 -0.00214
-0.000994 2e-06 -0.002607
-0.001015 2e-06 -0.002593
-0.001035 2e-06 -0.002578
-0.001055 3e-06 -0.002565
-0.00107 8e-06 -0.002542
-0.001077 2e-05 -0.002508
-0.001078 3.6e-05 -0.002465
-0.001077 5.4e-05 -0.002419
-0.001074 7.4e-05 -0.002369
-0.001072 9.3e-05 -0.002322
-0.001075 0.000108 -0.002282
-0.001086 0.000116 -0.002254
-0.001102 0.00012 -0.002233
-0.00112 0.000122 -0.002216
-0.001141 0.000121 -0.002203
-0.001164 0.000119 -0.002193
-0.000867 0.000667 -0.002859
-0.001048 0.000625 -0.002778
-0.000917 0.000582 -0.002853
-0.001112 0.00075 -0.002233
-0.001447 2e-06 -0.002308
-0.001475 -4e-06 -0.002306
-0.001498 -6e-06 -0.002296
-0.001517 -5e-06 -0.002281
-0.001538 -5e-06 -0.002267
-0.001381 -2.4e-05 -0.001582
-0.001579 -5e-06 -0.00224
-0.001599 -4e-06 -0.002226
-0.001619 -3e-06 -0.002212
-0.00164 -3e-06 -0.002198
-0.00166 -4e-06 -0.002184
-0.00168 -4e-06 -0.00217
-0.001701 -3e-06 -0.002156
-0.001721 -3e-06 -0.002142
-0.000926 -2e-06 -0.002592
-0.000947 -3e-06 -0.002579
-0.00097 -4e-06 -0.00257
-0.00099 -4e-06 -0.002555
-0.00101 -4e-06 -0.002542
9.1e-05 0.000447 -0.002995
-0.00094 0.000474 -0.002844
-0.001066 2e-06 -0.002491
-0.001075 1.1e-05 -0.002461
-0.001077 2.7e-05 -0.002419
-0.001074 4.7e-05 -0.002369
-0.001072 6.6e-05 -0.002321
-0.001075 8.1e-05 -0.002282
-0.001086 8.9e-05 -0.002254
-0.001102 9.3e-05 -0.002233
-0.001121 9.5e-05 -0.002216
-0.001141 9.4e-05 -0.002203
-0.001164 9.2e-05 -0.002193
-0.000893 0.000637 -0.002858
-0.000176 0.000683 -0.002791
0.000835 0.000537 -0.002794
-3.2e-05 0.000582 -0.002995
-0.001395 1e-06 -0.002275
-0.001421 -3e-06 -0.00227
-0.001442 -3e-06 -0.002256
-0.001361 -2.5e-05 -0.001597
-0.001341 -2.6e-05 -0.001612
-0.001321 -2.6e-05 -0.001626
-0.001606 -3e-06 -0.002148
-0.001628 -4e-06 -0.002136
-0.001647 -3e-06 -0.00212
-0.001669 -4e-06 -0.002108
-0.001689 -4e-06 -0.002094
-0.00171 -4e-06 -0.002081
-0.001302 -2.7e-05 -0.001641
-0.000895 -3e-06 -0.002545
-0.000915 -3e-06 -0.002531
-0.000935 -2e-06 -0.002516
-0.000955 -1e-06 -0.002502
-0.00125 0.000756 -0.002178
-0.001092 0.000741 -0.002255
-0.001049 0.000515 -0.00278
-0.00107 5e-06 -0.002408
-0.001074 1.9e-05 -0.00237
-0.00107 4e-05 -0.002319
-0.001075 5.4e-05 -0.002281
-0.001086 6.2e-05 -0.002254
-0.001102 6.6e-05 -0.002233
-0.00112 6.8e-05 -0.002216
-0.001141 6.7e-05 -0.002203
-0.001164 6.6e-05 -0.002192
-0.00103 0.000644 -0.002802
-0.000819 0.000587 -0.002872
-7e-06 0.0005 -0.002997
-0.001341 3e-06 -0.002238
-0.001364 1e-06 -0.002228
-0.001385 0.0 -0.002215
-0.001405 1e-06 -0.0022
-0.001281 -2.7e-05 -0.001655
-0.001446 1e-06 -0.002172
-0.001467 1e-06 -0.00216
-0.001261 -2.7e-05 -0.001669
-0.001241 -2.8e-05 -0.001683
-0.001653 0.0 -0.002039
-0.001674 -0.0 -0.002026
-0.001715 -0.0 -0.002
-0.001736 -1e-06 -0.001986
-0.000858 1e-06 -0.002489
-0.000877 2e-06 -0.002474
-0.000898 2e-06 -0.00246
-0.000919 2e-06 -0.002448
-0.000888 0.000699 -0.002843
-0.001049 0.000542 -0.002779
-0.00106 0.000534 -0.002734
-0.000845 0.000611 -0.002871
-0.00094 0.000528 -0.002845
-0.001074 2.7e-05 -0.002281
-0.001085 3.5e-05 -0.002253
-0.001102 3.9e-05 -0.002232
-0.00112 4.1e-05 -0.002215
-0.001141 4e-05 -0.002202
-0.001163 3.9e-05 -0.002191
-0.000986 0.000639 -0.002826
-0.000786 0.000602 -0.002849
-0.00101 0.000475 -0.00282
-0.000492 0.00071 -0.002481
-0.000467 0.000718 -0.002465
-0.00029 0.000747 -0.002491
-0.001416 -1e-06 -0.002128
-0.001436 -1e-06 -0.002113
-0.00162 1e-06 -0.00199
-0.001641 0.0 -0.001977
-0.001702 1e-06 -0.001934
-0.001723 0.0 -0.001922
-0.001221 -2.8e-05 -0.001697
-0.000888 1e-06 -0.0024
-0.000908 1e-06 -0.002387
-0.00093 -0.0 -0.002375
-0.000517 0.000696 -0.002511
-0.000333 0.000727 -0.002463
-0.000963 0.000582 -0.002837
-0.000256 0.000699 -0.002548
-0.001058 -4e-06 -0.002301
-0.001073 1e-06 -0.002278
-0.001085 8e-06 -0.002253
-0.001101 1.2e-05 -0.002232
-0.00112 1.4e-05 -0.002215
-0.001141 1.3e-05 -0.002202
-0.000912 0.000698 -0.002838
-0.000713 0.000698 -0.002778
-0.000176 0.000709 -0.002793
-0.000673 0.000668 -0.002733
-0.001268 -6e-06 -0.002171
-0.000783 0.000715 -0.002838
-0.00031 0.000752 -0.002474
-0.001329 -7e-06 -0.00213
-0.00135 -7e-06 -0.002116
-0.00137 -7e-06 -0.002103
-0.001391 -7e-06 -0.00209
-0.001412 -7e-06 -0.002076
-0.001493 -6e-06 -0.002021
-0.001514 -6e-06 -0.002007
-0.001534 -6e-06 -0.001993
-0.001554 -6e-06 -0.001979
-0.001574 -5e-06 -0.001965
-0.001594 -4e-06 -0.00195
-0.001614 -4e-06 -0.001935
-0.001654 -3e-06 -0.001907
-0.001674 -3e-06 -0.001893
-0.001694 -2e-06 -0.001878
-0.001714 -2e-06 -0.001864
-0.000176 0.000602 -0.002791
-0.001046 0.000682 -0.002773
-0.000176 0.000629 -0.002791
-0.001321 0.000745 -0.002242
-0.000884 -6e-06 -0.002351
-0.000906 -7e-06 -0.002338
-0.000917 0.000528 -0.002853
-0.00075 0.000568 -0.002813
-0.000987 0.000583 -0.002829
-0.000993 -1.1e-05 -0.002292
-0.001014 -1.2e-05 -0.002279
-0.001036 -1.3e-05 -0.002268
-0.001058 -1.3e-05 -0.002256
-0.001078 -1.3e-05 -0.002242
-0.001097 -1.2e-05 -0.002225
-0.001117 -1e-05 -0.002211
-0.001008 0.00064 -0.002815
-0.000675 0.00072 -0.002738
-0.00075 0.000676 -0.002814
-0.000962 0.000667 -0.002831
-0.001225 -1.5e-05 -0.002151
-0.001247 -1.6e-05 -0.002139
-0.001266 -1.6e-05 -0.002124
-0.001307 -1.5e-05 -0.002097
-0.001328 -1.5e-05 -0.002083
-0.001348 -1.5e-05 -0.002069
-0.001369 -1.5e-05 -0.002056
-0.001389 -1.5e-05 -0.002042
-0.001492 -1.5e-05 -0.001974
-0.001512 -1.5e-05 -0.00196
-0.001533 -1.5e-05 -0.001947
-0.001553 -1.4e-05 -0.001933
-0.001574 -1.4e-05 -0.001919
-0.001593 -1.3e-05 -0.001904
-0.001634 -1.3e-05 -0.001876
-0.001653 -1.2e-05 -0.001861
-0.001673 -1.1e-05 -0.001846
-0.001346 0.000715 -0.00224
-0.00106 0.000697 -0.002734
-0.000821 -1.4e-05 -0.002344
-0.000842 -1.5e-05 -0.002331
-0.000863 -1.5e-05 -0.002318
-0.000884 -1.5e-05 -0.002305
-0.000905 -1.6e-05 -0.002293
-0.000925 -1.5e-05 -0.002278
-0.000945 -1.5e-05 -0.002264
-0.000965 -1.4e-05 -0.002249
-0.000986 -1.4e-05 -0.002236
-0.001007 -1.4e-05 -0.002223
-0.001027 -1.5e-05 -0.002209
-0.000191 0.000643 -0.002756
-0.000964 0.000528 -0.002838
-0.00087 0.000527 -0.002868
-0.000787 0.000493 -0.002849
-0.001032 0.000559 -0.002808
-0.000517 0.000669 -0.002512
-0.000939 0.000666 -0.002841
-0.000785 0.000685 -0.002845
-0.001211 -1.3e-05 -0.002084
-0.001231 -1.3e-05 -0.002071
-0.001252 -1.3e-05 -0.002057
-0.001271 -1.2e-05 -0.002042
-0.001293 -1.3e-05 -0.00203
-0.001314 -1.4e-05 -0.002018
-0.001334 -1.3e-05 -0.002004
-0.001355 -1.3e-05 -0.00199
-0.001437 -1.3e-05 -0.001935
-0.001457 -1.3e-05 -0.001922
-0.001479 -1.3e-05 -0.001909
-0.001624 -1.4e-05 -0.001816
-0.000332 0.0007 -0.002463
-0.00107 0.000689 -0.002687
-0.000788 -1.4e-05 -0.002294
-0.000809 -1.4e-05 -0.002281
-0.000829 -1.4e-05 -0.002267
-0.000849 -1.3e-05 -0.002252
-0.000868 -1.2e-05 -0.002237
-0.000888 -1.2e-05 -0.002222
-0.000909 -1.1e-05 -0.002209
-0.00093 -1.2e-05 -0.002196
-0.00095 -1.2e-05 -0.002182
-0.001028 0.000674 -0.002795
-0.00101 0.000584 -0.00282
-0.000893 0.000501 -0.002859
-0.000963 0.000501 -0.002837
-0.000863 0.0007 -0.002848
-0.000838 0.000702 -0.00285
-0.00027 0.00074 -0.002513
-0.001153 -9e-06 -0.002041
-0.001175 -1e-05 -0.00203
-0.001195 -1e-05 -0.002016
-0.001215 -9e-06 -0.002001
-0.001236 -9e-06 -0.001989
-0.001255 -8e-06 -0.001973
-0.001276 -8e-06 -0.00196
-0.001296 -8e-06 -0.001945
-0.001316 -8e-06 -0.001931
-0.001337 -8e-06 -0.001919
-0.001399 -8e-06 -0.001878
-0.00142 -8e-06 -0.001865
-0.001441 -9e-06 -0.001853
-0.0012 -2.8e-05 -0.001711
-0.001733 -1.2e-05 -0.001669
-0.001755 -1.3e-05 -0.001657
-0.001776 -1.3e-05 -0.001644
-0.001797 -1.3e-05 -0.001631
-0.00071 -1e-05 -0.002266
-0.000732 -1.1e-05 -0.002254
-0.000752 -1.1e-05 -0.00224
-0.000771 -9e-06 -0.002223
-0.000792 -9e-06 -0.00221
-0.000811 -8e-06 -0.002195
-0.000832 -8e-06 -0.002181
-0.000852 -8e-06 -0.002167
-0.000872 -7e-06 -0.002153
-0.000892 -7e-06 -0.002138
-0.00075 0.000649 -0.002814
-0.000256 0.000672 -0.002549
-0.00131 0.000707 -0.002207
-0.00087 0.000501 -0.002867
-0.000916 0.000474 -0.002852
-0.000749 0.000514 -0.002812
-0.00094 0.000501 -0.002844
-0.001053 -4e-06 -0.002024
-0.001073 -4e-06 -0.00201
-0.001116 -5e-06 -0.001986
-0.001136 -4e-06 -0.001971
-0.001157 -4e-06 -0.001958
-0.001177 -5e-06 -0.001945
-0.001198 -4e-06 -0.001931
-0.001219 -5e-06 -0.001918
-0.001239 -4e-06 -0.001903
-0.001259 -4e-06 -0.00189
-0.00128 -4e-06 -0.001877
-0.001302 -6e-06 -0.001865
-0.001322 -5e-06 -0.001851
-0.001343 -6e-06 -0.001838
-0.001363 -5e-06 -0.001824
-0.001382 -4e-06 -0.001808
-0.001403 -4e-06 -0.001794
-0.001447 -6e-06 -0.001772
-0.001467 -5e-06 -0.001757
-0.001486 -4e-06 -0.001741
-0.001613 -7e-06 -0.001666
-0.001635 -8e-06 -0.001654
-0.001655 -8e-06 -0.00164
-0.001719 -1e-05 -0.001602
-0.001739 -1e-05 -0.001589
-0.001759 -9e-06 -0.001574
-0.001781 -1e-05 -0.001562
-0.000676 -8e-06 -0.002213
-0.000695 -7e-06 -0.002197
-0.000715 -6e-06 -0.002183
-0.000735 -6e-06 -0.002168
-0.000754 -5e-06 -0.002153
-0.000775 -5e-06 -0.002141
-0.000816 -4e-06 -0.002112
-0.000835 -3e-06 -0.002097
-0.000856 -4e-06 -0.002084
-0.000876 -4e-06 -0.00207
-0.00101 0.000529 -0.00282
-0.000958 -3e-06 -0.002015
-0.000978 -3e-06 -0.002001
-0.000999 -3e-06 -0.001987
-0.001019 -3e-06 -0.001973
-0.00104 -4e-06 -0.00196
-0.00106 -2e-06 -0.001946
-0.00108 -2e-06 -0.001932
-0.001102 -2e-06 -0.001919
-0.001122 -2e-06 -0.001906
-0.001144 -3e-06 -0.001893
-0.001164 -3e-06 -0.00188
-0.001185 -3e-06 -0.001866
-0.001206 -3e-06 -0.001853
-0.001226 -3e-06 -0.001839
-0.001247 -4e-06 -0.001827
-0.001268 -3e-06 -0.001813
-0.001288 -3e-06 -0.001799
-0.001309 -3e-06 -0.001786
-0.001329 -3e-06 -0.001771
-0.001349 -3e-06 -0.001758
-0.001369 -2e-06 -0.001743
-0.00139 -2e-06 -0.00173
-0.00141 -2e-06 -0.001716
-0.001431 -3e-06 -0.001703
-0.001452 -3e-06 -0.00169
-0.001575 -3e-06 -0.001608
-0.001597 -3e-06 -0.001596
-0.001617 -3e-06 -0.001582
-0.00118 -2.8e-05 -0.001724
-0.001159 -2.8e-05 -0.001738
-0.000105 0.000499 -0.00294
-0.000658 -3e-06 -0.002142
-0.000678 -2e-06 -0.002127
-0.000698 -2e-06 -0.002113
-0.000719 -3e-06 -0.0021
-0.00074 -2e-06 -0.002087
-0.000781 -3e-06 -0.00206
-0.000803 -3e-06 -0.002048
-0.000824 -4e-06 -0.002035
-0.000673 0.000696 -0.002733
-0.000987 0.000528 -0.00283
-0.000886 -5e-06 -0.001996
-0.000908 -5e-06 -0.001983
-0.000929 -5e-06 -0.001971
-0.00095 -6e-06 -0.001957
-0.000971 -6e-06 -0.001946
-0.000992 -7e-06 -0.001931
-0.001011 -6e-06 -0.001917
-0.001033 -6e-06 -0.001905
-0.001054 -7e-06 -0.001891
-0.001074 -6e-06 -0.001878
-0.001096 -7e-06 -0.001866
-0.001116 -7e-06 -0.001852
-0.001137 -7e-06 -0.001839
-0.001158 -7e-06 -0.001825
-0.001179 -8e-06 -0.001812
-0.001199 -8e-06 -0.001799
-0.00122 -8e-06 -0.001785
-0.00124 -8e-06 -0.001772
-0.00126 -7e-06 -0.001758
-0.00128 -7e-06 -0.001743
-0.001301 -7e-06 -0.001729
-0.001321 -7e-06 -0.001716
-0.001342 -7e-06 -0.001702
-0.001362 -7e-06 -0.001688
-0.001383 -6e-06 -0.001675
-0.001403 -6e-06 -0.001661
-0.001423 -5e-06 -0.001646
-0.001544 -4e-06 -0.001562
-0.001564 -3e-06 -0.001547
-0.001586 -4e-06 -0.001535
-0.000568 0.000684 -0.002595
-0.000105 0.000662 -0.00294
-0.000649 -5e-06 -0.002083
-0.000671 -6e-06 -0.002071
-0.000692 -6e-06 -0.002058
-0.000712 0.000591 -0.002774
-0.001049 0.000487 -0.002781
-0.001059 0.000506 -0.002734
-0.000778 -9e-06 -0.00201
-0.000799 -1e-05 -0.001998
-0.000713 0.000671 -0.002776
-0.001032 0.000532 -0.002808
-0.000936 0.000698 -0.002831
-0.000885 -1.3e-05 -0.001949
-0.000906 -1.3e-05 -0.001936
-0.000927 -1.4e-05 -0.001923
-0.000948 -1.4e-05 -0.001911
-0.00097 -1.5e-05 -0.001898
-0.000991 -1.5e-05 -0.001885
-0.001011 -1.5e-05 -0.001871
-0.001032 -1.5e-05 -0.001859
-0.001053 -1.6e-05 -0.001846
-0.001074 -1.6e-05 -0.001833
-0.001095 -1.6e-05 -0.00182
-0.001116 -1.7e-05 -0.001807
-0.001137 -1.7e-05 -0.001793
-0.001157 -1.7e-05 -0.00178
-0.001177 -1.7e-05 -0.001766
-0.001198 -1.7e-05 -0.001753
-0.001218 -1.6e-05 -0.001739
-0.001239 -1.6e-05 -0.001725
-0.00126 -1.6e-05 -0.001712
-0.00128 -1.6e-05 -0.001698
-0.0013 -1.6e-05 -0.001684
-0.00132 -1.5e-05 -0.001669
-0.00134 -1.5e-05 -0.001655
-0.001361 -1.5e-05 -0.001641
-0.001381 -1.4e-05 -0.001627
-0.0014 -1.4e-05 -0.001612
-0.001421 -1.3e-05 -0.001598
-0.00152 -1e-05 -0.001525
-0.001539 -9e-06 -0.001509
-0.001559 -8e-06 -0.001494
-0.001579 -8e-06 -0.001479
1.7e-05 0.000446 -0.002996
0.000116 0.000475 -0.002994
0.000993 0.0007 -0.002812
-0.001146 0.000771 -0.002176
-0.000243 0.000709 -0.002591
-0.000356 0.000699 -0.002456
-0.001032 0.000477 -0.002809
-0.001111 0.000725 -0.002228
-0.001346 0.000688 -0.00224
-0.000442 0.000695 -0.002456
-0.001176 0.000734 -0.002189
-0.00125 0.000728 -0.002179
-0.001224 0.000732 -0.002182
-0.000205 0.000658 -0.002717
-0.000987 0.000474 -0.002829
-0.000908 -2.4e-05 -0.001894
-0.000929 -2.5e-05 -0.001881
-0.00095 -2.5e-05 -0.001869
-0.000971 -2.6e-05 -0.001856
-0.000992 -2.7e-05 -0.001843
-0.001014 -2.7e-05 -0.001831
-0.001035 -2.7e-05 -0.001818
-0.001056 -2.8e-05 -0.001805
-0.001076 -2.8e-05 -0.001792
-0.001097 -2.8e-05 -0.001778
-0.001118 -2.8e-05 -0.001765
-0.001138 -2.8e-05 -0.001751
4.2e-05 0.000637 -0.002996
-7e-06 0.000582 -0.002996
-3.2e-05 0.0005 -0.002996
6.7e-05 0.000474 -0.002995
9.1e-05 0.000474 -0.002995
-0.000712 0.000509 -0.002775
-0.00075 0.000487 -0.002812
-0.000787 0.000466 -0.002849
-0.00082 0.00045 -0.002874
-0.000846 0.000447 -0.002873
-0.00087 0.000446 -0.002867
-0.000893 0.000446 -0.002859
-0.000917 0.000446 -0.002852
-0.00094 0.000447 -0.002844
-0.000963 0.000447 -0.002836
-0.000987 0.000446 -0.002831
-0.00101 0.000447 -0.002821
-0.001032 0.00045 -0.002809
-0.00105 0.00046 -0.002782
-0.001224 0.000705 -0.002179
-0.00125 0.000701 -0.00218
-0.001279 0.000693 -0.002188
-0.00131 0.00068 -0.002206
-0.001346 0.00066 -0.00224
0.000592 0.000683 -0.002494
-0.000191 0.000561 -0.002757
-0.000204 0.000577 -0.002716
-0.000217 0.000594 -0.002674
-0.00023 0.00061 -0.002634
-0.000243 0.000628 -0.00259
-0.000256 0.000645 -0.002548
-0.00027 0.000658 -0.002513
-0.000289 0.000666 -0.00249
-0.00031 0.000671 -0.002473
-0.000332 0.000673 -0.002462
-0.000356 0.000672 -0.002456
-0.000129 0.000738 -0.002893
6.7e-05 0.000637 -0.002996
0.000166 0.000564 -0.002979
-0.000593 0.000668 -0.002629
-8.1e-05 0.00051 -0.002974
-0.000105 0.000526 -0.00294
-0.000749 0.00046 -0.002811
-0.000787 0.000438 -0.002849
-0.00082 0.000423 -0.002874
-0.000846 0.000419 -0.002874
-0.00087 0.000419 -0.002867
-0.000893 0.000419 -0.00286
-0.000917 0.000419 -0.002852
-0.00094 0.000419 -0.002845
-0.000963 0.00042 -0.002837
-0.000987 0.00042 -0.002829
-0.00101 0.000421 -0.00282
-0.001032 0.000423 -0.002809
-0.00105 0.000432 -0.002782
-0.001224 0.000678 -0.002179
-0.00125 0.000674 -0.00218
-0.001279 0.000666 -0.002188
-0.00131 0.000653 -0.002207
-0.001346 0.000634 -0.002239
-0.000176 0.000521 -0.00279
-0.000191 0.000533 -0.002758
-0.000204 0.00055 -0.002716
-0.000217 0.000567 -0.002673
-0.00023 0.000583 -0.002633
-0.000243 0.000601 -0.00259
-0.000256 0.000618 -0.002548
-0.00027 0.000632 -0.002512
-0.000289 0.000639 -0.002489
-0.00031 0.000644 -0.002473
-0.000332 0.000645 -0.002462
-0.000356 0.000645 -0.002456
-0.000381 0.000643 -0.002452
-0.000177 0.000694 -0.002811
-3.2e-05 0.000555 -0.002996
0.000616 0.000724 -0.002525
-5.6e-05 0.000502 -0.002992
-0.000673 0.000479 -0.002732
-0.000712 0.000455 -0.002774
-0.000749 0.000433 -0.002811
-0.000787 0.000411 -0.00285
-0.00082 0.000396 -0.002874
-0.000846 0.000392 -0.002874
-0.00087 0.000392 -0.002867
-0.000893 0.000392 -0.00286
-0.000917 0.000392 -0.002852
-0.00094 0.000392 -0.002844
-0.000963 0.000393 -0.002836
-0.000987 0.000393 -0.002828
-0.00101 0.000394 -0.00282
-0.001032 0.000396 -0.002809
-0.001049 0.000406 -0.002781
-0.001224 0.000651 -0.002179
-0.00125 0.000646 -0.00218
-0.001279 0.000638 -0.002188
-0.00131 0.000626 -0.002207
-0.001346 0.000606 -0.002239
-0.000175 0.000494 -0.00279
-0.000191 0.000507 -0.002756
-0.000204 0.000523 -0.002716
-0.000217 0.00054 -0.002673
-0.00023 0.000556 -0.002633
-0.000243 0.000573 -0.00259
-0.000256 0.00059 -0.002548
-0.00027 0.000605 -0.002511
-0.000289 0.000612 -0.002489
-0.00031 0.000616 -0.002473
-0.000332 0.000618 -0.002462
-0.000356 0.000618 -0.002456
-0.000381 0.000616 -0.002452
-0.000153 0.00067 -0.002864
4.2e-05 0.000555 -0.002995
9.1e-05 0.000529 -0.002995
0.001067 0.00056 -0.002801
-0.000673 0.000451 -0.002733
-0.000712 0.000427 -0.002774
-0.000788 0.000383 -0.002852
-0.00082 0.000368 -0.002874
-0.000846 0.000365 -0.002874
-0.00087 0.000365 -0.002867
-0.000893 0.000365 -0.00286
-0.000917 0.000365 -0.002852
-0.00094 0.000365 -0.002845
-0.000963 0.000365 -0.002837
-0.000987 0.000366 -0.002829
-0.00101 0.000366 -0.00282
-0.001032 0.000368 -0.002809
-0.001049 0.000378 -0.002781
-0.001199 0.000626 -0.002181
-0.001224 0.000624 -0.002178
-0.001251 0.000618 -0.002181
-0.001279 0.000611 -0.002188
-0.001311 0.000598 -0.002207
-0.001347 0.000579 -0.002241
-0.000176 0.000466 -0.00279
-0.000191 0.00048 -0.002755
-0.000204 0.000496 -0.002715
-0.000217 0.000513 -0.002674
-0.00023 0.000529 -0.002632
-0.000243 0.000546 -0.00259
-0.000255 0.000564 -0.002547
-0.00027 0.000578 -0.002511
-0.000289 0.000585 -0.002489
-0.00031 0.000589 -0.002473
-0.000332 0.000591 -0.002462
-0.000356 0.000591 -0.002456
-0.000381 0.000589 -0.002452
-8.1e-05 0.000619 -0.002973
-0.000105 0.000581 -0.002939
-0.000418 0.000751 -0.002452
0.00095 0.000529 -0.002842
0.000249 0.000715 -0.002802
0.000265 0.000621 -0.002765
-0.00075 0.000378 -0.002812
-0.000787 0.000357 -0.002849
-0.00082 0.000341 -0.002874
-0.000846 0.000338 -0.002874
-0.00087 0.000337 -0.002867
-0.000893 0.000337 -0.00286
-0.000917 0.000338 -0.002852
-0.00094 0.000338 -0.002845
-0.000964 0.000338 -0.002837
-0.000987 0.000339 -0.002829
-0.00101 0.000339 -0.00282
-0.001032 0.000341 -0.002809
-0.001049 0.000352 -0.00278
-0.001176 0.000599 -0.002188
-0.001199 0.000599 -0.002181
-0.001224 0.000596 -0.002178
-0.00125 0.000592 -0.00218
-0.001279 0.000584 -0.002187
-0.00131 0.000572 -0.002205
-0.001346 0.000552 -0.002239
-0.000175 0.00044 -0.002789
-0.00019 0.000453 -0.002754
-0.000204 0.000468 -0.002716
-0.000217 0.000485 -0.002674
-0.00023 0.000502 -0.002632
-0.000243 0.000519 -0.00259
-0.000255 0.000536 -0.002547
-0.00027 0.00055 -0.002511
-0.000289 0.000558 -0.002489
-0.00031 0.000562 -0.002473
-0.000332 0.000564 -0.002462
-0.000356 0.000564 -0.002456
-0.000381 0.000562 -0.002452
-7e-06 0.000609 -0.002996
-8.1e-05 0.000564 -0.002974
-0.000418 0.000697 -0.002452
0.000444 0.000706 -0.002443
1.7e-05 0.000555 -0.002996
-0.000674 0.000397 -0.002733
-0.000713 0.000373 -0.002775
-0.00075 0.000351 -0.002813
-0.000787 0.000329 -0.00285
-0.00082 0.000314 -0.002874
-0.000846 0.000311 -0.002874
-0.00087 0.00031 -0.002867
-0.000893 0.00031 -0.00286
-0.000917 0.00031 -0.002852
-0.00094 0.000311 -0.002845
-0.000963 0.000311 -0.002837
-0.000987 0.000311 -0.002829
-0.00101 0.000312 -0.00282
-0.001032 0.000314 -0.002809
-0.001049 0.000325 -0.00278
-0.001059 0.000344 -0.002733
-0.001176 0.000571 -0.002188
-0.001199 0.000572 -0.002181
-0.001224 0.000569 -0.002178
-0.00125 0.000564 -0.00218
-0.001279 0.000557 -0.002188
-0.00131 0.000545 -0.002206
-0.001346 0.000525 -0.002239
-0.000176 0.000412 -0.00279
-0.00019 0.000426 -0.002754
-0.000204 0.000441 -0.002716
-0.000217 0.000458 -0.002674
-0.00023 0.000475 -0.002632
-0.000243 0.000492 -0.00259
-0.000255 0.000509 -0.002547
-0.00027 0.000523 -0.002511
-0.000289 0.000531 -0.002488
-0.00031 0.000535 -0.002473
-0.000332 0.000537 -0.002462
-0.000356 0.000536 -0.002456
-0.000381 0.000534 -0.002452
4.2e-05 0.000609 -0.002996
-0.000153 0.000615 -0.002864
0.000141 0.000476 -0.002992
0.000567 0.000669 -0.002465
-0.000568 0.000656 -0.002596
-0.000673 0.00037 -0.002732
-0.000713 0.000345 -0.002776
-0.00075 0.000323 -0.002813
-0.000787 0.000302 -0.002849
-0.00082 0.000287 -0.002873
-0.000846 0.000284 -0.002873
-0.00087 0.000283 -0.002867
-0.000893 0.000283 -0.00286
-0.000917 0.000283 -0.002852
-0.00094 0.000284 -0.002845
-0.000964 0.000284 -0.002837
-0.000987 0.000284 -0.002829
-0.00101 0.000285 -0.002821
-0.001032 0.000287 -0.002809
-0.001049 0.000298 -0.002779
-0.001059 0.000316 -0.002734
-0.001176 0.000544 -0.002188
-0.001199 0.000544 -0.002181
-0.001224 0.000542 -0.002178
-0.00125 0.000537 -0.00218
-0.001279 0.00053 -0.002188
-0.00131 0.000518 -0.002205
-0.001347 0.000497 -0.002242
-0.000176 0.000385 -0.00279
-0.00019 0.000399 -0.002754
-0.000204 0.000414 -0.002715
-0.000217 0.000431 -0.002674
-0.00023 0.000448 -0.002633
-0.000243 0.000465 -0.00259
-0.000255 0.000482 -0.002547
-0.00027 0.000496 -0.002511
-0.000289 0.000504 -0.002488
-0.00031 0.000508 -0.002472
-0.000332 0.00051 -0.002462
-0.000356 0.000509 -0.002456
-0.000381 0.000507 -0.002452
-5.6e-05 0.000612 -0.002989
0.000456 0.00069 -0.00244
-3.2e-05 0.000528 -0.002995
-0.000674 0.000342 -0.002734
-0.000712 0.000319 -0.002775
-0.00075 0.000296 -0.002815
-0.000787 0.000275 -0.002849
-0.00082 0.00026 -0.002873
-0.000846 0.000256 -0.002874
-0.00087 0.000256 -0.002868
-0.000894 0.000256 -0.002861
-0.000917 0.000256 -0.002853
-0.000941 0.000256 -0.002846
-0.000964 0.000256 -0.002838
-0.000987 0.000256 -0.00283
-0.00101 0.000258 -0.00282
-0.001032 0.00026 -0.002808
-0.001049 0.000271 -0.002778
-0.001059 0.00029 -0.002733
-0.001176 0.000517 -0.002188
-0.001199 0.000517 -0.002181
-0.001224 0.000515 -0.002178
-0.00125 0.000511 -0.002179
-0.001279 0.000503 -0.002187
-0.00131 0.00049 -0.002206
-0.001347 0.000469 -0.002242
-0.000179 0.000358 -0.002791
-0.00019 0.000372 -0.002754
-0.000204 0.000388 -0.002714
-0.000218 0.000403 -0.002675
-0.00023 0.00042 -0.002632
-0.000243 0.000438 -0.00259
-0.000255 0.000455 -0.002547
-0.00027 0.00047 -0.00251
-0.000289 0.000477 -0.002488
-0.00031 0.000481 -0.002472
-0.000332 0.000482 -0.002462
-0.000356 0.000482 -0.002456
-0.000153 0.000723 -0.002866
-5.6e-05 0.000584 -0.002991
-0.000618 0.000708 -0.00266
-0.000153 0.000561 -0.002864
-0.000883 -2.4e-05 -0.001905
-0.00086 -2.5e-05 -0.001914
-0.00075 0.000268 -0.002814
-0.000787 0.000248 -0.002849
-0.00082 0.000233 -0.002873
-0.000846 0.000229 -0.002873
-0.00087 0.000229 -0.002867
-0.000894 0.000229 -0.00286
-0.000917 0.000229 -0.002853
-0.00094 0.000229 -0.002845
-0.000964 0.000229 -0.002837
-0.000987 0.00023 -0.002829
-0.00101 0.000231 -0.00282
-0.001032 0.000233 -0.002807
-0.001049 0.000244 -0.002778
-0.001059 0.000263 -0.002732
-0.001176 0.00049 -0.002188
-0.001199 0.00049 -0.002181
-0.001224 0.000488 -0.002178
-0.00125 0.000483 -0.002179
-0.001279 0.000476 -0.002187
-0.00131 0.000463 -0.002206
-0.001347 0.000442 -0.002241
-0.000176 0.000331 -0.00279
-0.000191 0.000344 -0.002755
-0.000204 0.00036 -0.002715
-0.000217 0.000376 -0.002675
-0.00023 0.000393 -0.002632
-0.000243 0.00041 -0.00259
-0.000255 0.000428 -0.002546
-0.00027 0.000442 -0.00251
-0.000289 0.000449 -0.002488
-0.00031 0.000454 -0.002472
-0.000332 0.000455 -0.002462
-0.000356 0.000455 -0.002455
-8.1e-05 0.000676 -0.002967
0.001145 0.000682 -0.002628
-0.000543 0.000747 -0.002576
0.000592 0.000738 -0.002494
-0.000837 -2.6e-05 -0.001923
-0.000713 0.000263 -0.002776
-0.00075 0.000242 -0.002813
-0.000787 0.000221 -0.002849
-0.00082 0.000206 -0.002872
-0.000846 0.000202 -0.002873
-0.00087 0.000202 -0.002867
-0.000893 0.000202 -0.00286
-0.000917 0.000202 -0.002852
-0.00094 0.000202 -0.002844
-0.000964 0.000202 -0.002837
-0.000987 0.000203 -0.002829
-0.00101 0.000204 -0.00282
-0.001031 0.000207 -0.002806
-0.001049 0.000217 -0.002778
-0.001059 0.000236 -0.002732
-0.000813 -2.6e-05 -0.00193
-0.00079 -2.6e-05 -0.001938
-0.001176 0.000463 -0.002188
-0.001199 0.000463 -0.002181
-0.001224 0.000461 -0.002177
-0.00125 0.000456 -0.002179
-0.001279 0.000449 -0.002187
-0.00131 0.000436 -0.002205
-0.001347 0.000415 -0.002242
-0.000179 0.000304 -0.00279
-0.000191 0.000317 -0.002755
-0.000204 0.000333 -0.002715
-0.000218 0.000348 -0.002676
-0.00023 0.000366 -0.002633
-0.000243 0.000383 -0.002589
-0.000255 0.000401 -0.002546
-0.00027 0.000415 -0.00251
-0.000289 0.000422 -0.002488
-0.00031 0.000427 -0.002472
-0.000332 0.000428 -0.002462
-0.000356 0.000428 -0.002455
-0.000381 0.000426 -0.002452
-3.2e-05 0.00061 -0.002994
-0.000585 -1.4e-05 -0.00205
-0.000105 0.000472 -0.002939
-0.000767 -2.7e-05 -0.001946
-0.000713 0.000237 -0.002775
-0.00075 0.000214 -0.002814
-0.000788 0.000193 -0.002851
-0.000819 0.00018 -0.002871
-0.000845 0.000176 -0.002871
-0.00087 0.000175 -0.002866
-0.000893 0.000175 -0.002859
-0.000917 0.000175 -0.002852
-0.00094 0.000175 -0.002844
-0.000964 0.000175 -0.002836
-0.000987 0.000176 -0.002828
-0.001009 0.000177 -0.002818
-0.001031 0.00018 -0.002805
-0.001048 0.00019 -0.002777
-0.001059 0.000209 -0.002731
-0.000744 -2.7e-05 -0.001955
-0.001176 0.000436 -0.002187
-0.001199 0.000436 -0.00218
-0.001224 0.000434 -0.002177
-0.00125 0.000429 -0.002179
-0.001279 0.000422 -0.002187
-0.001311 0.000408 -0.002207
-0.001347 0.000388 -0.002241
-0.000175 0.000277 -0.002787
-0.000191 0.000289 -0.002756
-0.000204 0.000306 -0.002714
-0.000218 0.000322 -0.002675
-0.000231 0.000338 -0.002634
-0.000243 0.000356 -0.00259
-0.000255 0.000374 -0.002546
-0.00027 0.000388 -0.00251
-0.000289 0.000395 -0.002488
-0.00031 0.000399 -0.002472
-0.000332 0.000401 -0.002462
-0.000356 0.000401 -0.002455
-0.000381 0.000398 -0.002452
6.7e-05 0.00061 -0.002996
-0.000177 0.000641 -0.002808
-0.000618 0.000681 -0.00266
-0.00072 -2.7e-05 -0.001963
-0.000697 -2.8e-05 -0.00197
-0.000673 -2.8e-05 -0.001977
-0.000713 0.00021 -0.002775
-0.00075 0.000187 -0.002814
-0.000787 0.000166 -0.002849
-0.000819 0.000153 -0.002869
-0.000845 0.00015 -0.002869
-0.000869 0.000149 -0.002864
-0.000893 0.000148 -0.002858
-0.000917 0.000148 -0.002851
-0.00094 0.000148 -0.002843
-0.000963 0.000149 -0.002835
-0.000986 0.00015 -0.002826
-0.001009 0.000151 -0.002816
-0.001031 0.000154 -0.002803
-0.001048 0.000163 -0.002776
-0.001058 0.000182 -0.00273
-0.001176 0.000409 -0.002187
-0.001199 0.000408 -0.00218
-0.001224 0.000406 -0.002177
-0.00125 0.000402 -0.002179
-0.001278 0.000395 -0.002186
-0.001311 0.00038 -0.002209
-0.001347 0.000361 -0.002242
-0.000175 0.00025 -0.002787
-0.00019 0.000263 -0.002754
-0.000204 0.000279 -0.002713
-0.000218 0.000295 -0.002675
-0.000231 0.000311 -0.002633
-0.000243 0.000329 -0.00259
-0.000255 0.000347 -0.002546
-0.00027 0.000361 -0.00251
-0.000289 0.000368 -0.002488
-0.00031 0.000372 -0.002472
-0.000332 0.000374 -0.002462
-0.000356 0.000373 -0.002455
-0.000381 0.000371 -0.002452
1.8e-05 0.000609 -0.002996
-0.000518 0.000745 -0.002582
0.000141 0.00053 -0.002992
-0.00065 -2.8e-05 -0.001985
-0.00075 0.000161 -0.002812
-0.000787 0.000139 -0.002849
-0.000818 0.000128 -0.002865
-0.000844 0.000125 -0.002865
-0.000868 0.000123 -0.002861
-0.000892 0.000122 -0.002855
-0.000916 0.000122 -0.002849
-0.000939 0.000122 -0.002841
-0.000962 0.000123 -0.002832
-0.000985 0.000124 -0.002823
-0.001008 0.000126 -0.002812
-0.001029 0.000129 -0.002799
-0.001048 0.000137 -0.002775
-0.001058 0.000155 -0.002729
