-0.002994 0.000222 0.000123
-0.002995 0.000224 0.000148
-0.002072 -2.8e-05 -0.000249
-0.002536 0.00055 -0.001552
-0.002418 0.000667 -0.001339
-0.002874 0.000596 -0.00084
-0.002474 0.000655 -0.001418
-0.002528 0.000656 -0.001584
-0.001895 0.000722 -0.001661
-0.002904 0.000182 -0.000735
-0.00291 0.000181 -0.000711
-0.002914 0.000181 -0.000687
-0.002914 0.000183 -0.000662
-0.002899 0.000191 -0.000634
-0.002874 0.000204 -0.000607
-0.002847 0.000219 -0.000578
-0.002819 0.000233 -0.000549
-0.002787 0.00025 -0.00052
-0.00274 0.000274 -0.000489
-0.002693 0.000298 -0.000458
-0.002588 0.00035 -0.000394
-0.002535 0.000376 -0.000362
-0.002502 0.000393 -0.000333
-0.002487 0.000402 -0.000306
-0.002481 0.000406 -0.00028
-0.002479 0.000409 -0.000255
-0.002481 0.00041 -0.00023
-0.002486 0.000409 -0.000206
-0.002495 0.000407 -0.000183
-0.002507 0.000402 -0.000159
-0.002526 0.000395 -0.000137
-0.002558 0.000381 -0.000116
-0.002615 0.000356 -9.9e-05
-0.002665 0.000334 -8.1e-05
-0.002709 0.000315 -6.2e-05
-0.002749 0.000298 -4.3e-05
-0.00279 0.00028 -2.3e-05
-0.002827 0.000264 -4e-06
-0.002862 0.000249 1.7e-05
-0.002897 0.000235 3.7e-05
-0.002932 0.00022 5.7e-05
-0.002965 0.000206 7.7e-05
-0.002988 0.000197 9.9e-05
-0.002994 0.000196 0.000123
-0.002995 0.000197 0.000148
-0.002069 -2.8e-05 -0.000274
-0.002881 0.000515 -0.000817
-0.002449 0.000647 -0.001379
-0.002771 0.000627 -0.000903
-0.002881 0.000624 -0.000817
-0.002879 0.000653 -0.000816
-0.001807 0.000669 -0.001941
-0.002904 0.000155 -0.000735
-0.002909 0.000155 -0.000711
-0.002912 0.000155 -0.000686
-0.002912 0.000156 -0.000661
-0.002898 0.000164 -0.000634
-0.002874 0.000177 -0.000606
-0.002847 0.000192 -0.000578
-0.00282 0.000206 -0.00055
-0.002787 0.000223 -0.00052
-0.002741 0.000246 -0.000489
-0.002066 -2.8e-05 -0.000298
-0.002534 0.000349 -0.000362
-0.002502 0.000366 -0.000333
-0.002487 0.000375 -0.000306
-0.002481 0.000379 -0.00028
-0.002479 0.000382 -0.000255
-0.002482 0.000382 -0.00023
-0.002487 0.000382 -0.000206
-0.002495 0.000379 -0.000183
-0.002507 0.000375 -0.000159
-0.002526 0.000367 -0.000137
-0.002559 0.000354 -0.000117
-0.002614 0.000329 -9.9e-05
-0.002664 0.000307 -8.1e-05
-0.002709 0.000288 -6.2e-05
-0.00275 0.00027 -4.3e-05
-0.00279 0.000253 -2.3e-05
-0.002828 0.000237 -4e-06
-0.002862 0.000222 1.7e-05
-0.002897 0.000207 3.7e-05
-0.002931 0.000193 5.7e-05
-0.002964 0.000179 7.7e-05
-0.002986 0.00017 9.9e-05
-0.002993 0.000169 0.000123
-0.002994 0.00017 0.000148
-0.002062 -2.8e-05 -0.000322
-0.002865 0.000513 -0.000864
-0.002537 0.000516 -0.00158
-0.002523 0.000589 -0.001519
-0.002463 0.000749 -0.000954
-0.002687 0.000687 -0.000919
-0.002522 0.000655 -0.001601
-0.002896 0.00013 -0.000758
-0.002901 0.000129 -0.000734
-0.002906 0.000129 -0.00071
-0.002909 0.000129 -0.000686
-0.002909 0.000131 -0.000661
-0.002897 0.000137 -0.000635
-0.002874 0.00015 -0.000606
-0.002848 0.000164 -0.000578
-0.002821 0.000178 -0.00055
-0.002785 0.000197 -0.00052
-0.002741 0.000219 -0.000489
-0.002058 -2.8e-05 -0.000347
-0.002643 0.000268 -0.000426
-0.002588 0.000295 -0.000394
-0.002535 0.000322 -0.000362
-0.002502 0.000339 -0.000333
-0.002488 0.000347 -0.000306
-0.002481 0.000352 -0.00028
-0.002479 0.000355 -0.000255
-0.002482 0.000355 -0.00023
-0.002487 0.000354 -0.000206
-0.002495 0.000352 -0.000183
-0.002507 0.000348 -0.000159
-0.002526 0.00034 -0.000137
-0.002557 0.000327 -0.000116
-0.002666 0.000279 -8.1e-05
-0.002709 0.000261 -6.2e-05
-0.002749 0.000243 -4.3e-05
-0.00279 0.000226 -2.3e-05
-0.002828 0.00021 -4e-06
-0.002862 0.000195 1.7e-05
-0.002897 0.00018 3.7e-05
-0.002931 0.000166 5.7e-05
-0.002964 0.000152 7.7e-05
-0.002984 0.000144 9.9e-05
-0.00299 0.000143 0.000124
-0.002992 0.000143 0.000148
-0.002054 -2.8e-05 -0.000371
-0.002874 0.000514 -0.000841
-0.002848 0.000517 -0.000883
-0.002449 0.000565 -0.001379
-0.002536 0.000577 -0.001552
-0.002386 0.000716 -0.001297
-0.002526 0.000598 -0.001602
-0.00288 0.000684 -0.00079
-0.002885 0.000107 -0.000782
-0.002891 0.000105 -0.000758
-0.002896 0.000104 -0.000734
-0.0029 0.000104 -0.000709
-0.002903 0.000105 -0.000685
-0.002903 0.000106 -0.00066
-0.002896 0.000111 -0.000634
-0.002874 0.000123 -0.000606
-0.002848 0.000137 -0.000578
-0.002821 0.000151 -0.00055
-0.002786 0.000169 -0.00052
-0.002742 0.000191 -0.000489
-0.002586 0.000269 -0.000394
-0.002535 0.000295 -0.000362
-0.002503 0.000312 -0.000333
-0.002488 0.00032 -0.000306
-0.002481 0.000325 -0.00028
-0.00248 0.000327 -0.000255
-0.002482 0.000328 -0.00023
-0.002487 0.000327 -0.000206
-0.002495 0.000325 -0.000183
-0.002507 0.000321 -0.000159
-0.002527 0.000313 -0.000137
-0.002558 0.0003 -0.000116
-0.002614 0.000275 -9.9e-05
-0.002665 0.000253 -8.1e-05
-0.002707 0.000234 -6.2e-05
-0.002751 0.000215 -4.3e-05
-0.002789 0.000199 -2.3e-05
-0.002828 0.000183 -4e-06
-0.002862 0.000168 1.7e-05
-0.002896 0.000154 3.7e-05
-0.002932 0.000138 5.7e-05
-0.002963 0.000125 7.7e-05
-0.002981 0.000119 0.0001
-0.002986 0.000118 0.000124
-0.002989 0.000118 0.000149
-0.002051 -2.7e-05 -0.000395
-0.002513 0.000545 -0.001624
-0.002466 0.000538 -0.001692
-0.0029 0.00063 -0.000744
-0.002065 0.000729 -0.001708
-0.00287 8.5e-05 -0.000805
-0.002877 8.3e-05 -0.000781
-0.002884 8.2e-05 -0.000757
-0.002888 8.1e-05 -0.000733
-0.002892 8.1e-05 -0.000708
-0.002894 8.1e-05 -0.000684
-0.002895 8.3e-05 -0.000659
-0.002891 8.6e-05 -0.000633
-0.002873 9.6e-05 -0.000606
-0.002848 0.000109 -0.000578
-0.002821 0.000124 -0.00055
-0.002784 0.000143 -0.00052
-0.002742 0.000164 -0.000489
-0.00269 0.00019 -0.000457
-0.002643 0.000214 -0.000426
-0.002502 0.000285 -0.000332
-0.002487 0.000293 -0.000306
-0.002481 0.000298 -0.00028
-0.00248 0.0003 -0.000255
-0.002482 0.000301 -0.00023
-0.002487 0.0003 -0.000206
-0.002495 0.000298 -0.000183
-0.002507 0.000293 -0.000159
-0.002526 0.000286 -0.000137
-0.002557 0.000273 -0.000116
-0.002613 0.000248 -9.9e-05
-0.002664 0.000226 -8.1e-05
-0.002707 0.000207 -6.2e-05
-0.00275 0.000189 -4.3e-05
-0.00279 0.000171 -2.3e-05
-0.002827 0.000155 -4e-06
-0.002862 0.000141 1.7e-05
-0.002896 0.000126 3.7e-05
-0.002932 0.000111 5.7e-05
-0.002961 9.9e-05 7.7e-05
-0.002975 9.4e-05 0.000101
-0.00298 9.3e-05 0.000125
-0.002046 -2.7e-05 -0.00042
-0.002042 -2.7e-05 -0.000444
-0.002313 0.000709 -0.001211
-0.002864 0.000595 -0.000863
-0.001869 0.000646 -0.002123
-0.00231 0.000574 -0.001754
-0.002859 6.3e-05 -0.000803
-0.002866 6.1e-05 -0.000779
-0.002872 6e-05 -0.000755
-0.002877 5.9e-05 -0.000731
-0.002881 5.9e-05 -0.000707
-0.002884 5.9e-05 -0.000682
-0.002885 6e-05 -0.000658
-0.002883 6.3e-05 -0.000632
-0.002871 7e-05 -0.000606
-0.002849 8.2e-05 -0.000578
-0.002821 9.6e-05 -0.00055
-0.002786 0.000114 -0.00052
-0.00269 0.000163 -0.000457
-0.002643 0.000187 -0.000426
-0.002535 0.000241 -0.000362
-0.002502 0.000258 -0.000332
-0.002487 0.000266 -0.000306
-0.002481 0.000271 -0.00028
-0.002479 0.000273 -0.000255
-0.002482 0.000274 -0.00023
-0.002487 0.000273 -0.000206
-0.002495 0.000271 -0.000182
-0.002507 0.000266 -0.000159
-0.002526 0.000259 -0.000137
-0.002557 0.000246 -0.000116
-0.002614 0.000221 -9.9e-05
-0.002665 0.000198 -8.1e-05
-0.002708 0.000179 -6.2e-05
-0.00275 0.000162 -4.3e-05
-0.00279 0.000144 -2.3e-05
-0.002827 0.000129 -3e-06
-0.002862 0.000113 1.7e-05
-0.002897 9.9e-05 3.7e-05
-0.002931 8.4e-05 5.7e-05
-0.002955 7.4e-05 7.8e-05
-0.002966 7.1e-05 0.000102
-0.002038 -2.6e-05 -0.000468
-0.002034 -2.6e-05 -0.000493
-0.002337 0.000721 -0.000952
-0.002498 0.000736 -0.000943
-0.001882 0.000647 -0.002197
-0.001857 0.000664 -0.00208
-0.002845 4.2e-05 -0.000801
-0.002852 4.1e-05 -0.000777
-0.002857 4e-05 -0.000753
-0.002862 3.9e-05 -0.000729
-0.002811 0.000666 -0.000894
-0.00286 0.000652 -0.000861
-0.002688 0.000714 -0.000919
-0.002871 4.1e-05 -0.000631
-0.002864 4.6e-05 -0.000605
-0.002847 5.6e-05 -0.000578
-0.002821 6.9e-05 -0.00055
-0.002785 8.8e-05 -0.00052
-0.002741 0.00011 -0.000489
-0.00269 0.000136 -0.000457
-0.002641 0.00016 -0.000426
-0.002588 0.000187 -0.000394
-0.002534 0.000214 -0.000362
-0.002502 0.00023 -0.000332
-0.002487 0.000239 -0.000306
-0.002481 0.000244 -0.00028
-0.002479 0.000246 -0.000255
-0.002482 0.000246 -0.00023
-0.002487 0.000246 -0.000206
-0.002494 0.000244 -0.000182
-0.002507 0.000239 -0.000159
-0.002526 0.000231 -0.000137
-0.002558 0.000218 -0.000116
-0.002614 0.000193 -9.9e-05
-0.002664 0.000172 -8.1e-05
-0.00271 0.000152 -6.2e-05
-0.00275 0.000134 -4.3e-05
-0.00279 0.000117 -2.3e-05
-0.002826 0.000102 -3e-06
-0.002862 8.6e-05 1.7e-05
-0.002896 7.2e-05 3.7e-05
-0.002927 5.9e-05 5.8e-05
-0.002946 5.2e-05 8e-05
-0.002029 -2.5e-05 -0.000517
-0.002521 0.000535 -0.001519
-0.002772 0.000546 -0.000903
-0.002474 0.000547 -0.001418
-0.001123 0.000788 -0.002177
-0.001896 0.000668 -0.001661
-0.002512 0.000627 -0.001623
-0.002827 2.4e-05 -0.000799
-0.002833 2.3e-05 -0.000775
-0.002839 2.2e-05 -0.000751
-0.002843 2.1e-05 -0.000726
-0.002449 0.000701 -0.00138
-0.002524 0.000616 -0.001518
-0.002449 0.000674 -0.001379
-0.002507 0.000651 -0.00163
-0.002849 2.6e-05 -0.000603
-0.002839 3.2e-05 -0.000577
-0.002818 4.4e-05 -0.000549
-0.002783 6.2e-05 -0.00052
-0.00274 8.3e-05 -0.000489
-0.002689 0.000109 -0.000457
-0.002587 0.00016 -0.000394
-0.002533 0.000187 -0.000361
-0.002502 0.000203 -0.000332
-0.002487 0.000212 -0.000306
-0.002481 0.000216 -0.00028
-0.002479 0.000219 -0.000255
-0.002482 0.000219 -0.00023
-0.002487 0.000219 -0.000206
-0.002495 0.000216 -0.000182
-0.002507 0.000212 -0.000159
-0.002526 0.000204 -0.000137
-0.002559 0.000191 -0.000116
-0.002613 0.000167 -9.9e-05
-0.002664 0.000145 -8.1e-05
-0.002708 0.000125 -6.2e-05
-0.00279 9e-05 -2.3e-05
-0.002827 7.4e-05 -3e-06
-0.002863 5.9e-05 1.7e-05
-0.002895 4.5e-05 3.7e-05
-0.002918 3.6e-05 5.9e-05
-0.002024 -2.4e-05 -0.000541
-0.002535 0.000523 -0.001552
-0.002873 0.000623 -0.00084
-0.002765 2e-05 -0.000889
-0.002779 1.5e-05 -0.000867
-0.002788 1.2e-05 -0.000843
-0.002385 0.000608 -0.001297
-0.002803 8e-06 -0.000796
-0.002808 7e-06 -0.000771
-0.002813 6e-06 -0.000747
-0.002817 6e-06 -0.000723
-0.002821 7e-06 -0.000699
-0.002526 0.000544 -0.001603
-0.002874 0.000568 -0.00084
-0.002865 0.000568 -0.000863
-0.002827 9e-06 -0.0006
-0.002821 1.4e-05 -0.000574
-0.002808 2.1e-05 -0.000548
-0.002783 3.5e-05 -0.000519
-0.00264 0.000107 -0.000426
-0.002588 0.000133 -0.000394
-0.002534 0.00016 -0.000362
-0.002502 0.000176 -0.000332
-0.002487 0.000185 -0.000306
-0.002481 0.000189 -0.00028
-0.002479 0.000192 -0.000255
-0.002482 0.000192 -0.00023
-0.002487 0.000192 -0.000206
-0.002495 0.000189 -0.000182
-0.002507 0.000185 -0.000159
-0.002526 0.000177 -0.000137
-0.002558 0.000164 -0.000116
-0.002665 0.000117 -8.1e-05
-0.002708 9.8e-05 -6.2e-05
-0.00275 8e-05 -4.3e-05
-0.002789 6.3e-05 -2.3e-05
-0.002826 4.7e-05 -3e-06
-0.00286 3.3e-05 1.7e-05
-0.002885 2.3e-05 3.9e-05
-0.0029 1.7e-05 6.1e-05
-0.002922 1.5e-05 0.000183
-0.002924 1.6e-05 0.000207
-0.002019 -2.4e-05 -0.000565
-0.002868 0.000717 -0.000784
-0.002736 6e-06 -0.000886
-0.002747 2e-06 -0.000863
-0.002753 1e-06 -0.000839
-0.002757 1e-06 -0.000814
-0.002761 2e-06 -0.000765
-0.002765 2e-06 -0.000741
-0.002769 1e-06 -0.000716
-0.002774 1e-06 -0.000692
-0.002338 0.000747 -0.000953
-0.002494 0.000486 -0.001651
-0.002785 1e-06 -0.000594
-0.002786 3e-06 -0.00057
-0.002782 6e-06 -0.000544
-0.002768 1.4e-05 -0.000517
-0.002736 3.1e-05 -0.000488
-0.00269 5.4e-05 -0.000457
-0.00264 8e-05 -0.000426
-0.002587 0.000106 -0.000394
-0.002533 0.000133 -0.000361
-0.002502 0.000149 -0.000332
-0.002486 0.000158 -0.000305
-0.00248 0.000162 -0.00028
-0.002479 0.000165 -0.000255
-0.002482 0.000165 -0.00023
-0.002487 0.000164 -0.000206
-0.002494 0.000162 -0.000182
-0.002506 0.000158 -0.000159
-0.002526 0.00015 -0.000137
-0.002557 0.000137 -0.000116
-0.002664 9e-05 -8.1e-05
-0.00271 7e-05 -6.2e-05
-0.002751 5.2e-05 -4.3e-05
-0.002789 3.6e-05 -2.3e-05
-0.002822 2.2e-05 -3e-06
-0.002846 1.2e-05 1.9e-05
-0.002862 7e-06 4.2e-05
-0.002871 4e-06 6.5e-05
-0.002887 3e-06 0.000162
-0.00289 3e-06 0.000187
-0.002892 3e-06 0.000212
-0.002118 0.000625 -0.00172
-0.002849 0.000717 -0.00083
-0.002681 3e-06 -0.000903
-0.00269 0.0 -0.00088
-0.00269 2e-06 -0.000855
-0.002694 2e-06 -0.000831
-0.002696 2e-06 -0.000806
-0.0027 2e-06 -0.000782
-0.002704 2e-06 -0.000757
-0.002707 2e-06 -0.000733
-0.00271 2e-06 -0.000708
-0.002714 1e-06 -0.000684
-0.002314 0.000754 -0.000969
-0.002721 3e-06 -0.000611
-0.002725 3e-06 -0.000586
-0.00273 3e-06 -0.000537
-0.002732 4e-06 -0.000513
-0.002721 1.1e-05 -0.000486
-0.002689 2.7e-05 -0.000457
-0.002639 5.3e-05 -0.000425
-0.002533 0.000106 -0.000361
-0.002502 0.000122 -0.000332
-0.002487 0.00013 -0.000305
-0.002481 0.000135 -0.00028
-0.002479 0.000137 -0.000255
-0.002482 0.000138 -0.00023
-0.002487 0.000137 -0.000206
-0.002494 0.000135 -0.000182
-0.002507 0.000131 -0.000159
-0.002526 0.000123 -0.000137
-0.002557 0.00011 -0.000116
-0.002664 6.3e-05 -8.1e-05
-0.002711 4.2e-05 -6.2e-05
-0.00275 2.6e-05 -4.3e-05
-0.00278 1.3e-05 -2.2e-05
-0.002799 5e-06 0.0
-0.002808 3e-06 2.4e-05
-0.002811 3e-06 4.9e-05
-0.002828 2e-06 0.000146
-0.002831 2e-06 0.00017
-0.002835 2e-06 0.000194
-0.002537 0.000544 -0.00158
-0.002588 1.7e-05 -0.000936
-0.00262 3e-06 -0.00092
-0.002624 3e-06 -0.000896
-0.002627 4e-06 -0.000846
-0.002631 4e-06 -0.000822
-0.002635 4e-06 -0.000798
-0.00264 3e-06 -0.000774
-0.002644 2e-06 -0.000749
-0.002648 2e-06 -0.000725
-0.002653 2e-06 -0.000701
-0.002657 1e-06 -0.000676
-0.002643 0.000623 -0.000927
-0.00189 0.000569 -0.002267
-0.002669 0.0 -0.000603
-0.002673 0.0 -0.000579
-0.00187 0.000537 -0.002123
-0.00268 0.0 -0.00053
-0.002684 -1e-06 -0.000506
-0.002686 0.0 -0.000481
-0.002675 7e-06 -0.000455
-0.002586 5.2e-05 -0.000393
-0.002534 7.8e-05 -0.000361
-0.002501 9.5e-05 -0.000332
-0.002487 0.000103 -0.000305
-0.00248 0.000108 -0.00028
-0.002479 0.00011 -0.000255
-0.002482 0.000111 -0.00023
-0.002486 0.00011 -0.000206
-0.002494 0.000108 -0.000182
-0.002506 0.000104 -0.000159
-0.002525 9.6e-05 -0.000137
-0.002558 8.2e-05 -0.000116
-0.002612 5.8e-05 -9.9e-05
-0.002667 3.4e-05 -8.1e-05
-0.002708 1.7e-05 -6.2e-05
-0.002735 6e-06 -4.1e-05
-0.002748 1e-06 -1.7e-05
-0.00275 2e-06 7e-06
-0.002765 4e-06 0.000154
-0.002769 4e-06 0.000179
-0.002771 4e-06 0.000203
-0.002865 0.00054 -0.000864
-0.002555 7e-06 -0.000934
-0.002574 -3e-06 -0.000914
-0.002576 -2e-06 -0.000889
-0.002581 -3e-06 -0.000865
-0.002874 0.000719 -0.00076
-0.002588 -3e-06 -0.000816
-0.002591 -2e-06 -0.000792
-0.002592 -2e-06 -0.000767
-0.002596 -2e-06 -0.000743
-0.002599 -2e-06 -0.000718
-0.002604 -2e-06 -0.000694
-0.002607 -2e-06 -0.00067
-0.002481 0.000593 -0.001673
-0.002217 0.000639 -0.001739
-0.002354 0.000503 -0.001759
-0.002628 0.0 -0.000474
-0.002629 1e-06 -0.000449
-0.002621 7e-06 -0.000423
-0.002584 2.6e-05 -0.000393
-0.002533 5.1e-05 -0.000361
-0.002501 6.8e-05 -0.000332
-0.002486 7.6e-05 -0.000305
-0.00248 8.1e-05 -0.00028
-0.002479 8.3e-05 -0.000255
-0.002482 8.4e-05 -0.00023
-0.002487 8.3e-05 -0.000206
-0.002494 8.1e-05 -0.000182
-0.002506 7.7e-05 -0.000159
-0.002525 6.9e-05 -0.000137
-0.002556 5.6e-05 -0.000116
-0.002615 3e-05 -9.9e-05
-0.00266 1.1e-05 -8e-05
-0.002682 2e-06 -5.8e-05
-0.00269 -1e-06 -3.5e-05
-0.002697 -2e-06 -1.1e-05
-0.002699 -2e-06 1.4e-05
-0.002704 -2e-06 3.8e-05
-0.002708 -3e-06 6.2e-05
-0.002722 -1e-06 0.000185
-0.002725 -1e-06 0.000209
-0.002772 0.000572 -0.000903
-0.002254 0.000755 -0.001104
-0.002516 -1e-06 -0.000881
-0.002519 -1e-06 -0.000857
-0.00288 0.000721 -0.000736
-0.002687 0.000633 -0.000919
-0.002526 0.00049 -0.001602
-0.002524 5e-06 -0.000733
-0.002536 5e-06 -0.000635
-0.002539 6e-06 -0.000611
-0.00225 0.000729 -0.001102
-0.002279 0.000735 -0.001007
-0.002563 7e-06 -0.000415
-0.002562 9e-06 -0.00039
-0.002531 2.5e-05 -0.000361
-0.002501 4.1e-05 -0.000332
-0.002486 4.9e-05 -0.000305
-0.00248 5.4e-05 -0.00028
-0.002478 5.6e-05 -0.000254
-0.002482 5.7e-05 -0.00023
-0.002486 5.6e-05 -0.000206
-0.002494 5.4e-05 -0.000182
-0.002505 5e-05 -0.000159
-0.002524 4.2e-05 -0.000136
-0.002555 2.9e-05 -0.000116
-0.002601 7e-06 -9.7e-05
-0.00262 5e-06 -2.5e-05
-0.002623 5e-06 -1e-06
-0.002625 6e-06 2.4e-05
-0.00263 5e-06 4.8e-05
-0.002636 4e-06 7.2e-05
-0.002257 0.000736 -0.001051
-0.002506 0.000547 -0.001486
-0.002448 0.000592 -0.001379
-0.002438 4e-06 -0.000945
-0.002441 4e-06 -0.000921
-0.002441 5e-06 -0.000896
-0.002596 0.000642 -0.000933
-0.002881 0.000542 -0.000817
-0.002812 0.000557 -0.000894
-0.002258 0.000747 -0.001133
-0.002464 7e-06 -0.0007
-0.002468 7e-06 -0.000676
-0.002472 6e-06 -0.000651
-0.002293 0.00076 -0.000986
-0.00248 6e-06 -0.000603
-0.002801 0.000726 -0.000889
-0.002351 0.000684 -0.001255
-0.002474 0.00071 -0.001418
-0.002492 0.000696 -0.001453
-0.002499 0.000547 -0.001644
-0.002088 0.000733 -0.001759
-0.002505 6e-06 -0.000432
-0.002509 5e-06 -0.000408
-0.002514 4e-06 -0.000384
-0.002514 6e-06 -0.000359
-0.002499 1.4e-05 -0.000332
-0.002486 2.2e-05 -0.000305
-0.002479 2.7e-05 -0.000279
-0.002479 3e-05 -0.000254
-0.002494 2.7e-05 -0.000183
-0.002504 2.3e-05 -0.000159
-0.002522 1.6e-05 -0.000136
-0.002546 6e-06 -0.000114
-0.002559 7e-06 -1.7e-05
-0.002562 7e-06 8e-06
-0.002564 7e-06 3.2e-05
-0.002568 7e-06 5.7e-05
-0.002585 7e-06 0.000179
-0.002588 7e-06 0.000203
-0.002811 0.000585 -0.000894
-0.002342 2e-05 -0.000957
-0.002387 1e-06 -0.000938
-0.002382 4e-06 -0.000913
-0.002384 5e-06 -0.000888
-0.00231 0.000656 -0.001754
-0.00184 0.000656 -0.002034
-0.002895 0.000519 -0.000769
-0.002497 0.000655 -0.000942
-0.002848 0.000544 -0.000883
-0.001835 0.000508 -0.00236
-0.00284 0.000716 -0.000852
-0.00242 1e-06 -0.000694
-0.002424 0.0 -0.00067
-0.002428 -0.0 -0.000645
-0.002433 -1e-06 -0.000621
-0.002438 -2e-06 -0.000597
-0.002845 0.000627 -0.000882
-0.002863 0.000623 -0.000863
-0.002888 0.000626 -0.000793
-0.002509 0.000683 -0.001485
-0.002459 -3e-06 -0.000476
-0.002462 -3e-06 -0.000451
-0.002466 -3e-06 -0.000427
-0.00247 -4e-06 -0.000402
-0.002473 -4e-06 -0.000378
-0.002477 -4e-06 -0.000354
-0.00248 -4e-06 -0.000329
-0.00248 -2e-06 -0.000304
-0.002477 1e-06 -0.000279
-0.002507 -2e-06 -0.000109
-0.002508 -2e-06 -8.5e-05
-0.002516 -0.0 -1.1e-05
-0.002518 0.0 1.4e-05
-0.00252 1e-06 3.8e-05
-0.002521 2e-06 6.3e-05
-0.002531 4e-06 0.000186
-0.002534 5e-06 0.00021
-0.002538 5e-06 0.000235
-0.001825 0.000703 -0.001989
-0.002326 1e-06 -0.000954
-0.002336 -2e-06 -0.000931
-0.002338 -2e-06 -0.000907
-0.002344 -3e-06 -0.000883
-0.002349 -4e-06 -0.000858
-0.002355 -5e-06 -0.000834
-0.002361 -6e-06 -0.00081
-0.00255 0.000742 -0.000939
-0.002278 0.000708 -0.001007
-0.002267 0.000736 -0.001029
-0.002822 0.00072 -0.000872
-0.002387 -1.1e-05 -0.00069
-0.002392 -1.2e-05 -0.000665
-0.002397 -1.2e-05 -0.000641
-0.002401 -1.2e-05 -0.000617
-0.002405 -1.2e-05 -0.000593
-0.002409 -1.2e-05 -0.000568
-0.001761 0.000699 -0.001805
-0.002644 0.000731 -0.000927
-0.002448 0.000728 -0.001379
-0.002423 -1.4e-05 -0.000471
-0.002428 -1.4e-05 -0.000446
-0.00243 -1.4e-05 -0.000422
-0.002433 -1.4e-05 -0.000397
-0.002438 -1.4e-05 -0.000373
-0.002441 -1.4e-05 -0.000349
-0.002444 -1.4e-05 -0.000324
-0.002448 -1.4e-05 -0.0003
-0.002256 0.000709 -0.001051
-0.002473 -1.4e-05 -0.000105
-0.002476 -1.3e-05 -8e-05
-0.002483 -1.2e-05 -6e-06
-0.002485 -1.2e-05 1.8e-05
-0.002487 -1.1e-05 4.3e-05
-0.002488 -1e-05 6.7e-05
-0.00249 -9e-06 9.2e-05
-0.002491 -8e-06 0.000117
-0.002493 -7e-06 0.000141
-0.002277 0.000733 -0.001168
-0.002295 -1.1e-05 -0.00095
-0.002301 -1.3e-05 -0.000926
-0.002306 -1.4e-05 -0.000902
-0.002309 -1.4e-05 -0.000878
-0.002314 -1.5e-05 -0.000854
-0.002315 -1.4e-05 -0.000829
-0.002319 -1.4e-05 -0.000805
-0.002321 -1.3e-05 -0.00078
-0.001871 0.000744 -0.002157
-0.002333 -1.4e-05 -0.000707
-0.002334 -1.3e-05 -0.000682
-0.002336 -1.3e-05 -0.000658
-0.00234 -1.3e-05 -0.000633
-0.002252 0.000733 -0.001076
-0.002474 0.000574 -0.001418
-0.002349 -1.2e-05 -0.00056
-0.002812 0.000612 -0.000894
-0.002888 0.000544 -0.000793
-0.002547 0.000662 -0.000938
-0.002497 0.000682 -0.000942
-0.00237 -1.4e-05 -0.000439
-0.002368 -1.2e-05 -0.000413
-0.002371 -1.2e-05 -0.000389
-0.002373 -1.1e-05 -0.000365
-0.002419 0.00064 -0.001339
-0.002385 0.000662 -0.001297
-0.002527 0.000516 -0.001603
-0.002408 -1.2e-05 -0.000121
-0.002411 -1.2e-05 -9.6e-05
-0.002424 -1.3e-05 -2.3e-05
-0.002427 -1.3e-05 1e-06
-0.002428 -1.2e-05 2.6e-05
-0.002432 -1.2e-05 5e-05
-0.002437 -1.2e-05 7.4e-05
-0.002443 -1.3e-05 9.8e-05
-0.002445 -1.3e-05 0.000123
-0.00245 -1.4e-05 0.000147
-0.002492 0.000587 -0.001452
-0.002527 0.000694 -0.001551
-0.002244 -1.3e-05 -0.000919
-0.002247 -1.4e-05 -0.000894
-0.002248 -1.3e-05 -0.00087
-0.00225 -1.2e-05 -0.000845
-0.002253 -1.2e-05 -0.000821
-0.002256 -1.1e-05 -0.000796
-0.002258 -1.1e-05 -0.000771
-0.002293 0.000733 -0.000986
-0.002312 0.000729 -0.000968
-0.002269 -1e-05 -0.000674
-0.002274 -1.1e-05 -0.000649
-0.002285 -9e-06 -0.000551
-0.002289 -1e-05 -0.000527
-0.002895 0.000546 -0.000769
-0.002303 -9e-06 -0.000405
-0.002308 -9e-06 -0.00038
-0.002311 -8e-06 -0.000356
-0.002347 -9e-06 -8.7e-05
-0.002362 -1e-05 1e-05
-0.002379 -1.1e-05 0.000107
-0.002382 -1.1e-05 0.000131
-0.002393 -1.2e-05 0.000205
-0.002171 -1e-05 -0.000959
-0.002175 -1e-05 -0.000934
-0.002178 -8e-06 -0.000885
-0.002183 -9e-06 -0.000861
-0.002185 -9e-06 -0.000836
-0.002188 -8e-06 -0.000812
-0.002188 -7e-06 -0.000787
-0.00219 -6e-06 -0.000762
-0.00219 -5e-06 -0.000737
-0.002193 -4e-06 -0.000713
-0.002199 -4e-06 -0.000664
-0.002205 -6e-06 -0.00064
-0.002206 -4e-06 -0.000615
-0.002208 -4e-06 -0.000591
-0.001889 0.000504 -0.002301
-0.002521 0.000508 -0.001519
-0.002283 -3e-06 -2.9e-05
-0.002287 -3e-06 -5e-06
-0.002314 -6e-06 0.000141
-0.002317 -6e-06 0.000165
-0.002321 -6e-06 0.00019
-0.002325 -6e-06 0.000214
-0.00233 -7e-06 0.000238
-0.002106 -6e-06 -0.00095
-0.002106 -5e-06 -0.000925
-0.002118 -4e-06 -0.000827
-0.002119 -3e-06 -0.000802
-0.002122 -3e-06 -0.000778
-0.002126 -3e-06 -0.000754
-0.002127 -2e-06 -0.000729
-0.002129 -2e-06 -0.000704
-0.002135 -3e-06 -0.00068
-0.002139 -3e-06 -0.000656
-0.002144 -2e-06 -0.000607
-0.002147 -2e-06 -0.000582
-0.00215 -2e-06 -0.000558
-0.002442 0.000678 -0.000945
-0.002491 0.000533 -0.001452
-0.002537 0.000489 -0.00158
-0.002535 0.000496 -0.001552
-0.002512 0.000492 -0.001623
-0.00231 0.000547 -0.001753
-0.002643 0.000596 -0.000927
-0.002144 -9e-06 0.000139
-0.002199 -1e-06 -0.000192
-0.002204 -2e-06 -0.000168
-0.002219 -1e-06 -4.5e-05
-0.002222 -1e-06 -2.1e-05
-0.002226 -2e-06 3e-06
-0.002232 -1e-06 5.2e-05
-0.002236 -1e-06 7.7e-05
-0.00224 -2e-06 0.000101
-0.002243 -1e-06 0.000125
-0.002245 -2e-06 0.00015
-0.002248 -1e-06 0.000174
-0.002253 -2e-06 0.000199
-0.002262 -4e-06 0.000222
-0.002265 -4e-06 0.000247
-0.002039 -2e-06 -0.000941
-0.002045 -3e-06 -0.000917
-0.00273 0.000562 -0.000911
-0.002772 0.000599 -0.000903
-0.002055 -2e-06 -0.000819
-0.002058 -1e-06 -0.000794
-0.002061 -1e-06 -0.00077
-0.002066 -2e-06 -0.000746
-0.00207 -3e-06 -0.000721
-0.002074 -3e-06 -0.000697
-0.002078 -3e-06 -0.000673
-0.002081 -4e-06 -0.000648
-0.002086 -4e-06 -0.000624
-0.002089 -4e-06 -0.0006
-0.002094 -5e-06 -0.000575
-0.002099 -5e-06 -0.000551
-0.002104 -6e-06 -0.000527
-0.002107 -6e-06 -0.000502
-0.002771 0.000682 -0.000903
-0.002419 0.000612 -0.001339
-0.002888 0.000517 -0.000793
-0.00244 0.000706 -0.000944
-0.002126 -7e-06 -0.000381
-0.00213 -7e-06 -0.000356
-0.00286 0.000716 -0.000808
-0.002547 0.000635 -0.000937
-0.002147 -8e-06 -0.000234
-0.00215 -7e-06 -0.00021
-0.002153 -7e-06 -0.000186
-0.002155 -7e-06 -0.000161
-0.002158 -7e-06 -0.000136
-0.002162 -7e-06 -0.000112
-0.002164 -6e-06 -8.8e-05
-0.002167 -6e-06 -6.3e-05
-0.002169 -5e-06 -3.9e-05
-0.002173 -5e-06 -1.4e-05
-0.002175 -5e-06 1e-05
-0.002177 -5e-06 3.5e-05
-0.00218 -4e-06 5.9e-05
-0.002182 -3e-06 8.4e-05
-0.002186 -3e-06 0.000108
-0.002186 -2e-06 0.000133
-0.0022 -2e-06 0.000231
-0.002513 0.000518 -0.001624
-0.002507 0.000574 -0.001486
-0.002522 0.000562 -0.001519
-0.002266 0.000709 -0.001028
-0.00273 0.000616 -0.000911
-0.00189 0.000623 -0.002268
-0.002437 0.000708 -0.0017
-0.002016 -7e-06 -0.000764
-0.002022 -8e-06 -0.000739
-0.002873 0.000683 -0.000813
-0.001755 0.000642 -0.002418
-0.002525 0.000626 -0.001602
-0.002515 0.000685 -0.001598
-0.002046 -1.2e-05 -0.000619
-0.002051 -1.3e-05 -0.000594
-0.002055 -1.3e-05 -0.00057
-0.00206 -1.4e-05 -0.000546
-0.002065 -1.5e-05 -0.000522
-0.002068 -1.5e-05 -0.000497
-0.002072 -1.5e-05 -0.000473
-0.002076 -1.5e-05 -0.000449
-0.00208 -1.5e-05 -0.000424
-0.002084 -1.6e-05 -0.0004
-0.002087 -1.6e-05 -0.000375
-0.002091 -1.6e-05 -0.000351
-0.002094 -1.6e-05 -0.000327
-0.002098 -1.6e-05 -0.000302
-0.002101 -1.6e-05 -0.000278
-0.002105 -1.6e-05 -0.000254
-0.002108 -1.6e-05 -0.000229
-0.002111 -1.6e-05 -0.000205
-0.002114 -1.6e-05 -0.00018
-0.002117 -1.6e-05 -0.000156
-0.00212 -1.5e-05 -0.000131
-0.002123 -1.5e-05 -0.000107
-0.002125 -1.5e-05 -8.2e-05
-0.002127 -1.4e-05 -5.8e-05
-0.002129 -1.4e-05 -3.3e-05
-0.002132 -1.3e-05 -9e-06
-0.002135 -1.3e-05 1.6e-05
-0.002137 -1.3e-05 4e-05
-0.002139 -1.2e-05 6.5e-05
-0.002141 -1.1e-05 9e-05
-0.002143 -1.1e-05 0.000114
-0.002293 0.000706 -0.000986
-0.002312 0.000702 -0.000968
-0.002337 0.000694 -0.000952
-0.002374 0.00068 -0.000942
-0.002497 0.000627 -0.000943
-0.002546 0.000608 -0.000937
-0.002597 0.000587 -0.000933
-0.002643 0.000568 -0.000927
-0.002687 0.000551 -0.000919
-0.00273 0.000535 -0.000911
-0.002772 0.000518 -0.000903
-0.002812 0.000503 -0.000894
-0.002848 0.00049 -0.000883
-0.002865 0.000486 -0.000864
-0.002874 0.000486 -0.000841
-0.002882 0.000488 -0.000817
-0.002888 0.00049 -0.000793
-0.002895 0.000491 -0.000769
-0.001641 0.000668 -0.002425
-0.001826 0.000675 -0.001989
-0.002438 0.000562 -0.001733
-0.002467 0.000592 -0.001693
-0.001641 0.000695 -0.002425
-0.001059 0.000573 -0.002704
-0.002498 0.000466 -0.001644
-0.002512 0.000464 -0.001623
-0.002526 0.000463 -0.001602
-0.002537 0.000462 -0.00158
-0.002535 0.000468 -0.001552
-0.002521 0.00048 -0.001519
-0.002507 0.000493 -0.001486
-0.002491 0.000506 -0.001452
-0.002474 0.00052 -0.001417
-0.002449 0.000538 -0.001379
-0.002418 0.000559 -0.001338
-0.002351 0.000603 -0.001255
-0.002313 0.000628 -0.001211
-0.002277 0.000651 -0.001168
-0.002256 0.000667 -0.001132
-0.00225 0.000675 -0.001102
-0.002251 0.00068 -0.001075
-0.002257 0.000682 -0.001051
-0.002266 0.000682 -0.001029
-0.002278 0.000681 -0.001007
-0.002293 0.000679 -0.000986
-0.002312 0.000674 -0.000968
-0.002337 0.000667 -0.000952
-0.002376 0.000652 -0.000942
-0.002439 0.000625 -0.000944
-0.002497 0.000601 -0.000942
-0.002547 0.00058 -0.000937
-0.002597 0.00056 -0.000933
-0.002643 0.000541 -0.000926
-0.002687 0.000524 -0.000919
-0.002729 0.000508 -0.000911
-0.002773 0.000491 -0.000903
-0.002812 0.000476 -0.000894
-0.002848 0.000463 -0.000883
-0.002865 0.000459 -0.000864
-0.002874 0.00046 -0.00084
-0.002881 0.000461 -0.000816
-0.002887 0.000463 -0.000792
-0.002894 0.000465 -0.000768
-0.001806 0.000615 -0.001941
-0.001806 0.000697 -0.001941
-0.00231 0.000602 -0.001754
-0.002217 0.000666 -0.001739
-0.002525 0.000677 -0.001519
-0.002485 0.000441 -0.001665
-0.002499 0.000439 -0.001644
-0.002513 0.000437 -0.001623
-0.002526 0.000435 -0.001602
-0.002537 0.000435 -0.00158
-0.002536 0.000441 -0.001553
-0.002521 0.000453 -0.001519
-0.002506 0.000466 -0.001486
-0.002491 0.000479 -0.001452
-0.002475 0.000492 -0.001418
-0.002448 0.000511 -0.001379
-0.002418 0.000532 -0.001338
-0.002383 0.000554 -0.001296
-0.002351 0.000576 -0.001255
-0.002313 0.0006 -0.001211
-0.002278 0.000623 -0.001168
-0.002256 0.00064 -0.001132
-0.00225 0.000648 -0.001102
-0.002251 0.000653 -0.001075
-0.002256 0.000655 -0.001051
-0.002266 0.000655 -0.001029
-0.002279 0.000654 -0.001007
-0.002293 0.000652 -0.000986
-0.002312 0.000647 -0.000968
-0.002337 0.000639 -0.000952
-0.002375 0.000625 -0.000942
-0.002439 0.000597 -0.000944
-0.002495 0.000574 -0.000941
-0.002548 0.000552 -0.000938
-0.002596 0.000533 -0.000932
-0.002643 0.000514 -0.000926
-0.002687 0.000497 -0.000919
-0.002729 0.000481 -0.000911
-0.002772 0.000464 -0.000903
-0.002812 0.000448 -0.000894
-0.002848 0.000435 -0.000883
-0.002866 0.000432 -0.000864
-0.002874 0.000432 -0.00084
-0.002881 0.000434 -0.000817
-0.002888 0.000436 -0.000793
-0.002895 0.000437 -0.000769
-0.001866 0.000731 -0.001668
-0.00187 0.000619 -0.002123
-0.002118 0.00068 -0.00172
-0.002265 0.000647 -0.001748
-0.001856 0.000746 -0.00208
-0.002485 0.000413 -0.001665
-0.002499 0.000411 -0.001644
-0.002513 0.00041 -0.001623
-0.002527 0.000408 -0.001603
-0.002537 0.000407 -0.00158
-0.002536 0.000414 -0.001553
-0.002521 0.000426 -0.001519
-0.002507 0.000438 -0.001486
-0.002491 0.000452 -0.001452
-0.002474 0.000465 -0.001418
-0.002448 0.000484 -0.001379
-0.002417 0.000505 -0.001338
-0.002385 0.000526 -0.001297
-0.002352 0.000548 -0.001255
-0.002314 0.000573 -0.001211
-0.002256 0.000613 -0.001132
-0.00225 0.000621 -0.001102
-0.002251 0.000626 -0.001075
-0.002256 0.000628 -0.001051
-0.002266 0.000628 -0.001028
-0.002278 0.000627 -0.001007
-0.002293 0.000625 -0.000986
-0.002312 0.00062 -0.000968
-0.002337 0.000612 -0.000952
-0.002375 0.000598 -0.000942
-0.002441 0.00057 -0.000944
-0.002494 0.000547 -0.000941
-0.002547 0.000526 -0.000938
-0.002595 0.000506 -0.000932
-0.002643 0.000487 -0.000926
-0.002688 0.000469 -0.000919
-0.002729 0.000454 -0.00091
-0.002772 0.000437 -0.000903
-0.002812 0.000421 -0.000894
-0.002848 0.000408 -0.000883
-0.002866 0.000404 -0.000864
-0.002874 0.000405 -0.00084
-0.002881 0.000407 -0.000817
-0.002888 0.000408 -0.000793
-0.002895 0.00041 -0.000769
-0.00171 0.000645 -0.00244
-0.001878 0.000604 -0.002162
-0.002168 0.000659 -0.001731
-0.00231 0.000629 -0.001754
-0.002451 0.000646 -0.001712
-0.002485 0.000386 -0.001665
-0.002499 0.000384 -0.001644
-0.002513 0.000383 -0.001623
-0.002526 0.000381 -0.001602
-0.002538 0.00038 -0.00158
-0.002535 0.000387 -0.001552
-0.002522 0.000398 -0.00152
-0.002507 0.000411 -0.001486
-0.002491 0.000424 -0.001452
-0.002474 0.000438 -0.001417
-0.002448 0.000457 -0.001379
-0.002418 0.000477 -0.001338
-0.002385 0.000499 -0.001297
-0.002352 0.000521 -0.001255
-0.002313 0.000546 -0.001211
-0.002277 0.00057 -0.001168
-0.002255 0.000586 -0.001131
-0.002249 0.000594 -0.001102
-0.00225 0.000599 -0.001075
-0.002256 0.000601 -0.001051
-0.002266 0.000601 -0.001028
-0.002278 0.0006 -0.001007
-0.002292 0.000598 -0.000986
-0.002312 0.000593 -0.000968
-0.002337 0.000585 -0.000952
-0.002375 0.000571 -0.000942
-0.002438 0.000544 -0.000943
-0.002495 0.00052 -0.000942
-0.002547 0.000499 -0.000937
-0.002596 0.000479 -0.000932
-0.002643 0.00046 -0.000927
-0.002687 0.000442 -0.000919
-0.00273 0.000426 -0.000911
-0.002772 0.000409 -0.000903
-0.002811 0.000395 -0.000893
-0.002848 0.000381 -0.000883
-0.002866 0.000377 -0.000864
-0.002874 0.000378 -0.00084
-0.002881 0.00038 -0.000816
-0.002888 0.000381 -0.000792
-0.002894 0.000383 -0.000768
-0.001889 0.000542 -0.002267
-0.001855 0.000637 -0.002079
-0.002354 0.000584 -0.001759
-0.002453 0.00059 -0.001713
-0.001706 0.000675 -0.002434
-0.002485 0.000359 -0.001665
-0.002499 0.000357 -0.001644
-0.002513 0.000355 -0.001623
-0.002527 0.000353 -0.001602
-0.002537 0.000353 -0.00158
-0.002535 0.000359 -0.001552
-0.002522 0.000371 -0.001519
-0.002506 0.000385 -0.001485
-0.002491 0.000397 -0.001452
-0.002474 0.000411 -0.001417
-0.002449 0.000429 -0.001379
-0.002417 0.000451 -0.001338
-0.002385 0.000472 -0.001297
-0.00235 0.000495 -0.001254
-0.002312 0.000519 -0.001211
-0.002276 0.000543 -0.001168
-0.002255 0.000559 -0.001131
-0.002249 0.000567 -0.001101
-0.00225 0.000571 -0.001075
-0.002256 0.000574 -0.001051
-0.002266 0.000574 -0.001028
-0.002278 0.000573 -0.001006
-0.002292 0.00057 -0.000986
-0.002312 0.000566 -0.000968
-0.002337 0.000558 -0.000952
-0.002375 0.000544 -0.000942
-0.002496 0.000492 -0.000942
-0.002548 0.000471 -0.000938
-0.002596 0.000451 -0.000933
-0.002643 0.000433 -0.000926
-0.002686 0.000416 -0.000918
-0.00273 0.000399 -0.000911
-0.002772 0.000382 -0.000903
-0.002811 0.000368 -0.000893
-0.002848 0.000354 -0.000883
-0.002866 0.00035 -0.000864
-0.002874 0.000351 -0.00084
-0.002881 0.000353 -0.000816
-0.002888 0.000354 -0.000792
-0.002894 0.000356 -0.000768
-0.002168 0.000632 -0.00173
-0.00177 0.000738 -0.001845
-0.002421 0.000563 -0.001751
-0.002508 0.000595 -0.001631
-0.002083 0.000726 -0.001787
-0.001883 0.000717 -0.002232
-0.002499 0.00033 -0.001644
-0.002513 0.000328 -0.001623
-0.002526 0.000326 -0.001602
-0.002537 0.000326 -0.00158
-0.002535 0.000332 -0.001552
-0.002522 0.000344 -0.001519
-0.002506 0.000357 -0.001486
-0.002491 0.00037 -0.001452
-0.002473 0.000384 -0.001417
-0.00245 0.000401 -0.00138
-0.002416 0.000424 -0.001338
-0.002384 0.000445 -0.001296
-0.002349 0.000468 -0.001254
-0.002275 0.000516 -0.001167
-0.002255 0.000531 -0.001131
-0.002248 0.00054 -0.001101
-0.00225 0.000544 -0.001075
-0.002256 0.000546 -0.001051
-0.002266 0.000546 -0.001028
-0.002278 0.000546 -0.001006
-0.002292 0.000543 -0.000986
-0.002311 0.000539 -0.000968
-0.002336 0.000531 -0.000952
-0.002376 0.000516 -0.000942
-0.002498 0.000464 -0.000943
-0.002548 0.000444 -0.000938
-0.002597 0.000424 -0.000933
-0.002643 0.000405 -0.000926
-0.002686 0.000389 -0.000919
-0.00273 0.000371 -0.000911
-0.002771 0.000356 -0.000902
-0.002811 0.00034 -0.000893
-0.002848 0.000327 -0.000883
-0.002866 0.000323 -0.000864
-0.002874 0.000324 -0.00084
-0.002881 0.000326 -0.000816
-0.002887 0.000327 -0.000792
-0.002894 0.000329 -0.000768
-0.001869 0.000565 -0.002123
-0.001788 0.000718 -0.001892
-0.002452 0.000564 -0.001713
-0.001682 0.000515 -0.002442
-0.002394 0.000624 -0.00176
-0.002447 0.000676 -0.001708
-0.002499 0.000303 -0.001644
-0.002513 0.000301 -0.001623
-0.002527 0.000299 -0.001602
-0.002537 0.000299 -0.00158
-0.002535 0.000305 -0.001552
-0.002521 0.000317 -0.001519
-0.002506 0.00033 -0.001486
-0.002491 0.000343 -0.001452
-0.002474 0.000357 -0.001417
-0.002448 0.000375 -0.001379
-0.002416 0.000397 -0.001338
-0.002385 0.000417 -0.001297
-0.00235 0.000441 -0.001254
-0.002313 0.000464 -0.001211
-0.002274 0.000489 -0.001167
-0.002255 0.000504 -0.001131
-0.002248 0.000513 -0.001101
-0.002249 0.000517 -0.001075
-0.002256 0.000519 -0.001051
-0.002266 0.000519 -0.001028
-0.002277 0.000519 -0.001006
-0.002292 0.000516 -0.000986
-0.002312 0.000511 -0.000968
-0.002337 0.000504 -0.000952
-0.002375 0.000489 -0.000942
-0.00244 0.000461 -0.000944
-0.002497 0.000437 -0.000942
-0.002548 0.000416 -0.000938
-0.002596 0.000397 -0.000932
-0.002643 0.000378 -0.000926
-0.002687 0.000361 -0.000919
-0.002731 0.000344 -0.000911
-0.002772 0.000328 -0.000903
-0.002812 0.000313 -0.000894
-0.002848 0.0003 -0.000883
-0.002866 0.000296 -0.000864
-0.002874 0.000296 -0.00084
-0.002882 0.000298 -0.000817
-0.002888 0.0003 -0.000793
-0.002895 0.000301 -0.000769
-0.001866 0.000676 -0.001668
-0.001869 0.000756 -0.001671
-0.002481 0.000566 -0.001672
-0.00189 0.000596 -0.002267
-0.002524 0.00065 -0.001518
-0.001886 0.000689 -0.002233
-0.0025 0.000275 -0.001644
-0.002514 0.000273 -0.001624
-0.002527 0.000272 -0.001603
-0.002537 0.000272 -0.00158
-0.002535 0.000278 -0.001552
-0.002521 0.00029 -0.001519
-0.002507 0.000303 -0.001486
-0.002491 0.000316 -0.001452
-0.002475 0.000329 -0.001418
-0.002448 0.000348 -0.001379
-0.002418 0.000369 -0.001338
-0.002384 0.000391 -0.001297
-0.00235 0.000413 -0.001254
-0.002313 0.000437 -0.001211
-0.002274 0.000462 -0.001167
-0.002255 0.000477 -0.001131
-0.002248 0.000486 -0.001101
-0.002249 0.00049 -0.001075
-0.002256 0.000492 -0.001051
-0.002266 0.000492 -0.001028
-0.002277 0.000491 -0.001006
-0.002292 0.000489 -0.000986
-0.002311 0.000484 -0.000967
-0.002337 0.000476 -0.000952
-0.002375 0.000462 -0.000942
-0.00244 0.000434 -0.000944
-0.002497 0.00041 -0.000942
-0.002551 0.000388 -0.000939
-0.002596 0.00037 -0.000932
-0.002644 0.000351 -0.000927
-0.002687 0.000334 -0.000919
-0.00273 0.000317 -0.000911
-0.002772 0.000301 -0.000903
-0.002812 0.000286 -0.000893
-0.002847 0.000273 -0.000882
-0.002866 0.000268 -0.000863
-0.002874 0.000269 -0.00084
-0.002882 0.000271 -0.000817
-0.002888 0.000272 -0.000793
-0.002895 0.000274 -0.000769
-0.001886 0.000526 -0.002233
-0.002118 0.000653 -0.00172
-0.001075 0.000665 -0.002596
-0.001884 0.000653 -0.002302
-0.002536 0.000633 -0.00156
-0.001883 0.000671 -0.002296
-0.002501 0.000247 -0.001645
-0.002514 0.000246 -0.001624
-0.002527 0.000244 -0.001603
-0.002537 0.000245 -0.00158
-0.002534 0.000251 -0.001552
-0.002521 0.000263 -0.001519
-0.002506 0.000276 -0.001485
-0.002491 0.000288 -0.001452
-0.002475 0.000302 -0.001418
-0.002447 0.000321 -0.001378
-0.002418 0.000341 -0.001339
-0.002385 0.000363 -0.001297
-0.00235 0.000386 -0.001254
-0.002313 0.00041 -0.001211
-0.002275 0.000435 -0.001167
-0.002255 0.00045 -0.001131
-0.002248 0.000458 -0.001101
-0.00225 0.000463 -0.001075
-0.002256 0.000465 -0.001051
-0.002266 0.000465 -0.001028
-0.002277 0.000464 -0.001006
-0.002292 0.000462 -0.000986
-0.002312 0.000457 -0.000968
-0.002337 0.000449 -0.000952
-0.002374 0.000436 -0.000941
-0.002439 0.000407 -0.000943
-0.002498 0.000383 -0.000943
-0.002548 0.000362 -0.000938
-0.002597 0.000342 -0.000933
-0.002644 0.000324 -0.000927
-0.002688 0.000306 -0.000919
-0.002731 0.000289 -0.000911
-0.002771 0.000274 -0.000902
-0.002811 0.000259 -0.000893
-0.002847 0.000246 -0.000882
-0.002865 0.000241 -0.000863
-0.002874 0.000242 -0.00084
-0.002882 0.000243 -0.000817
-0.002889 0.000245 -0.000793
-0.002895 0.000247 -0.000769
-0.001795 0.000615 -0.00239
-0.001897 0.000748 -0.001662
-0.002494 0.000567 -0.001652
-0.001061 0.000655 -0.002704
-0.002467 0.000619 -0.001693
-0.001834 0.000645 -0.002359
-0.0025 0.000221 -0.001644
-0.002514 0.000219 -0.001624
-0.002527 0.000217 -0.001603
-0.002537 0.000218 -0.00158
-0.002534 0.000224 -0.001552
-0.002521 0.000236 -0.001519
-0.002507 0.000248 -0.001486
-0.002492 0.000261 -0.001452
-0.002475 0.000275 -0.001418
-0.002448 0.000294 -0.001379
-0.002418 0.000314 -0.001339
-0.002385 0.000336 -0.001297
-0.002349 0.000359 -0.001254
-0.002314 0.000382 -0.001211
-0.002276 0.000407 -0.001167
-0.002254 0.000423 -0.001131
-0.002249 0.000431 -0.001101
-0.00225 0.000436 -0.001075
-0.002256 0.000438 -0.001051
-0.002265 0.000438 -0.001028
-0.002277 0.000437 -0.001006
-0.002292 0.000435 -0.000986
-0.002311 0.00043 -0.000967
-0.002337 0.000422 -0.000952
-0.002372 0.000409 -0.000941
-0.002438 0.000381 -0.000943
-0.002497 0.000356 -0.000942
-0.002549 0.000334 -0.000938
-0.002598 0.000315 -0.000933
-0.002644 0.000296 -0.000927
-0.002688 0.000279 -0.000919
-0.002731 0.000262 -0.000911
-0.002772 0.000246 -0.000903
-0.002811 0.000232 -0.000893
-0.002847 0.000218 -0.000882
-0.002865 0.000214 -0.000863
-0.002874 0.000215 -0.00084
-0.002882 0.000216 -0.000817
-0.002889 0.000218 -0.000793
-0.002895 0.00022 -0.000769
-0.001507 0.000675 -0.002357
-0.001764 0.000752 -0.001808
-0.001713 0.000561 -0.002445
-0.001678 0.000682 -0.002436
-0.001682 0.000624 -0.002442
-0.001882 0.000701 -0.002198
-0.0025 0.000194 -0.001644
-0.002514 0.000192 -0.001623
-0.002526 0.000191 -0.001602
-0.002536 0.000191 -0.00158
-0.002535 0.000197 -0.001552
-0.002521 0.000209 -0.001519
-0.002507 0.000221 -0.001486
-0.002492 0.000234 -0.001452
-0.002475 0.000247 -0.001418
-0.002448 0.000267 -0.001379
-0.002418 0.000287 -0.001338
-0.002384 0.000309 -0.001296
-0.00235 0.000332 -0.001254
-0.002313 0.000356 -0.001211
-0.002276 0.00038 -0.001167
-0.002254 0.000396 -0.00113
-0.002249 0.000404 -0.001101
-0.00225 0.000408 -0.001075
-0.002256 0.000411 -0.001051
-0.002265 0.000411 -0.001028
-0.002277 0.00041 -0.001006
-0.002292 0.000407 -0.000986
-0.002312 0.000403 -0.000967
-0.002337 0.000395 -0.000952
-0.002441 0.000352 -0.000944
-0.002497 0.000328 -0.000942
-0.00255 0.000307 -0.000939
-0.002598 0.000288 -0.000933
-0.002644 0.000269 -0.000927
-0.002689 0.000251 -0.00092
-0.002731 0.000235 -0.000911
-0.002771 0.00022 -0.000902
-0.002811 0.000205 -0.000893
-0.002846 0.000192 -0.000882
-0.002864 0.000188 -0.000863
-0.002874 0.000188 -0.00084
-0.002882 0.000189 -0.000817
-0.002889 0.000191 -0.000793
-0.002895 0.000192 -0.000769
-0.002902 0.000194 -0.000745
-0.001459 0.000699 -0.002327
-0.001554 0.000572 -0.002382
-0.002508 0.000568 -0.001631
-0.001889 0.000586 -0.002301
-0.001858 0.000713 -0.002306
-0.001888 0.000678 -0.002268
-0.002499 0.000167 -0.001644
-0.002513 0.000165 -0.001623
-0.002525 0.000164 -0.001602
-0.002534 0.000164 -0.001579
-0.002534 0.00017 -0.001552
-0.002521 0.000182 -0.001519
-0.002507 0.000194 -0.001486
-0.002492 0.000207 -0.001452
-0.002474 0.000221 -0.001417
-0.002448 0.000239 -0.001379
-0.002418 0.00026 -0.001338
-0.002384 0.000282 -0.001296
-0.00235 0.000305 -0.001254
-0.002314 0.000328 -0.001211
-0.002276 0.000353 -0.001167
-0.002254 0.000369 -0.001131
-0.002249 0.000377 -0.001101
-0.00225 0.000381 -0.001075
-0.002256 0.000383 -0.001051
-0.002265 0.000384 -0.001028
-0.002277 0.000383 -0.001006
-0.002292 0.00038 -0.000986
-0.002311 0.000376 -0.000967
-0.002337 0.000368 -0.000952
-0.002374 0.000354 -0.000941
-0.002439 0.000326 -0.000943
-0.002497 0.000301 -0.000942
-0.00255 0.00028 -0.000939
-0.002598 0.00026 -0.000933
-0.002643 0.000242 -0.000926
-0.002689 0.000224 -0.00092
-0.002731 0.000208 -0.000911
-0.002772 0.000192 -0.000903
-0.002811 0.000178 -0.000893
-0.002846 0.000165 -0.000881
-0.002862 0.000161 -0.000862
-0.002873 0.000161 -0.000839
-0.002881 0.000162 -0.000816
-0.002888 0.000164 -0.000792
-0.002895 0.000166 -0.000768
-0.002901 0.000167 -0.000744
-0.001073 0.000596 -0.002636
-0.001882 0.000592 -0.002198
-0.002395 0.000569 -0.001761
-0.002533 0.0006 -0.001588
-0.002419 0.000619 -0.00175
-0.00249 0.000678 -0.001648
-0.002499 0.00014 -0.001644
-0.002511 0.000139 -0.001622
-0.002523 0.000138 -0.001601
-0.002532 0.000139 -0.001578
-0.002533 0.000143 -0.001551
-0.002521 0.000154 -0.001519
-0.002507 0.000167 -0.001486
-0.002492 0.000179 -0.001452
-0.002475 0.000193 -0.001417
-0.002448 0.000212 -0.001378
-0.002418 0.000233 -0.001338
-0.002384 0.000255 -0.001296
-0.002349 0.000278 -0.001254
-0.002313 0.000301 -0.001211
-0.002277 0.000325 -0.001168
-0.002254 0.000342 -0.001131
-0.002249 0.00035 -0.001101
-0.00225 0.000354 -0.001075
-0.002256 0.000356 -0.00105
-0.002265 0.000356 -0.001028
-0.002277 0.000356 -0.001006
-0.002292 0.000353 -0.000986
-0.002312 0.000348 -0.000967
-0.002337 0.00034 -0.000952
-0.002375 0.000326 -0.000942
-0.002439 0.000299 -0.000943
-0.002498 0.000274 -0.000943
-0.00255 0.000253 -0.000939
-0.002599 0.000233 -0.000933
-0.002643 0.000215 -0.000926
-0.002689 0.000197 -0.00092
-0.002731 0.000181 -0.000911
-0.002771 0.000165 -0.000902
-0.002811 0.00015 -0.000893
-0.002844 0.000138 -0.000881
-0.00286 0.000136 -0.000861
-0.00287 0.000136 -0.000838
-0.002879 0.000136 -0.000815
-0.002887 0.000137 -0.000792
-0.002894 0.000139 -0.000768
-0.002452 0.000509 -0.001713
-0.001889 0.000559 -0.002301
-0.001807 0.000723 -0.001941
-0.002421 0.00059 -0.001751
-0.00187 0.0007 -0.002124
-0.002353 0.000694 -0.001758
-0.002496 0.000114 -0.001642
-0.002508 0.000113 -0.001621
-0.002519 0.000113 -0.001599
-0.002528 0.000113 -0.001576
-0.002531 0.000117 -0.00155
-0.002521 0.000127 -0.001519
-0.002507 0.000139 -0.001486
-0.002492 0.000152 -0.001452
-0.002475 0.000166 -0.001418
-0.002447 0.000186 -0.001378
-0.002418 0.000206 -0.001338
-0.002384 0.000228 -0.001296
-0.002349 0.000251 -0.001254
-0.002312 0.000275 -0.00121
-0.002276 0.000298 -0.001167
-0.002254 0.000315 -0.001131
-0.002248 0.000323 -0.001101
-0.00225 0.000327 -0.001075
-0.002256 0.000329 -0.00105
-0.002266 0.000329 -0.001028
-0.002277 0.000328 -0.001006
-0.002292 0.000326 -0.000986
-0.002312 0.000321 -0.000967
-0.002338 0.000313 -0.000952
-0.002375 0.000299 -0.000942
-0.002438 0.000272 -0.000943
-0.002498 0.000247 -0.000943
-0.002549 0.000226 -0.000938
-0.002597 0.000206 -0.000933
-0.002644 0.000187 -0.000927
-0.002688 0.00017 -0.000919
-0.002731 0.000153 -0.000911
-0.002772 0.000138 -0.000903
-0.00281 0.000123 -0.000893
-0.002841 0.000113 -0.000879
-0.002855 0.000111 -0.000859
-0.002866 0.00011 -0.000836
-0.002876 0.000111 -0.000814
-0.002883 0.000112 -0.00079
-0.002421 0.000536 -0.001751
-0.001075 0.00071 -0.002551
-0.001882 0.00062 -0.002197
-0.001878 0.000658 -0.002163
-0.002265 0.000701 -0.001748
-0.001067 0.000611 -0.002671
-0.00231 0.00071 -0.001754
-0.002502 8.9e-05 -0.001618
-0.002512 8.9e-05 -0.001596
-0.002522 8.9e-05 -0.001573
-0.002527 9.2e-05 -0.001548
-0.00252 0.000101 -0.001518
-0.002507 0.000112 -0.001485
-0.002491 0.000125 -0.001452
-0.002475 0.000139 -0.001418
-0.002447 0.000158 -0.001378
-0.002418 0.000178 -0.001338
-0.002383 0.000201 -0.001296
-0.00235 0.000223 -0.001254
-0.002312 0.000247 -0.00121
-0.002276 0.000271 -0.001167
-0.002254 0.000287 -0.001131
-0.002248 0.000295 -0.001101
-0.00225 0.0003 -0.001075
-0.002256 0.000302 -0.00105
-0.002265 0.000302 -0.001028
-0.002277 0.000301 -0.001006
-0.002292 0.000299 -0.000986
-0.002311 0.000294 -0.000967
-0.002337 0.000286 -0.000952
-0.002374 0.000272 -0.000941
-0.002498 0.000219 -0.000943
-0.002547 0.000199 -0.000937
-0.002599 0.000178 -0.000933
-0.002644 0.000161 -0.000926
-0.002689 0.000143 -0.000919
-0.002731 0.000126 -0.000911
-0.002771 0.000111 -0.000902
-0.002809 9.7e-05 -0.000892
-0.002835 8.9e-05 -0.000877
-0.002848 8.7e-05 -0.000856
-0.002859 8.7e-05 -0.000834
-0.002869 8.7e-05 -0.000811
-0.002266 0.000537 -0.001748
-0.001507 0.000703 -0.002355
-0.002538 0.000605 -0.001562
-0.002119 0.000733 -0.001721
-0.001887 0.000642 -0.002299
-0.002218 0.00072 -0.00174
-0.002476 0.000677 -0.001669
-0.002462 0.000676 -0.001689
-0.002503 6.7e-05 -0.001592
-0.002513 6.7e-05 -0.001569
-0.00252 6.8e-05 -0.001545
-0.002518 7.4e-05 -0.001517
-0.002507 8.5e-05 -0.001485
-0.002492 9.8e-05 -0.001452
-0.002476 0.000111 -0.001418
-0.002447 0.000131 -0.001378
-0.002418 0.000151 -0.001338
-0.002383 0.000174 -0.001296
-0.002349 0.000197 -0.001254
-0.002312 0.00022 -0.00121
-0.002275 0.000245 -0.001167
-0.002255 0.00026 -0.001131
-0.002249 0.000268 -0.001101
-0.00225 0.000273 -0.001075
-0.002256 0.000275 -0.00105
-0.002265 0.000275 -0.001028
-0.002277 0.000274 -0.001006
-0.002292 0.000271 -0.000986
-0.002311 0.000267 -0.000967
-0.002338 0.000259 -0.000952
-0.002375 0.000245 -0.000942
-0.002498 0.000192 -0.000943
-0.002547 0.000172 -0.000937
-0.002599 0.000151 -0.000933
-0.002644 0.000133 -0.000926
-0.002689 0.000116 -0.000919
-0.002731 9.9e-05 -0.000911
-0.00277 8.4e-05 -0.000902
-0.002806 7.1e-05 -0.000891
-0.002826 6.6e-05 -0.000873
-0.002839 6.5e-05 -0.000851
-0.00285 6.4e-05 -0.000829
-0.002859 6.5e-05 -0.000806
-0.001825 0.000648 -0.001989
-0.002538 0.000577 -0.001563
-0.002394 0.000597 -0.00176
-0.002169 0.000713 -0.001731
-0.001825 0.00073 -0.001989
-0.002437 0.000617 -0.001732
-0.001843 0.000736 -0.002036
-0.002466 0.000646 -0.001692
-0.00231 0.000683 -0.001754
-0.002501 4.6e-05 -0.001564
-0.002509 4.7e-05 -0.00154
-0.002512 5e-05 -0.001515
-0.002506 5.9e-05 -0.001485
-0.002492 7.1e-05 -0.001452
-0.002475 8.5e-05 -0.001417
-0.002446 0.000105 -0.001377
-0.002419 0.000124 -0.001338
-0.002383 0.000147 -0.001296
-0.002348 0.00017 -0.001253
-0.002312 0.000193 -0.00121
-0.002275 0.000217 -0.001167
-0.002255 0.000233 -0.001131
-0.002249 0.000241 -0.001101
-0.00225 0.000245 -0.001075
-0.002256 0.000248 -0.00105
-0.002266 0.000248 -0.001028
-0.002277 0.000247 -0.001006
-0.002293 0.000244 -0.000986
-0.002312 0.000239 -0.000967
-0.002337 0.000232 -0.000952
-0.002373 0.000219 -0.000941
-0.002499 0.000165 -0.000943
-0.002546 0.000146 -0.000937
-0.002598 0.000124 -0.000933
-0.002643 0.000107 -0.000926
-0.002689 8.8e-05 -0.000919
-0.00273 7.3e-05 -0.000911
-0.002769 5.8e-05 -0.000901
-0.002797 4.9e-05 -0.000887
-0.002814 4.5e-05 -0.000867
-0.002826 4.4e-05 -0.000846
-0.002837 4.3e-05 -0.000823
-0.002869 4.8e-05 -0.00073
-0.002875 5e-05 -0.000706
-0.00288 5.3e-05 -0.000681
-0.002882 5.7e-05 -0.000655
-0.001761 0.000672 -0.001805
-0.002265 0.000592 -0.001748
-0.002064 0.000703 -0.001707
-0.002508 0.000623 -0.001631
-0.002494 0.000621 -0.001652
-0.001841 0.000683 -0.002035
-0.002524 0.000623 -0.001519
-0.002354 0.000611 -0.001759
-0.002531 0.000628 -0.001586
-0.002481 0.00062 -0.001672
-0.002485 2.7e-05 -0.001557
-0.002494 2.7e-05 -0.001534
-0.002499 3e-05 -0.001509
-0.002499 3.5e-05 -0.001482
