-0.00274 0.000437 0.001249
-0.002654 0.000611 0.000879
-0.002282 0.000295 0.001805
-0.002303 0.000272 0.001857
-0.002318 0.000253 0.001902
-0.002313 0.000246 0.00193
-0.002298 0.000245 0.001951
-0.002282 0.000245 0.001969
-0.002266 0.000244 0.001988
-0.00225 0.000245 0.002007
-0.002234 0.000245 0.002025
-0.002217 0.000245 0.002043
-0.0022 0.000245 0.002061
-0.002182 0.000247 0.002078
-0.002154 0.000254 0.002086
-0.002111 0.000271 0.002081
-0.002064 0.00029 0.002071
-0.001557 0.000504 0.001957
-0.00154 0.000504 0.001975
-0.001526 0.000503 0.001994
-0.001514 0.0005 0.002017
-0.001507 0.000494 0.002044
-0.001506 0.000485 0.002076
-0.001519 0.000466 0.00212
-0.001533 0.000448 0.002165
-0.002475 0.000358 0.001287
-0.002439 0.000371 0.001288
-0.002397 0.000386 0.001284
-0.002354 0.000403 0.001279
-0.002311 0.00042 0.001275
-0.002267 0.000437 0.001268
-0.002224 0.000454 0.001264
-0.002191 0.000464 0.001268
-0.002165 0.00047 0.001278
-0.002145 0.000473 0.001293
-0.002128 0.000473 0.001311
-0.002114 0.000472 0.001331
-0.002101 0.000469 0.001353
-0.002761 0.000627 0.001204
-0.002812 0.000551 0.001064
-0.002091 0.000724 0.001463
-0.002808 0.000494 0.00109
-0.002603 0.00054 0.001294
-0.002282 0.000268 0.001806
-0.002303 0.000245 0.001857
-0.002317 0.000226 0.001902
-0.002312 0.000219 0.00193
-0.002297 0.000218 0.00195
-0.002281 0.000218 0.001968
-0.002265 0.000218 0.001987
-0.002249 0.000218 0.002006
-0.002233 0.000218 0.002024
-0.002216 0.000218 0.002043
-0.0022 0.000219 0.002061
-0.002181 0.00022 0.002077
-0.002153 0.000227 0.002086
-0.002111 0.000243 0.002081
-0.002065 0.000262 0.002071
-0.001557 0.000476 0.001957
-0.00154 0.000477 0.001974
-0.001525 0.000476 0.001994
-0.001514 0.000473 0.002017
-0.001507 0.000467 0.002044
-0.001506 0.000457 0.002076
-0.001519 0.000439 0.00212
-0.001534 0.00042 0.002165
-0.002476 0.00033 0.001288
-0.00244 0.000343 0.001289
-0.002397 0.000359 0.001284
-0.002354 0.000376 0.001279
-0.002311 0.000393 0.001274
-0.002267 0.00041 0.001268
-0.002224 0.000427 0.001263
-0.002191 0.000437 0.001268
-0.002165 0.000443 0.001278
-0.002145 0.000445 0.001293
-0.002128 0.000446 0.001311
-0.002114 0.000444 0.001331
-0.002101 0.000442 0.001353
-0.002806 0.000603 0.001089
-0.00274 0.000546 0.001248
-0.002907 0.00056 -0.00076
-0.002817 0.000569 0.000405
-0.002799 0.000493 0.001113
-0.002812 0.000497 0.001065
-0.002263 0.000262 0.001756
-0.002282 0.000241 0.001805
-0.002303 0.000217 0.001857
-0.002317 0.000199 0.001902
-0.002311 0.000192 0.001929
-0.002297 0.000191 0.00195
-0.002282 0.000191 0.001969
-0.002266 0.00019 0.001988
-0.00225 0.00019 0.002006
-0.002233 0.00019 0.002025
-0.002217 0.000191 0.002043
-0.002199 0.000191 0.002061
-0.00218 0.000193 0.002077
-0.002153 0.0002 0.002086
-0.00211 0.000217 0.002081
-0.002064 0.000235 0.002071
-0.001557 0.000449 0.001957
-0.00154 0.00045 0.001975
-0.001526 0.000449 0.001994
-0.001514 0.000446 0.002017
-0.001507 0.00044 0.002044
-0.001507 0.00043 0.002076
-0.001519 0.000412 0.00212
-0.001533 0.000393 0.002165
-0.002475 0.000304 0.001287
-0.002439 0.000316 0.001289
-0.002396 0.000333 0.001283
-0.002354 0.000349 0.001279
-0.002311 0.000366 0.001274
-0.002267 0.000383 0.001268
-0.002223 0.0004 0.001263
-0.002191 0.00041 0.001268
-0.002165 0.000416 0.001278
-0.002145 0.000418 0.001293
-0.002128 0.000418 0.001311
-0.002114 0.000417 0.001331
-0.002739 0.000688 0.00122
-0.002789 0.000574 0.001135
-0.002603 0.000595 0.001293
-0.002789 0.00052 0.001136
-0.002469 0.000725 0.000498
-0.002263 0.000235 0.001756
-0.002282 0.000213 0.001805
-0.002304 0.00019 0.001857
-0.002317 0.000172 0.001902
-0.00231 0.000166 0.001928
-0.002296 0.000164 0.001949
-0.002282 0.000163 0.001969
-0.002266 0.000163 0.001988
-0.002249 0.000163 0.002006
-0.002233 0.000164 0.002024
-0.002216 0.000164 0.002042
-0.002199 0.000165 0.00206
-0.002179 0.000167 0.002075
-0.002153 0.000173 0.002085
-0.00211 0.000189 0.002081
-0.002063 0.000208 0.00207
-0.001557 0.000422 0.001957
-0.00154 0.000422 0.001975
-0.001526 0.000421 0.001995
-0.001514 0.000418 0.002017
-0.001508 0.000412 0.002044
-0.001507 0.000403 0.002077
-0.00152 0.000385 0.002121
-0.001533 0.000366 0.002165
-0.002476 0.000276 0.001292
-0.002439 0.000289 0.001288
-0.002397 0.000305 0.001284
-0.002354 0.000322 0.001279
-0.002311 0.000338 0.001274
-0.002266 0.000356 0.001268
-0.002223 0.000373 0.001263
-0.002191 0.000383 0.001268
-0.002166 0.000388 0.001279
-0.002145 0.000391 0.001293
-0.002128 0.000391 0.001311
-0.002114 0.00039 0.001331
-0.002733 0.000658 0.001245
-0.002811 0.000579 0.001064
-0.002557 0.000613 0.001299
-0.002761 0.000437 0.001204
-0.00244 0.000729 0.000539
-0.002732 0.00057 0.000965
-0.002235 0.000232 0.001707
-0.002263 0.000208 0.001756
-0.002281 0.000187 0.001805
-0.002303 0.000163 0.001857
-0.002315 0.000146 0.0019
-0.002307 0.00014 0.001926
-0.002295 0.000138 0.001947
-0.00228 0.000137 0.001968
-0.002265 0.000137 0.001987
-0.002249 0.000137 0.002005
-0.002232 0.000137 0.002024
-0.002215 0.000138 0.002041
-0.002197 0.000139 0.002058
-0.002177 0.000141 0.002074
-0.002152 0.000147 0.002084
-0.00211 0.000162 0.002081
-0.002064 0.000181 0.002071
-0.001557 0.000395 0.001957
-0.00154 0.000395 0.001975
-0.001526 0.000394 0.001995
-0.001514 0.000391 0.002017
-0.001507 0.000385 0.002044
-0.001507 0.000375 0.002077
-0.00152 0.000357 0.002121
-0.001533 0.000339 0.002165
-0.002476 0.000249 0.001288
-0.002439 0.000262 0.001288
-0.002396 0.000279 0.001283
-0.002354 0.000295 0.001279
-0.00231 0.000312 0.001274
-0.002267 0.000329 0.001268
-0.002223 0.000345 0.001263
-0.002191 0.000355 0.001268
-0.002166 0.000361 0.001279
-0.002145 0.000364 0.001293
-0.002128 0.000364 0.001311
-0.002114 0.000363 0.001331
-0.002688 0.000671 0.001278
-0.003 0.000551 0.000234
-0.00213 0.000753 0.001508
-0.002461 0.000752 0.000521
-0.002556 0.000587 0.001299
-0.002934 0.000437 0.000348
-0.002237 0.000205 0.001704
-0.002263 0.00018 0.001757
-0.002282 0.000159 0.001805
-0.002302 0.000136 0.001856
-0.002312 0.00012 0.001898
-0.002304 0.000115 0.001923
-0.002291 0.000113 0.001944
-0.002277 0.000112 0.001965
-0.002262 0.000111 0.001984
-0.002246 0.000111 0.002003
-0.002229 0.000112 0.002021
-0.002212 0.000112 0.002038
-0.002193 0.000114 0.002055
-0.002174 0.000116 0.002071
-0.002149 0.000121 0.002082
-0.002111 0.000135 0.002081
-0.002065 0.000154 0.002071
-0.001557 0.000367 0.001957
-0.00154 0.000368 0.001975
-0.001525 0.000367 0.001994
-0.001514 0.000364 0.002017
-0.001507 0.000358 0.002044
-0.001507 0.000348 0.002077
-0.001519 0.000331 0.00212
-0.001534 0.000312 0.002166
-0.002477 0.000221 0.001289
-0.002439 0.000235 0.001288
-0.002396 0.000251 0.001283
-0.002354 0.000268 0.001279
-0.00231 0.000284 0.001274
-0.002266 0.000302 0.001268
-0.002224 0.000318 0.001264
-0.002191 0.000328 0.001268
-0.002166 0.000334 0.001278
-0.002145 0.000337 0.001293
-0.002128 0.000337 0.001311
-0.002114 0.000336 0.001331
-0.002715 0.000662 0.001264
-0.002807 0.000576 0.001089
-0.002169 0.000722 0.001581
-0.002089 0.000671 0.001463
-0.002603 0.000568 0.001293
-0.002723 0.000522 0.001268
-0.00269 0.000534 0.001279
-0.002303 0.000109 0.001856
-0.002308 9.5e-05 0.001894
-0.002299 9.1e-05 0.001918
-0.002286 8.9e-05 0.00194
-0.002271 8.8e-05 0.00196
-0.002256 8.8e-05 0.001979
-0.002241 8.7e-05 0.001999
-0.002224 8.8e-05 0.002017
-0.002206 8.9e-05 0.002034
-0.002188 9e-05 0.00205
-0.002168 9.2e-05 0.002066
-0.002145 9.6e-05 0.002079
-0.00211 0.000108 0.002081
-0.001557 0.00034 0.001957
-0.00154 0.000341 0.001975
-0.001526 0.00034 0.001995
-0.001514 0.000337 0.002018
-0.001507 0.000331 0.002044
-0.001507 0.000321 0.002077
-0.00152 0.000303 0.002121
-0.001533 0.000285 0.002165
-0.002476 0.000195 0.001288
-0.002439 0.000207 0.001289
-0.002396 0.000224 0.001283
-0.002353 0.000241 0.001279
-0.002311 0.000257 0.001274
-0.002266 0.000275 0.001268
-0.002224 0.000291 0.001264
-0.002191 0.000301 0.001268
-0.002166 0.000307 0.001279
-0.002145 0.000309 0.001293
-0.002128 0.00031 0.001311
-0.002114 0.000308 0.001331
-0.002746 0.000657 0.001224
-0.002799 0.000575 0.001113
-0.002646 0.000578 0.001286
-0.002448 0.000752 0.000543
-0.002426 0.000699 0.000587
-0.00269 0.000507 0.001279
-0.002647 0.000551 0.001287
-0.002302 8.2e-05 0.001856
-0.002302 7.2e-05 0.001888
-0.002291 6.9e-05 0.001912
-0.002278 6.7e-05 0.001933
-0.002264 6.6e-05 0.001953
-0.002248 6.5e-05 0.001973
-0.002233 6.5e-05 0.001992
-0.002216 6.5e-05 0.00201
-0.002198 6.6e-05 0.002027
-0.00218 6.8e-05 0.002043
-0.002161 7e-05 0.002059
-0.002139 7.3e-05 0.002073
-0.002108 8.2e-05 0.002079
-0.001557 0.000313 0.001957
-0.00154 0.000314 0.001975
-0.001526 0.000313 0.001995
-0.001514 0.00031 0.002017
-0.001508 0.000304 0.002044
-0.001507 0.000294 0.002076
-0.001519 0.000276 0.00212
-0.001534 0.000257 0.002166
-0.002476 0.000167 0.001288
-0.002439 0.000181 0.001288
-0.002396 0.000197 0.001283
-0.002353 0.000213 0.001279
-0.00231 0.00023 0.001274
-0.002266 0.000248 0.001268
-0.002223 0.000264 0.001263
-0.002191 0.000274 0.001268
-0.002166 0.000279 0.001279
-0.002146 0.000282 0.001294
-0.002128 0.000283 0.001311
-0.002114 0.000281 0.001331
-0.002758 0.000656 0.001202
-0.002794 0.000593 0.001029
-0.00215 0.000738 0.001545
-0.002812 0.000524 0.001065
-0.002423 0.000695 0.000613
-0.002431 0.000701 0.000562
-0.002761 0.000464 0.001204
-0.002264 9.8e-05 0.001758
-0.002282 7.7e-05 0.001806
-0.002297 5.8e-05 0.001851
-0.002293 5.1e-05 0.00188
-0.002281 4.8e-05 0.001903
-0.002268 4.6e-05 0.001924
-0.002253 4.5e-05 0.001944
-0.002238 4.5e-05 0.001963
-0.002222 4.4e-05 0.001982
-0.002205 4.5e-05 0.002
-0.002188 4.6e-05 0.002018
-0.00217 4.7e-05 0.002035
-0.002151 4.8e-05 0.002051
-0.00213 5.1e-05 0.002065
-0.002104 5.7e-05 0.002075
-0.001557 0.000286 0.001957
-0.00154 0.000287 0.001975
-0.001525 0.000286 0.001995
-0.001514 0.000283 0.002017
-0.001507 0.000277 0.002044
-0.001507 0.000267 0.002077
-0.001519 0.000249 0.00212
-0.001533 0.00023 0.002165
-0.002476 0.00014 0.001292
-0.002438 0.000154 0.001288
-0.002395 0.00017 0.001283
-0.002353 0.000186 0.001279
-0.00231 0.000203 0.001274
-0.002266 0.00022 0.001268
-0.002223 0.000237 0.001263
-0.002191 0.000247 0.001268
-0.002166 0.000252 0.001279
-0.002146 0.000255 0.001294
-0.002128 0.000255 0.001311
-0.002114 0.000254 0.001332
-0.002474 0.00065 0.000727
-0.002603 0.00065 0.001293
-0.002689 0.000561 0.001279
-0.00277 0.000519 0.001181
-0.002446 0.000747 0.000698
-0.002237 9.6e-05 0.001704
-0.002264 7.1e-05 0.001757
-0.002281 5.1e-05 0.001804
-0.002287 3.7e-05 0.001843
-0.00228 3.1e-05 0.00187
-0.002269 2.9e-05 0.001892
-0.002255 2.7e-05 0.001913
-0.00224 2.6e-05 0.001932
-0.002225 2.6e-05 0.001952
-0.002208 2.6e-05 0.00197
-0.002192 2.6e-05 0.001989
-0.002175 2.7e-05 0.002006
-0.002157 2.8e-05 0.002023
-0.002138 2.9e-05 0.00204
-0.002118 3.2e-05 0.002055
-0.002094 3.6e-05 0.002067
-0.001557 0.000259 0.001957
-0.00154 0.000259 0.001975
-0.001526 0.000258 0.001995
-0.001514 0.000255 0.002017
-0.001507 0.00025 0.002044
-0.001507 0.000239 0.002077
-0.001519 0.000222 0.00212
-0.001534 0.000203 0.002166
-0.002476 0.000113 0.001288
-0.002437 0.000127 0.001287
-0.002396 0.000142 0.001284
-0.002353 0.000159 0.001279
-0.002309 0.000176 0.001273
-0.002266 0.000193 0.001268
-0.002223 0.00021 0.001263
-0.002191 0.00022 0.001268
-0.002166 0.000225 0.001279
-0.002146 0.000228 0.001294
-0.002128 0.000228 0.001311
-0.002114 0.000227 0.001332
-0.002102 0.000224 0.001354
-0.002739 0.000601 0.001248
-0.002751 0.000546 0.001226
-0.002207 0.000611 0.001653
-0.002708 0.00061 0.000937
-0.00243 0.000729 0.000671
-0.002425 0.000715 0.000641
-0.002261 4.6e-05 0.001755
-0.002274 2.8e-05 0.001799
-0.002273 1.9e-05 0.00183
-0.002264 1.4e-05 0.001855
-0.002251 1.2e-05 0.001877
-0.002237 1.1e-05 0.001897
-0.002222 1e-05 0.001917
-0.002206 1e-05 0.001936
-0.00219 1e-05 0.001955
-0.002174 1e-05 0.001973
-0.002157 1e-05 0.001991
-0.002139 1.1e-05 0.002008
-0.002121 1.2e-05 0.002025
-0.002102 1.5e-05 0.002041
-0.002079 1.9e-05 0.002054
-0.002052 2.6e-05 0.002061
-0.001557 0.000231 0.001958
-0.00154 0.000232 0.001975
-0.001526 0.000231 0.001995
-0.001514 0.000228 0.002017
-0.001507 0.000222 0.002044
-0.001507 0.000212 0.002077
-0.001517 0.000196 0.002119
-0.001534 0.000175 0.002166
-0.002475 8.6e-05 0.001288
-0.002437 0.0001 0.001287
-0.002395 0.000116 0.001283
-0.002353 0.000132 0.001279
-0.002309 0.000149 0.001273
-0.002265 0.000166 0.001267
-0.002222 0.000183 0.001263
-0.002191 0.000193 0.001268
-0.002166 0.000198 0.001279
-0.002145 0.0002 0.001294
-0.002128 0.000201 0.001311
-0.002114 0.0002 0.001332
-0.002102 0.000197 0.001354
-0.002557 0.000695 0.001299
-0.002989 0.000442 0.000307
-0.002969 0.00045 0.000329
-0.002813 0.000562 -0.000549
-0.002254 2.3e-05 0.001749
-0.002258 1.1e-05 0.001784
-0.00225 5e-06 0.001811
-0.002237 4e-06 0.001832
-0.002221 3e-06 0.001851
-0.002206 3e-06 0.00187
-0.002192 2e-06 0.00189
-0.00216 1e-06 0.001928
-0.002142 2e-06 0.001945
-0.002125 3e-06 0.001963
-0.00211 2e-06 0.001982
-0.002093 3e-06 0.002001
-0.002076 3e-06 0.002018
-0.002056 5e-06 0.002034
-0.002033 1e-05 0.002046
-0.001557 0.000204 0.001957
-0.00154 0.000205 0.001975
-0.001525 0.000204 0.001995
-0.001514 0.000201 0.002017
-0.001507 0.000195 0.002044
-0.001507 0.000185 0.002077
-0.001517 0.000169 0.002118
-0.002475 5.9e-05 0.001291
-0.002437 7.3e-05 0.001288
-0.002394 8.9e-05 0.001283
-0.002352 0.000105 0.001278
-0.00231 0.000122 0.001274
-0.002265 0.000139 0.001267
-0.002223 0.000156 0.001263
-0.00219 0.000165 0.001267
-0.002166 0.000171 0.001278
-0.002145 0.000173 0.001294
-0.002128 0.000174 0.001311
-0.002114 0.000172 0.001332
-0.002102 0.00017 0.001354
-0.002719 0.000633 0.001266
-0.002794 0.000566 0.00103
-0.002751 0.000518 0.001226
-0.002085 0.000678 0.001433
-0.00244 0.000702 0.000539
-0.002808 0.000467 0.00109
-0.002813 0.000469 0.001065
-0.002211 2e-06 0.001777
-0.002195 2e-06 0.001795
-0.00218 2e-06 0.001814
-0.002163 2e-06 0.001832
-0.002146 3e-06 0.00185
-0.00213 3e-06 0.001869
-0.002113 3e-06 0.001887
-0.002098 3e-06 0.001906
-0.002081 3e-06 0.001925
-0.002065 3e-06 0.001943
-0.002048 3e-06 0.001961
-0.001557 0.000177 0.001957
-0.00154 0.000178 0.001975
-0.001526 0.000177 0.001995
-0.001514 0.000174 0.002017
-0.001507 0.000168 0.002044
-0.001506 0.000158 0.002076
-0.001517 0.000142 0.002118
-0.001534 0.000121 0.002166
-0.002724 0.000494 0.001268
-0.002751 0.000687 0.001199
-0.002395 6.1e-05 0.001285
-0.002353 7.8e-05 0.001279
-0.002309 9.5e-05 0.001273
-0.002266 0.000112 0.001268
-0.002222 0.000129 0.001262
-0.002191 0.000138 0.001268
-0.002165 0.000144 0.001278
-0.002145 0.000146 0.001294
-0.002128 0.000147 0.001311
-0.002114 0.000145 0.001332
-0.002778 0.000656 0.001157
-0.002646 0.000605 0.001286
-0.002723 0.000549 0.001267
-0.002771 0.000465 0.001181
-0.002525 0.00068 0.00047
-0.002688 0.000616 0.001279
-0.002707 0.000693 0.00126
-0.00278 0.000492 0.001158
-0.002184 2e-06 0.00172
-0.002168 2e-06 0.001739
-0.002151 2e-06 0.001757
-0.002136 2e-06 0.001776
-0.00212 2e-06 0.001795
-0.002105 1e-06 0.001814
-0.002088 1e-06 0.001833
-0.002072 1e-06 0.001851
-0.002055 2e-06 0.001869
-0.002039 2e-06 0.001888
-0.002022 2e-06 0.001906
-0.002006 2e-06 0.001924
-0.001989 3e-06 0.001943
-0.001973 2e-06 0.001961
-0.001557 0.00015 0.001957
-0.00154 0.000151 0.001975
-0.001526 0.00015 0.001995
-0.001514 0.000147 0.002017
-0.001507 0.000141 0.002044
-0.001506 0.000132 0.002076
-0.001517 0.000115 0.002118
-0.001534 9.4e-05 0.002166
-0.002761 0.000491 0.001204
-0.002435 1.9e-05 0.001286
-0.002397 3.4e-05 0.001286
-0.002351 5.2e-05 0.001277
-0.00231 6.7e-05 0.001274
-0.002265 8.5e-05 0.001268
-0.002222 0.000102 0.001262
-0.002191 0.000111 0.001268
-0.002165 0.000117 0.001278
-0.002145 0.000119 0.001293
-0.002128 0.00012 0.001311
-0.002113 0.000118 0.001331
-0.002798 0.00063 0.001112
-0.002208 0.000719 0.001653
-0.00219 0.000598 0.001618
-0.002206 0.000584 0.001653
-0.002491 0.000692 0.000481
-0.002247 0.000582 0.001721
-0.002681 0.000702 0.001275
-0.002162 -1e-06 0.001668
-0.002145 -1e-06 0.001686
-0.00213 -1e-06 0.001705
-0.002114 -2e-06 0.001724
-0.002099 -2e-06 0.001744
-0.002083 -3e-06 0.001763
-0.002067 -3e-06 0.001781
-0.00205 -2e-06 0.001799
-0.002033 -2e-06 0.001817
-0.001968 -1e-06 0.001891
-0.001952 -2e-06 0.00191
-0.001934 -1e-06 0.001927
-0.001917 -0.0 0.001945
-0.001557 0.000123 0.001957
-0.00154 0.000124 0.001975
-0.001525 0.000123 0.001995
-0.001514 0.00012 0.002017
-0.001507 0.000114 0.002044
-0.001505 0.000105 0.002075
-0.001516 8.8e-05 0.002118
-0.002751 0.000491 0.001226
-0.002771 0.000492 0.001181
-0.002391 1e-05 0.001279
-0.002355 2.2e-05 0.00128
-0.00231 4e-05 0.001274
-0.002264 5.8e-05 0.001267
-0.002222 7.4e-05 0.001262
-0.00219 8.4e-05 0.001267
-0.002165 9e-05 0.001278
-0.002145 9.2e-05 0.001293
-0.002127 9.3e-05 0.001311
-0.002113 9.1e-05 0.001331
-0.002791 0.000675 0.001029
-0.00278 0.000574 0.001158
-0.002557 0.000559 0.001299
-0.002104 7e-06 0.001618
-0.002088 7e-06 0.001636
-0.00196 6e-06 0.001786
-0.001945 6e-06 0.001805
-0.001927 7e-06 0.001823
-0.001912 6e-06 0.001842
-0.001898 5e-06 0.001863
-0.001881 5e-06 0.001881
-0.001863 6e-06 0.001898
-0.001576 9.4e-05 0.001941
-0.001556 9.6e-05 0.001957
-0.00154 9.7e-05 0.001975
-0.001525 9.6e-05 0.001994
-0.001514 9.3e-05 0.002017
-0.001507 8.7e-05 0.002044
-0.001504 7.8e-05 0.002075
-0.001517 6e-05 0.002118
-0.001534 3.9e-05 0.002166
-0.002355 5e-06 0.001248
-0.002335 7e-06 0.001263
-0.002308 1.4e-05 0.001272
-0.002265 3.1e-05 0.001267
-0.002223 4.7e-05 0.001263
-0.00219 5.7e-05 0.001267
-0.002165 6.3e-05 0.001278
-0.002144 6.5e-05 0.001293
-0.002127 6.6e-05 0.00131
-0.002113 6.4e-05 0.001331
-0.002101 6.2e-05 0.001353
-0.002091 5.7e-05 0.001378
-0.002084 5.1e-05 0.001406
-0.002208 0.000692 0.001653
-0.002116 3e-06 0.00153
-0.002097 5e-06 0.001546
-0.00208 5e-06 0.001564
-0.002064 5e-06 0.001582
-0.002046 6e-06 0.0016
-0.002031 5e-06 0.001619
-0.002016 4e-06 0.001639
-0.002 5e-06 0.001657
-0.001983 5e-06 0.001676
-0.001967 5e-06 0.001694
-0.001935 5e-06 0.001731
-0.001919 5e-06 0.00175
-0.001902 5e-06 0.001768
-0.001885 5e-06 0.001786
-0.001869 5e-06 0.001805
-0.001853 5e-06 0.001823
-0.001836 6e-06 0.001841
-0.00182 5e-06 0.00186
-0.001804 5e-06 0.001879
-0.001788 5e-06 0.001898
-0.001773 5e-06 0.001917
-0.001575 6.7e-05 0.001941
-0.001556 6.9e-05 0.001957
-0.001539 7e-05 0.001974
-0.001525 6.9e-05 0.001994
-0.001513 6.5e-05 0.002017
-0.001506 5.9e-05 0.002044
-0.001504 5.1e-05 0.002075
-0.001516 3.4e-05 0.002118
-0.001531 1.4e-05 0.002164
-0.002432 0.000729 0.000562
-0.00279 0.000492 0.001136
-0.002311 5e-06 0.001209
-0.002294 5e-06 0.001228
-0.00228 4e-06 0.001248
-0.002257 8e-06 0.001261
-0.002223 2e-05 0.001263
-0.002189 3e-05 0.001266
-0.002164 3.6e-05 0.001278
-0.002144 3.8e-05 0.001292
-0.002127 3.9e-05 0.00131
-0.00279 0.000601 0.001136
-0.0021 3.5e-05 0.001353
-0.002091 3e-05 0.001378
-0.002086 2.3e-05 0.001406
-0.002088 1.2e-05 0.001441
-0.002094 -0.0 0.001479
-0.002078 -1e-06 0.001496
-0.00206 0.0 0.001513
-0.002044 0.0 0.001532
-0.002029 -1e-06 0.001552
-0.002013 -1e-06 0.00157
-0.001997 -1e-06 0.001589
-0.001981 -1e-06 0.001608
-0.001965 -1e-06 0.001627
-0.001949 -1e-06 0.001645
-0.001932 -1e-06 0.001664
-0.001917 -1e-06 0.001683
-0.001901 -1e-06 0.001701
-0.001884 -1e-06 0.001719
-0.001868 -1e-06 0.001738
-0.001851 -1e-06 0.001756
-0.001835 -1e-06 0.001775
-0.001819 -1e-06 0.001793
-0.001802 -0.0 0.001811
-0.001785 -0.0 0.001829
-0.001768 0.0 0.001848
-0.001751 1e-06 0.001865
-0.001735 1e-06 0.001884
-0.001596 3.7e-05 0.001926
-0.001575 4e-05 0.00194
-0.001556 4.2e-05 0.001956
-0.001539 4.2e-05 0.001974
-0.001525 4.2e-05 0.001994
-0.001512 3.9e-05 0.002016
-0.001506 3.3e-05 0.002043
-0.001505 2.3e-05 0.002075
-0.001512 9e-06 0.002114
-0.002468 0.000699 0.000498
-0.002241 0.000746 0.001723
-0.002273 1e-06 0.001177
-0.002259 0.0 0.001196
-0.002244 -1e-06 0.001216
-0.00223 -2e-06 0.001237
-0.002213 -2e-06 0.001255
-0.002189 3e-06 0.001267
-0.002165 8e-06 0.001278
-0.002144 1.1e-05 0.001293
-0.002128 1.1e-05 0.001311
-0.002984 0.000693 0.000256
-0.002102 7e-06 0.001354
-0.002094 2e-06 0.00138
-0.002083 -0.0 0.001405
-0.002077 -8e-06 0.00143
-0.002063 -9e-06 0.001451
-0.002047 -9e-06 0.001469
-0.002031 -9e-06 0.001488
-0.002015 -1e-05 0.001507
-0.002001 -1e-05 0.001527
-0.001984 -1e-05 0.001546
-0.001968 -9e-06 0.001564
-0.001952 -9e-06 0.001583
-0.001936 -1e-05 0.001601
-0.001921 -1.1e-05 0.001622
-0.001905 -1.1e-05 0.00164
-0.001888 -1.1e-05 0.001658
-0.001873 -1.1e-05 0.001677
-0.001824 -1.1e-05 0.001733
-0.001807 -1e-05 0.00175
-0.00179 -1e-05 0.001768
-0.001773 -1e-05 0.001787
-0.001757 -1e-05 0.001805
-0.00174 -9e-06 0.001823
-0.001723 -9e-06 0.001841
-0.001707 -9e-06 0.001859
-0.00169 -8e-06 0.001877
-0.001672 -7e-06 0.001895
-0.001597 9e-06 0.001927
-0.001575 1.3e-05 0.00194
-0.001556 1.5e-05 0.001956
-0.001539 1.6e-05 0.001974
-0.001524 1.5e-05 0.001994
-0.001512 1.1e-05 0.002016
-0.001505 6e-06 0.002043
-0.001499 -0.0 0.00207
-0.001483 -1e-06 0.002089
-0.002424 0.000689 0.000641
-0.00291 0.000598 -0.000749
-0.003002 0.000444 0.000184
-0.00223 -9e-06 0.001171
-0.002216 -1e-05 0.001191
-0.002201 -1.1e-05 0.001211
-0.002186 -1.2e-05 0.001231
-0.00217 -1.2e-05 0.001249
-0.002153 -1.2e-05 0.001268
-0.002137 -1.2e-05 0.001286
-0.002121 -1.2e-05 0.001305
-0.002104 -1.1e-05 0.001324
-0.002057 -1.3e-05 0.00138
-0.002042 -1.3e-05 0.001399
-0.002025 -1.3e-05 0.001418
-0.00201 -1.3e-05 0.001437
-0.001993 -1.3e-05 0.001455
-0.001976 -1.3e-05 0.001473
-0.00193 -1.4e-05 0.001531
-0.001913 -1.3e-05 0.001549
-0.001863 -1.2e-05 0.001603
-0.001847 -1.3e-05 0.001622
-0.001735 -1.2e-05 0.001753
-0.001718 -1.3e-05 0.00177
-0.001703 -1.3e-05 0.00179
-0.001686 -1.3e-05 0.001808
-0.001638 -1.3e-05 0.001864
-0.001622 -1.3e-05 0.001883
-0.00157 -1.1e-05 0.001936
-0.001553 -1.1e-05 0.001954
-0.001536 -1e-05 0.001971
-0.00152 -1e-05 0.00199
-0.001505 -1.1e-05 0.00201
-0.00149 -1.2e-05 0.002029
-0.001471 -1e-05 0.002046
-0.001453 -9e-06 0.002063
-0.002115 0.000734 0.001501
-0.002935 0.000464 0.000348
-0.002689 0.000643 0.001279
-0.002175 0.000747 0.001583
-0.002189 0.000707 0.001617
-0.002602 0.000487 0.001293
-0.002142 -1.2e-05 0.001193
-0.002127 -1.3e-05 0.001213
-0.002108 -1.1e-05 0.001228
-0.00209 -1e-05 0.001246
-0.002074 -1e-05 0.001264
-0.002059 -1.1e-05 0.001284
-0.001388 -2.9e-05 0.001581
-0.002013 -1.1e-05 0.001341
-0.001996 -1.1e-05 0.001359
-0.001976 -1e-05 0.001375
-0.001959 -9e-06 0.001393
-0.001943 -9e-06 0.001412
-0.001927 -9e-06 0.00143
-0.00191 -9e-06 0.001448
-0.001895 -9e-06 0.001467
-0.001876 -8e-06 0.001483
-0.001862 -9e-06 0.001504
-0.001829 -8e-06 0.00154
-0.001812 -8e-06 0.001559
-0.001797 -9e-06 0.001579
-0.001764 -9e-06 0.001615
-0.001748 -9e-06 0.001634
-0.001733 -1e-05 0.001653
-0.001684 -9e-06 0.001709
-0.001669 -1e-05 0.001728
-0.001655 -1.1e-05 0.001748
-0.001637 -9e-06 0.001766
-0.00159 -1.1e-05 0.001822
-0.001574 -1.1e-05 0.001841
-0.001558 -1.1e-05 0.00186
-0.001406 -3e-05 0.001564
-0.001447 -1.2e-05 0.001992
-0.00143 -1.2e-05 0.00201
-0.001414 -1.2e-05 0.002029
-0.002724 0.000467 0.001268
-0.002169 0.000695 0.001581
-0.002491 0.000665 0.000481
-0.002424 0.000722 0.000613
-0.002426 0.000726 0.000587
-0.001423 -3.1e-05 0.001546
-0.002708 0.000583 0.000937
-0.002762 0.000687 0.001177
-0.002026 -7e-06 0.001222
-0.002007 -6e-06 0.001239
-0.00199 -6e-06 0.001256
-0.001925 -5e-06 0.00133
-0.002771 0.000687 0.001154
-0.001876 -5e-06 0.001386
-0.00186 -5e-06 0.001404
-0.001843 -4e-06 0.001422
-0.002778 0.000708 0.001023
-0.002898 0.000534 0.000368
-0.002869 0.000669 -0.000606
-0.001775 -3e-06 0.001493
-0.001761 -4e-06 0.001514
-0.001745 -4e-06 0.001533
-0.001728 -4e-06 0.001551
-0.001712 -3e-06 0.001569
-0.001696 -4e-06 0.001588
-0.001681 -4e-06 0.001608
-0.001664 -3e-06 0.001625
-0.001647 -3e-06 0.001643
-0.001538 -6e-06 0.001777
-0.001522 -6e-06 0.001796
-0.001507 -7e-06 0.001815
-0.00144 -3.1e-05 0.001528
-0.001461 -8e-06 0.001874
-0.001445 -8e-06 0.001892
-0.001397 -9e-06 0.001949
-0.001382 -9e-06 0.001968
-0.002208 0.000665 0.001653
-0.00219 0.000679 0.001618
-0.00274 0.000464 0.001248
-0.002099 0.000687 0.001358
-0.002751 0.000437 0.001226
-0.002724 0.00044 0.001268
-0.002191 0.000624 0.001618
-0.002111 0.000714 0.001337
-0.002603 0.000514 0.001293
-0.00277 0.000573 0.001181
-0.001942 -3e-06 0.001214
-0.002647 0.000523 0.001287
-0.002426 0.000753 0.000587
-0.002426 0.000748 0.000614
-0.002526 0.000652 0.00047
-0.002789 0.000438 0.001135
-0.002794 0.000538 0.00103
-0.001809 -1e-06 0.00136
-0.001794 -1e-06 0.001379
-0.002146 0.000631 0.001543
-0.001457 -3.1e-05 0.00151
-0.001683 -2e-06 0.001511
-0.001665 -2e-06 0.001528
-0.001648 -1e-06 0.001546
-0.001632 -1e-06 0.001565
-0.001617 -2e-06 0.001584
-0.001601 -2e-06 0.001603
-0.001474 -3e-06 0.001753
-0.001457 -3e-06 0.001772
-0.001441 -3e-06 0.001791
-0.001409 -3e-06 0.001828
-0.001394 -4e-06 0.001848
-0.002648 0.000469 0.001287
-0.002688 0.000453 0.001279
-0.002226 0.000596 0.001689
-0.00209 0.000714 0.001381
-0.002751 0.000464 0.001226
-0.002226 0.000704 0.001689
-0.002756 0.000616 0.000988
-0.002493 0.000641 0.001297
-0.002191 0.000652 0.001618
-0.00217 0.000613 0.001581
-0.002779 0.000547 0.001158
-0.002955 0.000701 0.000326
-0.002795 0.000658 0.001111
-0.002801 0.000661 0.001086
-0.002749 0.000628 0.001225
-0.002226 0.000569 0.001689
-0.002799 0.000439 0.001113
-0.002808 0.00044 0.00109
-0.00273 0.000713 -0.000488
-0.002554 0.000723 0.001298
-0.002191 0.000733 0.001618
-0.002085 0.000705 0.001433
-0.002169 0.000641 0.001581
-0.00209 0.000698 0.001463
-0.002099 0.000714 0.001358
-0.001656 -3e-06 0.001455
-0.00164 -3e-06 0.001474
-0.001624 -3e-06 0.001492
-0.001608 -3e-06 0.001511
-0.001592 -3e-06 0.00153
-0.001575 -3e-06 0.001548
-0.001559 -3e-06 0.001566
-0.001443 -2e-06 0.001694
-0.001426 -1e-06 0.001712
-0.00141 -1e-06 0.001731
-0.001393 -1e-06 0.001749
-0.001474 -3.2e-05 0.001492
-0.001491 -3.2e-05 0.001474
-0.001507 -3.3e-05 0.001456
-0.002557 0.000532 0.001299
-0.002689 0.000588 0.001279
-0.002804 0.000631 0.001088
-0.002793 0.000647 0.001029
-0.00276 0.000664 0.000993
-0.00281 0.000607 0.001063
-0.002226 0.000732 0.001689
-0.002798 0.000548 0.001112
-0.00217 0.000668 0.001581
-0.002085 0.000738 0.001406
-0.0021 0.000741 0.001359
-0.00277 0.000546 0.001181
-0.002494 0.000722 0.001297
-0.002802 0.000665 0.00106
-0.002787 0.000657 0.001134
-0.002643 0.000716 0.001285
-0.001799 -8e-06 0.00122
-0.001783 -9e-06 0.001239
-0.001768 -9e-06 0.001258
-0.001751 -9e-06 0.001276
-0.001736 -1e-05 0.001295
-0.00172 -1e-05 0.001315
-0.00279 0.000628 0.001135
-0.001689 -1.1e-05 0.001353
-0.001673 -1.1e-05 0.001371
-0.001657 -1.1e-05 0.00139
-0.001641 -1.1e-05 0.001409
-0.001624 -1.1e-05 0.001427
-0.001608 -1e-05 0.001445
-0.001591 -1e-05 0.001464
-0.001575 -1e-05 0.001483
-0.001559 -1e-05 0.001501
-0.001542 -1e-05 0.001519
-0.001526 -1e-05 0.001537
-0.001509 -1e-05 0.001555
-0.001493 -9e-06 0.001574
-0.001476 -9e-06 0.001592
-0.001458 -9e-06 0.001609
-0.001442 -8e-06 0.001628
-0.001425 -8e-06 0.001646
-0.001408 -7e-06 0.001663
-0.001392 -7e-06 0.001682
-0.001375 -6e-06 0.0017
-0.001357 -6e-06 0.001717
-0.002068 0.000779 0.001371
-0.002722 0.000577 0.001267
-0.002807 0.000635 0.001062
-0.002911 0.0005 3.4e-05
-0.002794 0.00062 0.001029
-0.002781 0.000601 0.001158
-0.002248 0.000718 0.001721
-0.002789 0.000547 0.001135
-0.002697 0.000676 0.000437
-0.00209 0.000741 0.001381
-0.00276 0.000546 0.001203
-0.002751 0.0006 0.001226
-0.002771 0.0006 0.001181
-0.002799 0.000602 0.001113
-0.002721 0.000604 0.001267
-0.001784 -1.7e-05 0.001175
-0.001769 -1.8e-05 0.001194
-0.001754 -1.8e-05 0.001213
-0.001739 -1.9e-05 0.001233
-0.001724 -1.9e-05 0.001252
-0.001708 -2e-05 0.001272
-0.001692 -2e-05 0.00129
-0.001676 -2e-05 0.001309
-0.001661 -2e-05 0.001328
-0.001644 -2e-05 0.001347
-0.001629 -2.1e-05 0.001366
-0.001613 -2.1e-05 0.001384
-0.001597 -2.1e-05 0.001403
-0.001581 -2.1e-05 0.001422
-0.001564 -2.1e-05 0.00144
-0.001548 -2e-05 0.001458
-0.001531 -2e-05 0.001477
-0.001514 -2e-05 0.001495
-0.001498 -2e-05 0.001513
-0.001481 -2e-05 0.001531
-0.001464 -1.9e-05 0.001549
-0.001447 -1.9e-05 0.001567
-0.00143 -1.8e-05 0.001585
-0.001413 -1.7e-05 0.001602
-0.001396 -1.7e-05 0.00162
-0.002088 0.000732 0.001433
-0.00274 0.000491 0.001248
-0.00268 0.000597 0.000908
-0.002481 0.000746 0.000503
-0.002427 0.000742 0.000642
-0.002062 0.000777 0.001396
-0.00274 0.000519 0.001248
-0.002761 0.000518 0.001204
-0.001886 0.000652 -0.002304
-0.002452 0.000702 0.000518
-0.002085 0.000711 0.001406
-0.00278 0.000465 0.001158
-0.002795 0.000483 0.001031
-0.002807 0.000521 0.00109
-0.00211 0.000687 0.001337
-0.00176 -2.9e-05 0.001153
-0.001745 -3e-05 0.001173
-0.00173 -3e-05 0.001192
-0.001714 -3.1e-05 0.001212
-0.001699 -3.1e-05 0.001231
-0.001684 -3.2e-05 0.00125
-0.001668 -3.2e-05 0.001269
-0.001653 -3.3e-05 0.001288
-0.001637 -3.3e-05 0.001307
-0.001621 -3.3e-05 0.001326
-0.001605 -3.3e-05 0.001345
-0.001589 -3.3e-05 0.001364
-0.001573 -3.3e-05 0.001383
-0.001557 -3.3e-05 0.001401
-0.00154 -3.3e-05 0.001419
-0.001524 -3.3e-05 0.001438
-0.002468 0.000671 0.000498
-0.002452 0.000675 0.000517
-0.00244 0.000675 0.000539
-0.002432 0.000674 0.000562
-0.002426 0.000672 0.000587
-0.002996 0.000667 0.000134
-0.002999 0.000578 0.000233
-0.002816 0.000596 0.000405
-0.002999 0.000524 0.000234
-0.002682 0.000651 0.000908
-0.002526 0.000733 0.00076
-0.002795 0.000429 0.00103
-0.002813 0.000415 0.001065
-0.002807 0.000413 0.001089
-0.002798 0.000412 0.001112
-0.002789 0.000411 0.001135
-0.002779 0.000411 0.001158
-0.00277 0.00041 0.001181
-0.002761 0.00041 0.001204
-0.002751 0.00041 0.001226
-0.00274 0.00041 0.001249
-0.002724 0.000413 0.001268
-0.00269 0.000425 0.001279
-0.002647 0.000442 0.001287
-0.002602 0.000459 0.001293
-0.002557 0.000478 0.001299
-0.00211 0.00066 0.001337
-0.002099 0.00066 0.001358
-0.00209 0.000659 0.001381
-0.002085 0.000657 0.001406
-0.002085 0.000651 0.001433
-0.002089 0.000644 0.001462
-0.002146 0.000604 0.001543
-0.00217 0.000586 0.001581
-0.00219 0.00057 0.001618
-0.002207 0.000556 0.001653
-0.002226 0.000542 0.001689
-0.002248 0.000528 0.001721
-0.00256 0.000613 0.000459
-0.002525 0.000626 0.000473
-0.002491 0.000638 0.000481
-0.002468 0.000644 0.000498
-0.002451 0.000648 0.000517
-0.00244 0.000648 0.000539
-0.002431 0.000647 0.000562
-0.002425 0.000645 0.000587
-0.002735 0.000704 0.000965
-0.002995 0.00055 0.000283
-0.002868 0.000642 -0.000606
-0.002817 0.000515 0.000405
-0.002594 0.00067 0.00082
-0.002553 0.000739 0.00049
-0.003 0.00058 0.000209
-0.002793 0.000403 0.00103
-0.002813 0.000388 0.001065
-0.002807 0.000385 0.00109
-0.002798 0.000385 0.001113
-0.002789 0.000384 0.001135
-0.00278 0.000384 0.001158
-0.00277 0.000383 0.001181
-0.00276 0.000383 0.001204
-0.002751 0.000383 0.001226
-0.00274 0.000383 0.001248
-0.002723 0.000386 0.001268
-0.00269 0.000398 0.001279
-0.002647 0.000415 0.001287
-0.002602 0.000432 0.001293
-0.002556 0.000451 0.001299
-0.002495 0.000477 0.001298
-0.002098 0.000633 0.001358
-0.00209 0.000632 0.001381
-0.002085 0.00063 0.001406
-0.002085 0.000624 0.001433
-0.00209 0.000616 0.001463
-0.002112 0.000599 0.0015
-0.002146 0.000577 0.001543
-0.00217 0.000559 0.001581
-0.00219 0.000544 0.001618
-0.002207 0.000529 0.001653
-0.002225 0.000515 0.001689
-0.002248 0.000501 0.001721
-0.00256 0.000586 0.000459
-0.002525 0.000598 0.00047
-0.002491 0.000611 0.000481
-0.002468 0.000617 0.000498
-0.002451 0.00062 0.000517
-0.00244 0.000621 0.000539
-0.002431 0.00062 0.000562
-0.002425 0.000617 0.000587
-0.002703 0.000728 0.000438
-0.002934 0.000573 0.000348
-0.002443 0.00064 0.000698
-0.002862 0.000495 0.000387
-0.002483 0.000744 -0.000293
-0.002996 0.000415 0.000258
-0.002709 0.000637 0.000937
-0.00257 0.000733 0.000468
-0.002792 0.000375 0.001031
-0.002813 0.000361 0.001065
-0.002807 0.000358 0.00109
-0.002798 0.000358 0.001112
-0.002789 0.000357 0.001135
-0.00278 0.000356 0.001158
-0.00277 0.000356 0.001181
-0.00276 0.000356 0.001204
-0.002751 0.000356 0.001226
-0.00274 0.000356 0.001248
-0.002724 0.000359 0.001268
-0.00269 0.000371 0.00128
-0.002647 0.000388 0.001287
-0.002603 0.000405 0.001293
-0.002557 0.000423 0.001299
-0.002495 0.00045 0.001298
-0.002098 0.000606 0.001358
-0.00209 0.000605 0.001381
-0.002085 0.000603 0.001406
-0.002084 0.000597 0.001433
-0.00209 0.000589 0.001463
-0.002112 0.000572 0.0015
-0.002145 0.00055 0.001543
-0.002169 0.000532 0.001581
-0.002189 0.000517 0.001617
-0.002207 0.000502 0.001653
-0.002226 0.000487 0.001689
-0.00256 0.000559 0.000459
-0.002524 0.000572 0.00047
-0.002491 0.000583 0.000481
-0.002468 0.00059 0.000498
-0.002451 0.000593 0.000517
-0.00244 0.000594 0.000539
-0.002431 0.000593 0.000562
-0.002425 0.00059 0.000587
-0.002862 0.000658 0.000387
-0.002969 0.000559 0.000329
-0.002522 0.000599 0.000759
-0.00248 0.000743 -0.000268
-0.002785 0.000543 0.00102
-0.002486 0.000737 -0.000218
-0.002473 0.000624 0.000727
-0.002989 0.000697 0.000157
-0.002812 0.000334 0.001065
-0.002807 0.000331 0.00109
-0.002798 0.00033 0.001113
-0.002789 0.00033 0.001135
-0.00278 0.000329 0.001158
-0.00277 0.000329 0.001181
-0.00276 0.000329 0.001204
-0.00275 0.000328 0.001226
-0.00274 0.000328 0.001248
-0.002723 0.000332 0.001268
-0.00269 0.000344 0.00128
-0.002646 0.000361 0.001287
-0.002603 0.000378 0.001294
-0.002556 0.000396 0.001299
-0.002098 0.000579 0.001358
-0.002089 0.000578 0.001381
-0.002084 0.000575 0.001406
-0.002083 0.00057 0.001433
-0.002089 0.000562 0.001463
-0.002112 0.000545 0.0015
-0.002145 0.000523 0.001543
-0.002168 0.000506 0.001581
-0.002189 0.00049 0.001617
-0.002206 0.000475 0.001653
-0.002226 0.00046 0.001689
-0.002559 0.000532 0.000458
-0.002525 0.000544 0.00047
-0.002491 0.000556 0.000481
-0.002468 0.000563 0.000498
-0.002451 0.000566 0.000517
-0.00244 0.000567 0.000539
-0.002431 0.000566 0.000562
-0.002425 0.000563 0.000587
-0.00284 0.000611 -6e-06
-0.002898 0.000589 0.000368
-0.003001 0.000498 0.000209
-0.002877 0.000568 1.4e-05
-0.002812 0.000306 0.001065
-0.002807 0.000304 0.00109
-0.002798 0.000303 0.001113
-0.002789 0.000303 0.001136
-0.00278 0.000302 0.001158
-0.002771 0.000301 0.001181
-0.002761 0.000301 0.001204
-0.00275 0.000301 0.001226
-0.00274 0.000301 0.001249
-0.002723 0.000305 0.001268
-0.002689 0.000317 0.001279
-0.002646 0.000333 0.001287
-0.002602 0.000351 0.001293
-0.002555 0.00037 0.001298
-0.002098 0.000552 0.001358
-0.002089 0.000551 0.001381
-0.002084 0.000548 0.001406
-0.002083 0.000543 0.001433
-0.00209 0.000534 0.001463
-0.00211 0.000519 0.001499
-0.002146 0.000495 0.001543
-0.00217 0.000478 0.001581
-0.002189 0.000462 0.001618
-0.002207 0.000448 0.001653
-0.002225 0.000433 0.001689
-0.002242 0.000419 0.001724
-0.00256 0.000504 0.000459
-0.002524 0.000517 0.00047
-0.002491 0.000529 0.000481
-0.002468 0.000536 0.000498
-0.002451 0.000539 0.000517
-0.00244 0.000539 0.000539
-0.002431 0.000539 0.000562
-0.002993 0.000661 0.000257
-0.002913 0.000689 3.4e-05
-0.002633 0.000705 0.000452
-0.002562 0.00071 0.000466
-0.002431 0.000702 0.000671
-0.002923 0.00053 -0.000688
-0.002775 0.000527 -0.000519
-0.002812 0.00028 0.001065
-0.002807 0.000276 0.00109
-0.002799 0.000276 0.001113
-0.00279 0.000275 0.001136
-0.00278 0.000274 0.001159
-0.002771 0.000274 0.001181
-0.002761 0.000274 0.001204
-0.002751 0.000274 0.001227
-0.00274 0.000274 0.001249
-0.002723 0.000277 0.001268
-0.002689 0.00029 0.001279
-0.002646 0.000306 0.001287
-0.002603 0.000323 0.001293
-0.002098 0.000525 0.001358
-0.002089 0.000524 0.001381
-0.002084 0.000521 0.001406
-0.002084 0.000516 0.001433
-0.00209 0.000507 0.001463
-0.00211 0.000492 0.001499
-0.002145 0.000469 0.001543
-0.00217 0.00045 0.001582
-0.002189 0.000435 0.001618
-0.002208 0.00042 0.001653
-0.002226 0.000406 0.001689
-0.002245 0.000392 0.001723
-0.00256 0.000477 0.000459
-0.002524 0.00049 0.00047
-0.002491 0.000502 0.000482
-0.002468 0.000508 0.000498
-0.002451 0.000512 0.000517
-0.00244 0.000512 0.000539
-0.002431 0.000511 0.000562
-0.002911 0.000608 3.4e-05
-0.002898 0.000616 0.000368
-0.002561 0.000715 0.00079
-0.002989 0.000415 0.000307
-0.002444 0.000694 0.000698
-0.002501 0.000747 0.000731
-0.002792 0.000267 0.001031
-0.002812 0.000252 0.001065
-0.002807 0.000249 0.00109
-0.002798 0.000249 0.001113
-0.002789 0.000248 0.001136
-0.00278 0.000248 0.001158
-0.00277 0.000247 0.001181
-0.002761 0.000247 0.001204
-0.002751 0.000247 0.001226
-0.00274 0.000247 0.001248
-0.002723 0.00025 0.001268
-0.002688 0.000263 0.001279
-0.002647 0.000279 0.001287
-0.002602 0.000297 0.001293
-0.002556 0.000315 0.001299
-0.002098 0.000497 0.001358
-0.002089 0.000497 0.001381
-0.002084 0.000494 0.001406
-0.002083 0.000489 0.001433
-0.002089 0.00048 0.001463
-0.002109 0.000465 0.001499
-0.002144 0.000442 0.001542
-0.00217 0.000423 0.001581
-0.00219 0.000408 0.001618
-0.002208 0.000393 0.001654
-0.002226 0.000378 0.001689
-0.002242 0.000365 0.001724
-0.002522 0.000681 0.000759
-0.002524 0.000463 0.000472
-0.002492 0.000475 0.000483
-0.002468 0.000481 0.000499
-0.002452 0.000485 0.000518
-0.00244 0.000485 0.000539
-0.002431 0.000484 0.000562
-0.002626 0.00065 -0.000101
-0.002564 0.00074 0.000791
-0.002624 0.000682 0.00085
-0.002997 0.000442 0.000258
-0.00243 0.000648 0.000671
-0.002425 0.000707 0.000644
-0.002987 0.000693 0.000232
-0.002811 0.000226 0.001064
-0.002806 0.000223 0.001089
-0.002797 0.000222 0.001112
-0.002788 0.000222 0.001135
-0.002779 0.000221 0.001158
-0.002769 0.000221 0.001181
-0.00276 0.00022 0.001203
-0.00275 0.00022 0.001226
-0.002739 0.00022 0.001248
-0.002722 0.000224 0.001267
-0.002688 0.000236 0.001279
-0.002647 0.000252 0.001287
-0.002601 0.00027 0.001293
-0.002555 0.000288 0.001298
-0.002099 0.00047 0.001358
-0.002089 0.000469 0.001381
-0.002084 0.000467 0.001406
-0.002083 0.000462 0.001433
-0.00209 0.000453 0.001463
-0.00211 0.000437 0.0015
-0.002143 0.000415 0.001542
-0.002171 0.000395 0.001582
-0.002188 0.000381 0.001617
-0.002208 0.000366 0.001653
-0.002226 0.000351 0.001689
-0.002242 0.000338 0.001724
-0.002944 0.000486 5.5e-05
-0.002676 0.000628 -8.3e-05
-0.002492 0.000448 0.000483
-0.002469 0.000454 0.000499
-0.002451 0.000458 0.000518
-0.00244 0.000458 0.000539
-0.002999 0.000663 0.000184
-0.002711 0.000691 0.000935
-0.003003 0.000554 0.000159
-0.002676 0.000573 -8.3e-05
-0.002574 0.00071 -0.000392
-0.001776 -2.8e-05 0.001128
-0.001788 -2.9e-05 0.001106
-0.003 0.000416 0.000209
-0.00281 0.000199 0.001064
-0.002806 0.000196 0.001089
-0.002798 0.000195 0.001112
-0.002788 0.000194 0.001135
-0.002779 0.000194 0.001158
-0.00277 0.000193 0.001181
-0.00276 0.000193 0.001204
-0.00275 0.000193 0.001226
-0.002738 0.000193 0.001248
-0.002722 0.000197 0.001267
-0.002688 0.000208 0.001279
-0.002645 0.000225 0.001286
-0.002601 0.000243 0.001293
-0.002554 0.000261 0.001298
-0.002495 0.000286 0.001298
-0.002099 0.000443 0.001358
-0.00209 0.000442 0.001381
-0.002084 0.00044 0.001406
-0.002083 0.000434 0.001433
-0.002091 0.000425 0.001464
-0.002111 0.000409 0.0015
-0.002143 0.000388 0.001542
-0.00217 0.000368 0.001582
-0.002188 0.000354 0.001617
-0.002208 0.000338 0.001654
-0.002227 0.000324 0.001689
-0.002242 0.00031 0.001724
-0.00256 0.000661 0.00079
-0.002915 0.00064 -0.000712
-0.002722 0.000581 -6.4e-05
-0.002469 0.000427 0.000499
-0.002452 0.00043 0.000518
-0.00244 0.000431 0.000539
-0.002968 0.000641 0.000328
-0.002675 0.00074 0.000459
-0.003001 0.000552 0.000209
-0.003004 0.000527 0.00016
-0.002975 0.000473 7.6e-05
-0.001799 -3e-05 0.001084
-0.002708 0.000528 0.000937
-0.002757 0.000529 0.000994
-0.002732 0.000542 0.000966
-0.002896 0.000707 -0.00066
-0.002809 0.000172 0.001064
-0.002805 0.000169 0.001089
-0.002798 0.000168 0.001112
-0.002789 0.000167 0.001136
-0.00278 0.000166 0.001158
-0.00277 0.000166 0.001181
-0.00276 0.000166 0.001204
-0.00275 0.000166 0.001226
-0.002737 0.000167 0.001247
-0.002721 0.00017 0.001267
-0.002688 0.000181 0.001279
-0.002645 0.000198 0.001286
-0.002602 0.000215 0.001293
-0.002554 0.000234 0.001298
-0.002496 0.000259 0.001298
-0.002111 0.000415 0.001337
-0.002099 0.000416 0.001358
-0.00209 0.000415 0.001381
-0.002084 0.000412 0.001406
-0.002084 0.000407 0.001433
-0.002091 0.000398 0.001464
-0.002111 0.000382 0.0015
-0.002144 0.00036 0.001542
-0.00217 0.000341 0.001582
-0.002188 0.000327 0.001617
-0.002208 0.000311 0.001654
-0.002227 0.000296 0.00169
-0.002242 0.000283 0.001724
-0.002969 0.000696 0.000304
-0.002525 0.000381 0.000473
-0.002629 0.000682 -0.000425
-0.002469 0.0004 0.000499
-0.002452 0.000403 0.000518
-0.00244 0.000404 0.000539
-0.002998 0.000665 0.000159
-0.002986 0.000606 0.000306
-0.003002 0.000553 0.000184
-0.002814 0.000698 -0.000549
-0.002654 0.000557 0.000879
-0.002681 0.000543 0.000908
-0.002759 0.000649 0.000422
-0.002791 0.000159 0.001031
-0.002807 0.000146 0.001063
-0.002803 0.000143 0.001088
-0.002796 0.000141 0.001112
-0.002788 0.00014 0.001135
-0.002779 0.000139 0.001158
-0.002769 0.000139 0.001181
-0.002759 0.000139 0.001203
-0.002748 0.000139 0.001225
-0.002735 0.000141 0.001246
-0.002719 0.000144 0.001266
-0.002688 0.000154 0.001279
-0.002646 0.000171 0.001286
-0.002601 0.000188 0.001293
-0.002556 0.000206 0.001299
-0.002493 0.000233 0.001297
-0.002111 0.000387 0.001337
-0.002099 0.000388 0.001359
-0.00209 0.000388 0.001381
-0.002084 0.000385 0.001406
-0.002084 0.00038 0.001433
-0.002091 0.000371 0.001464
-0.002112 0.000355 0.0015
-0.002144 0.000333 0.001543
-0.00217 0.000314 0.001582
-0.002188 0.000299 0.001617
-0.00221 0.000283 0.001655
-0.002227 0.000269 0.001689
-0.002248 0.000256 0.001722
-0.002978 0.000694 0.00028
-0.002525 0.000354 0.000471
-0.002491 0.000366 0.000483
-0.002469 0.000372 0.000499
-0.002452 0.000376 0.000518
-0.00244 0.000376 0.000539
-0.002431 0.000375 0.000562
-0.003004 0.000608 0.00016
-0.002734 0.000651 0.000964
-0.002628 0.000703 -0.000101
-0.002934 0.000546 0.000348
-0.00181 -3e-05 0.001062
-0.002523 0.000707 0.00076
-0.002817 0.000623 0.000405
-0.002792 0.000132 0.00103
-0.002803 0.000121 0.001061
-0.002799 0.000118 0.001086
-0.002793 0.000116 0.00111
-0.002785 0.000115 0.001134
-0.002776 0.000114 0.001157
-0.002766 0.000113 0.001179
-0.002756 0.000114 0.001202
-0.002744 0.000114 0.001223
-0.002731 0.000116 0.001245
-0.002715 0.000118 0.001264
-0.002688 0.000127 0.001279
-0.002646 0.000143 0.001287
-0.002602 0.000161 0.001293
-0.002559 0.000177 0.001301
-0.002111 0.00036 0.001337
-0.002099 0.000361 0.001359
-0.00209 0.00036 0.001381
-0.002084 0.000358 0.001406
-0.002084 0.000352 0.001433
-0.002091 0.000343 0.001464
-0.002112 0.000327 0.001501
-0.002144 0.000306 0.001543
-0.00217 0.000287 0.001582
-0.00219 0.000272 0.001618
-0.002209 0.000256 0.001654
-0.002227 0.000242 0.001689
-0.00256 0.000315 0.000463
-0.002524 0.000327 0.000469
-0.002491 0.000339 0.000482
-0.002468 0.000345 0.000499
-0.002452 0.000349 0.000518
-0.00244 0.000349 0.000539
-0.002431 0.000348 0.000562
-0.002683 0.000732 0.000908
-0.002625 0.000709 0.00085
-0.00276 0.000611 0.000992
-0.00243 0.000756 0.000671
-0.002995 0.000523 0.000283
-0.002969 0.000532 0.000329
-0.00279 0.000106 0.001029
-0.002798 9.7e-05 0.001058
-0.002793 9.4e-05 0.001083
-0.002786 9.2e-05 0.001107
-0.002778 9.1e-05 0.001131
-0.00277 9e-05 0.001154
-0.00276 8.9e-05 0.001177
-0.00275 9e-05 0.001199
-0.002738 9e-05 0.001221
-0.002725 9.2e-05 0.001242
-0.002709 9.4e-05 0.001262
-0.002686 0.000101 0.001278
-0.002646 0.000116 0.001287
-0.002601 0.000134 0.001293
-0.002558 0.000151 0.0013
-0.00211 0.000333 0.001337
-0.002098 0.000334 0.001358
-0.00209 0.000333 0.001381
-0.002084 0.000331 0.001406
-0.002084 0.000325 0.001433
-0.002092 0.000316 0.001464
-0.002114 0.000299 0.001501
-0.002146 0.000277 0.001544
-0.00217 0.00026 0.001582
-0.00219 0.000245 0.001618
-0.002211 0.000229 0.001654
-0.002228 0.000215 0.001689
-0.002559 0.000288 0.000459
-0.002524 0.0003 0.000469
-0.00249 0.000312 0.000481
-0.002468 0.000318 0.000498
-0.002452 0.000321 0.000518
-0.00244 0.000322 0.000539
-0.002431 0.000321 0.000562
-0.002716 0.000716 0.000931
-0.002654 0.000693 0.000879
-0.002734 0.000624 0.000965
-0.002861 0.000679 -0.000862
-0.002989 0.000524 0.000307
-0.002997 0.000523 0.000258
-0.002423 0.000682 0.00062
-0.001822 -3.1e-05 0.001041
-0.00248 0.000687 -0.000243
-0.002786 8e-05 0.001026
-0.002789 7.4e-05 0.001054
-0.002784 7.1e-05 0.001079
-0.002777 6.9e-05 0.001103
-0.002769 6.8e-05 0.001127
-0.002761 6.7e-05 0.00115
-0.002751 6.7e-05 0.001172
-0.00274 6.7e-05 0.001195
-0.002729 6.8e-05 0.001216
-0.002716 6.9e-05 0.001238
-0.002701 7.1e-05 0.001258
-0.002681 7.6e-05 0.001276
-0.002646 8.9e-05 0.001287
-0.002603 0.000106 0.001294
-0.002557 0.000124 0.0013
-0.002493 0.000152 0.001297
-0.00211 0.000306 0.001337
-0.002099 0.000307 0.001358
-0.00209 0.000306 0.001381
-0.002084 0.000303 0.001406
-0.002084 0.000298 0.001433
-0.002091 0.000289 0.001464
-0.002114 0.000272 0.001501
-0.002146 0.000251 0.001543
-0.002169 0.000233 0.001581
-0.00219 0.000217 0.001618
-0.00221 0.000202 0.001655
-0.002226 0.000188 0.001689
-0.002245 0.000174 0.001723
-0.002559 0.00026 0.000459
-0.002523 0.000273 0.000469
-0.00249 0.000285 0.000481
-0.002468 0.000291 0.000498
-0.002452 0.000294 0.000518
-0.00244 0.000295 0.000539
-0.002431 0.000294 0.000562
-0.002764 0.000728 0.000422
-0.002581 0.000736 0.000743
-0.002654 0.000666 0.000879
-0.002479 0.000717 -0.000269
-0.002995 0.000468 0.000283
-0.002999 0.00047 0.000234
-0.002482 0.000741 -0.000243
-0.003 0.000463 9.7e-05
-0.002777 5.8e-05 0.001022
-0.002778 5.2e-05 0.001049
-0.002772 5e-05 0.001074
-0.002765 4.8e-05 0.001098
-0.002757 4.7e-05 0.001121
-0.002749 4.6e-05 0.001144
-0.002739 4.6e-05 0.001167
-0.002728 4.6e-05 0.001189
-0.002717 4.7e-05 0.001211
-0.002704 4.8e-05 0.001232
-0.00269 5e-05 0.001253
-0.002672 5.4e-05 0.001272
-0.002644 6.3e-05 0.001286
-0.002603 7.8e-05 0.001294
-0.002557 9.7e-05 0.0013
-0.002492 0.000125 0.001297
-0.001833 -3.1e-05 0.001019
-0.00211 0.000279 0.001337
-0.002099 0.00028 0.001359
-0.00209 0.000279 0.001381
-0.002084 0.000276 0.001406
-0.002084 0.000271 0.001433
-0.002091 0.000262 0.001464
-0.002112 0.000246 0.001501
-0.002147 0.000223 0.001544
-0.00217 0.000205 0.001582
-0.002191 0.000189 0.001619
-0.00221 0.000174 0.001655
-0.002226 0.000161 0.001689
-0.002245 0.000147 0.001723
-0.00256 0.000233 0.000463
-0.002522 0.000247 0.000469
-0.00249 0.000258 0.000482
-0.002468 0.000264 0.000498
-0.002451 0.000267 0.000518
-0.00244 0.000268 0.000539
-0.002431 0.000267 0.000562
-0.002839 0.000585 -5e-06
-0.002683 0.000678 0.000907
-0.002594 0.000698 0.00082
-0.00276 0.000594 0.000422
-0.002861 0.00055 0.000387
-0.002989 0.000496 0.000307
-0.002934 0.000519 0.000348
-0.002764 3.8e-05 0.001017
-0.002763 3.3e-05 0.001042
-0.002757 3e-05 0.001067
-0.00275 2.9e-05 0.001091
-0.002742 2.8e-05 0.001114
-0.002733 2.7e-05 0.001137
-0.002723 2.7e-05 0.001159
-0.002712 2.7e-05 0.001182
-0.002701 2.7e-05 0.001204
-0.002689 2.8e-05 0.001225
-0.002675 3e-05 0.001246
-0.002659 3.3e-05 0.001266
-0.002636 4e-05 0.001282
-0.002602 5.2e-05 0.001293
-0.002558 6.9e-05 0.0013
-0.001844 -3.2e-05 0.000997
-0.002111 0.000252 0.001337
-0.002099 0.000253 0.001359
-0.00209 0.000252 0.001382
-0.002084 0.000249 0.001406
-0.002085 0.000243 0.001434
-0.002091 0.000235 0.001464
-0.002114 0.000218 0.001502
-0.002147 0.000195 0.001544
-0.002171 0.000178 0.001582
-0.00219 0.000163 0.001618
-0.00221 0.000147 0.001655
-0.002227 0.000133 0.00169
-0.002245 0.00012 0.001723
-0.002898 0.00048 0.000368
-0.002524 0.000219 0.000472
-0.002491 0.000231 0.000483
-0.002468 0.000237 0.000499
-0.002451 0.00024 0.000518
-0.00244 0.000241 0.000539
-0.00293 0.000711 0.000348
-0.003 0.000605 0.000234
-0.002595 0.000724 0.00082
-0.002861 0.000604 0.000387
-0.003001 0.000525 0.000209
-0.001855 -3.2e-05 0.000974
-0.002969 0.000504 0.000329
-0.00271 0.000664 0.000935
-0.002746 2e-05 0.001008
-0.002744 1.6e-05 0.001033
-0.002737 1.4e-05 0.001057
-0.002729 1.2e-05 0.001081
-0.002721 1.1e-05 0.001104
-0.002712 1.1e-05 0.001127
-0.002702 1e-05 0.00115
-0.002692 1e-05 0.001172
-0.002681 1.1e-05 0.001194
-0.002669 1.2e-05 0.001216
-0.002656 1.3e-05 0.001237
-0.002641 1.5e-05 0.001257
-0.002622 2e-05 0.001275
-0.002592 3e-05 0.001289
-0.002099 0.000225 0.001359
-0.00209 0.000224 0.001382
