-0.002491 0.000408 -0.001395
-0.002465 0.000426 -0.001357
-0.002434 0.000447 -0.001316
-0.0024 0.00047 -0.001274
-0.002365 0.000493 -0.001232
-0.002328 0.000517 -0.001188
-0.002289 0.000541 -0.001144
-0.00226 0.000562 -0.001104
-0.002251 0.000571 -0.001073
-0.00225 0.000577 -0.001046
-0.002254 0.00058 -0.00102
-0.002263 0.000581 -0.000997
-0.002274 0.00058 -0.000975
-0.002288 0.000578 -0.000954
-0.002305 0.000574 -0.000935
-0.002328 0.000568 -0.000919
-0.002361 0.000556 -0.000906
-0.002415 0.000534 -0.000903
-0.002479 0.000506 -0.000905
-0.002531 0.000485 -0.000901
-0.00258 0.000465 -0.000896
-0.002627 0.000446 -0.00089
-0.002671 0.000429 -0.000882
-0.002714 0.000412 -0.000874
-0.002755 0.000396 -0.000866
-0.002795 0.000381 -0.000856
-0.002833 0.000367 -0.000847
-0.002864 0.000356 -0.000834
-0.002878 0.000354 -0.000813
-0.002885 0.000356 -0.000789
-0.002891 0.000358 -0.000765
-0.002898 0.00036 -0.00074
-0.001811 0.000718 -0.001683
-0.002261 0.000632 -0.001709
-0.002493 0.000596 -0.001647
-0.00191 0.000611 -0.002283
-0.001878 0.000638 -0.002321
-0.002511 0.000329 -0.00162
-0.002525 0.000327 -0.001599
-0.002538 0.000326 -0.001578
-0.00255 0.000325 -0.001556
-0.002552 0.000329 -0.00153
-0.00254 0.000341 -0.001498
-0.002524 0.000354 -0.001464
-0.002508 0.000367 -0.00143
-0.002491 0.000381 -0.001395
-0.002466 0.000399 -0.001357
-0.0024 0.000443 -0.001274
-0.002366 0.000465 -0.001232
-0.002328 0.00049 -0.001188
-0.002288 0.000515 -0.001143
-0.00226 0.000535 -0.001104
-0.00225 0.000545 -0.001073
-0.00225 0.00055 -0.001045
-0.002254 0.000553 -0.00102
-0.002263 0.000553 -0.000997
-0.002274 0.000553 -0.000975
-0.002288 0.000551 -0.000954
-0.002305 0.000547 -0.000935
-0.002328 0.000541 -0.000919
-0.00236 0.00053 -0.000906
-0.002479 0.000479 -0.000905
-0.002532 0.000457 -0.000901
-0.002581 0.000438 -0.000896
-0.002627 0.000419 -0.000889
-0.002671 0.000402 -0.000882
-0.002714 0.000385 -0.000874
-0.002755 0.000369 -0.000866
-0.002795 0.000354 -0.000857
-0.002834 0.000339 -0.000847
-0.002865 0.000329 -0.000834
-0.002877 0.000328 -0.000812
-0.002885 0.000329 -0.000789
-0.002891 0.000331 -0.000765
-0.002898 0.000333 -0.00074
-0.001855 0.000619 -0.002341
-0.001847 0.000699 -0.001972
-0.002465 0.000593 -0.001688
-0.001879 0.00061 -0.002322
-0.002463 0.000649 -0.001686
-0.002511 0.000302 -0.00162
-0.002525 0.0003 -0.001599
-0.002538 0.000299 -0.001578
-0.00255 0.000298 -0.001556
-0.002552 0.000302 -0.00153
-0.00254 0.000313 -0.001498
-0.002524 0.000327 -0.001464
-0.002508 0.00034 -0.00143
-0.00249 0.000354 -0.001395
-0.002465 0.000372 -0.001357
-0.002433 0.000393 -0.001316
-0.002399 0.000416 -0.001274
-0.002365 0.000438 -0.001232
-0.002288 0.000488 -0.001143
-0.002259 0.000508 -0.001104
-0.00225 0.000517 -0.001073
-0.00225 0.000523 -0.001045
-0.002253 0.000526 -0.00102
-0.002263 0.000526 -0.000997
-0.002274 0.000526 -0.000975
-0.002288 0.000524 -0.000954
-0.002306 0.00052 -0.000935
-0.002328 0.000513 -0.000919
-0.002361 0.000502 -0.000906
-0.002417 0.000479 -0.000904
-0.00248 0.000452 -0.000905
-0.002532 0.00043 -0.000901
-0.002581 0.00041 -0.000896
-0.002627 0.000392 -0.00089
-0.002671 0.000375 -0.000882
-0.002714 0.000358 -0.000874
-0.002755 0.000342 -0.000866
-0.002796 0.000326 -0.000857
-0.002834 0.000312 -0.000847
-0.002864 0.000302 -0.000833
-0.002877 0.0003 -0.000812
-0.002885 0.000302 -0.000789
-0.002892 0.000303 -0.000765
-0.002898 0.000305 -0.00074
-0.002493 0.000541 -0.001647
-0.002164 0.000672 -0.001692
-0.00252 0.000599 -0.001606
-0.001896 0.000609 -0.002304
-0.002307 0.000695 -0.001716
-0.002511 0.000275 -0.00162
-0.002525 0.000273 -0.001599
-0.002538 0.000272 -0.001578
-0.00255 0.000271 -0.001556
-0.002552 0.000275 -0.00153
-0.002539 0.000286 -0.001498
-0.002524 0.000299 -0.001464
-0.002508 0.000313 -0.00143
-0.00249 0.000327 -0.001395
-0.002465 0.000345 -0.001357
-0.002432 0.000367 -0.001315
-0.002398 0.000389 -0.001273
-0.002365 0.000411 -0.001232
-0.002327 0.000436 -0.001188
-0.002287 0.000461 -0.001143
-0.002259 0.000481 -0.001103
-0.00225 0.00049 -0.001072
-0.00225 0.000496 -0.001045
-0.002253 0.000499 -0.00102
-0.002263 0.000499 -0.000997
-0.002274 0.000499 -0.000975
-0.002288 0.000497 -0.000954
-0.002305 0.000493 -0.000935
-0.002329 0.000486 -0.000919
-0.002362 0.000474 -0.000907
-0.002417 0.000451 -0.000904
-0.00248 0.000424 -0.000905
-0.002532 0.000403 -0.000901
-0.002581 0.000383 -0.000896
-0.002628 0.000364 -0.00089
-0.002671 0.000347 -0.000882
-0.002714 0.000331 -0.000875
-0.002756 0.000315 -0.000866
-0.002796 0.000299 -0.000857
-0.002834 0.000285 -0.000847
-0.002865 0.000275 -0.000834
-0.002877 0.000273 -0.000812
-0.002885 0.000275 -0.000789
-0.002892 0.000276 -0.000765
-0.002898 0.000278 -0.000741
-0.001775 0.000728 -0.001782
-0.002348 0.000571 -0.001719
-0.001785 0.000788 -0.001661
-0.00245 0.000565 -0.001708
-0.002507 0.000597 -0.001626
-0.001911 0.000619 -0.002252
-0.001093 0.000661 -0.002663
-0.002457 0.00068 -0.001681
-0.002524 0.000246 -0.001599
-0.002538 0.000244 -0.001578
-0.002549 0.000244 -0.001556
-0.002552 0.000248 -0.00153
-0.002539 0.00026 -0.001497
-0.002524 0.000272 -0.001464
-0.002508 0.000285 -0.00143
-0.002491 0.000299 -0.001395
-0.002466 0.000317 -0.001357
-0.002433 0.000339 -0.001315
-0.002398 0.000362 -0.001273
-0.002366 0.000384 -0.001232
-0.002328 0.000408 -0.001188
-0.002287 0.000434 -0.001143
-0.002258 0.000454 -0.001103
-0.00225 0.000463 -0.001072
-0.00225 0.000468 -0.001045
-0.002253 0.000472 -0.00102
-0.002262 0.000472 -0.000997
-0.002274 0.000472 -0.000975
-0.002287 0.00047 -0.000954
-0.002305 0.000466 -0.000935
-0.002329 0.000459 -0.000919
-0.002362 0.000447 -0.000906
-0.002417 0.000424 -0.000904
-0.002481 0.000397 -0.000905
-0.002532 0.000376 -0.000901
-0.002581 0.000356 -0.000896
-0.002628 0.000337 -0.00089
-0.002671 0.00032 -0.000882
-0.002714 0.000304 -0.000874
-0.002755 0.000288 -0.000866
-0.002796 0.000272 -0.000857
-0.002833 0.000258 -0.000847
-0.002864 0.000248 -0.000833
-0.002877 0.000246 -0.000812
-0.002885 0.000247 -0.000788
-0.002891 0.000249 -0.000764
-0.002898 0.000251 -0.00074
-0.001911 0.000556 -0.002284
-0.002392 0.000581 -0.001723
-0.002349 0.000598 -0.001719
-0.001905 0.000616 -0.002182
-0.002392 0.000608 -0.001724
-0.001099 0.000673 -0.002628
-0.002506 0.000652 -0.001626
-0.00235 0.000706 -0.00172
-0.002525 0.000219 -0.001599
-0.002538 0.000217 -0.001578
-0.002549 0.000217 -0.001556
-0.002551 0.000221 -0.00153
-0.002539 0.000232 -0.001497
-0.002523 0.000245 -0.001463
-0.002508 0.000258 -0.00143
-0.002491 0.000272 -0.001395
-0.002465 0.000291 -0.001357
-0.002432 0.000312 -0.001315
-0.002399 0.000334 -0.001274
-0.002365 0.000357 -0.001231
-0.002328 0.000381 -0.001188
-0.002258 0.000427 -0.001103
-0.00225 0.000436 -0.001072
-0.00225 0.000441 -0.001045
-0.002253 0.000445 -0.00102
-0.002262 0.000445 -0.000997
-0.002274 0.000444 -0.000975
-0.002287 0.000442 -0.000954
-0.002305 0.000439 -0.000935
-0.002329 0.000432 -0.000919
-0.002362 0.00042 -0.000906
-0.002416 0.000397 -0.000904
-0.002481 0.000369 -0.000906
-0.002531 0.000349 -0.000901
-0.002581 0.000329 -0.000896
-0.002628 0.00031 -0.00089
-0.002671 0.000293 -0.000882
-0.002714 0.000276 -0.000874
-0.002755 0.000261 -0.000866
-0.002796 0.000245 -0.000857
-0.002834 0.000231 -0.000847
-0.002864 0.000221 -0.000833
-0.002877 0.000219 -0.000812
-0.002885 0.00022 -0.000789
-0.002891 0.000222 -0.000764
-0.002898 0.000224 -0.00074
-0.001092 0.000716 -0.002662
-0.0019 0.000628 -0.002146
-0.001815 0.000481 -0.002371
-0.001836 0.000743 -0.001931
-0.002393 0.000635 -0.001724
-0.002446 0.00065 -0.001704
0.000838 -1e-05 0.001994
-0.002525 0.000192 -0.001599
-0.002538 0.00019 -0.001578
-0.002548 0.00019 -0.001555
-0.002551 0.000194 -0.001529
-0.002539 0.000205 -0.001497
-0.002524 0.000218 -0.001464
-0.002508 0.000231 -0.00143
-0.002491 0.000245 -0.001395
-0.002464 0.000264 -0.001356
-0.002433 0.000285 -0.001315
-0.0024 0.000307 -0.001274
-0.002364 0.00033 -0.001231
-0.002327 0.000354 -0.001188
-0.002287 0.00038 -0.001143
-0.002259 0.000399 -0.001103
-0.002251 0.000408 -0.001073
-0.00225 0.000414 -0.001045
-0.002253 0.000418 -0.00102
-0.002262 0.000418 -0.000997
-0.002274 0.000417 -0.000975
-0.002288 0.000415 -0.000954
-0.002305 0.000412 -0.000935
-0.002329 0.000405 -0.000919
-0.002361 0.000393 -0.000906
-0.002417 0.00037 -0.000904
-0.002481 0.000342 -0.000906
-0.002532 0.000321 -0.000901
-0.002582 0.000301 -0.000897
-0.002628 0.000283 -0.00089
-0.002671 0.000266 -0.000882
-0.002715 0.000249 -0.000875
-0.002756 0.000233 -0.000866
-0.002796 0.000218 -0.000857
-0.002834 0.000204 -0.000847
-0.002863 0.000194 -0.000833
-0.002876 0.000192 -0.000812
-0.002884 0.000193 -0.000788
-0.002891 0.000195 -0.000764
-0.002898 0.000197 -0.00074
-0.002307 0.000586 -0.001716
-0.002114 0.000693 -0.001681
-0.002479 0.000594 -0.001668
-0.001908 0.000631 -0.002217
-0.002261 0.000686 -0.001709
-0.00191 0.000674 -0.002252
-0.002524 0.000165 -0.001598
-0.002536 0.000164 -0.001577
-0.002547 0.000164 -0.001555
-0.00255 0.000167 -0.001529
-0.002539 0.000178 -0.001497
-0.002524 0.000191 -0.001464
-0.002508 0.000204 -0.00143
-0.00249 0.000218 -0.001395
-0.002464 0.000237 -0.001356
-0.002433 0.000258 -0.001315
-0.0024 0.000279 -0.001274
-0.002327 0.000327 -0.001187
-0.002287 0.000352 -0.001143
-0.002259 0.000372 -0.001103
-0.002251 0.000381 -0.001073
-0.00225 0.000387 -0.001045
-0.002253 0.00039 -0.00102
-0.002263 0.000391 -0.000997
-0.002274 0.00039 -0.000975
-0.002288 0.000388 -0.000954
-0.002305 0.000384 -0.000935
-0.002329 0.000377 -0.000919
-0.002361 0.000366 -0.000906
-0.002417 0.000343 -0.000904
-0.00248 0.000316 -0.000905
-0.002534 0.000294 -0.000902
-0.002582 0.000274 -0.000896
-0.002627 0.000256 -0.000889
-0.002671 0.000239 -0.000882
-0.002716 0.000221 -0.000875
-0.002756 0.000206 -0.000866
-0.002796 0.000191 -0.000857
-0.002834 0.000176 -0.000847
-0.002861 0.000168 -0.000832
-0.002875 0.000166 -0.000811
-0.002884 0.000166 -0.000788
-0.002891 0.000168 -0.000764
-0.002898 0.00017 -0.00074
-0.001893 0.000615 -0.002108
-0.002061 0.000715 -0.001669
0.000814 -1e-05 0.002003
-0.002493 0.000623 -0.001647
-0.001032 0.000452 -0.002802
-0.001691 0.000635 -0.002407
-0.002523 0.000138 -0.001598
-0.002535 0.000138 -0.001576
-0.002544 0.000138 -0.001554
-0.002549 0.000141 -0.001528
-0.00254 0.000151 -0.001497
-0.002523 0.000164 -0.001463
-0.002508 0.000177 -0.00143
-0.002491 0.000191 -0.001395
-0.002463 0.00021 -0.001356
-0.002433 0.00023 -0.001315
-0.0024 0.000252 -0.001274
-0.002365 0.000276 -0.001231
-0.002326 0.0003 -0.001187
-0.002287 0.000325 -0.001143
-0.002259 0.000345 -0.001103
-0.002251 0.000354 -0.001073
-0.00225 0.00036 -0.001045
-0.002254 0.000363 -0.00102
-0.002263 0.000363 -0.000997
-0.002274 0.000363 -0.000975
-0.002288 0.000361 -0.000954
-0.002305 0.000357 -0.000935
-0.002329 0.00035 -0.000919
-0.002361 0.000339 -0.000906
-0.002417 0.000316 -0.000904
-0.002481 0.000288 -0.000905
-0.002533 0.000267 -0.000902
-0.002582 0.000247 -0.000896
-0.002626 0.000229 -0.000889
-0.002672 0.000211 -0.000882
-0.002716 0.000194 -0.000875
-0.002756 0.000179 -0.000866
-0.002796 0.000163 -0.000857
-0.002834 0.000149 -0.000847
-0.002859 0.000141 -0.000831
-0.002872 0.00014 -0.00081
-0.002882 0.00014 -0.000787
-0.00289 0.000141 -0.000764
-0.002897 0.000143 -0.00074
-0.001785 0.000742 -0.001725
-0.001862 0.00068 -0.002017
-0.001847 0.000727 -0.001972
-0.001855 0.000591 -0.002341
-0.001874 0.000593 -0.002326
-0.00189 0.000667 -0.002299
-0.001903 0.000725 -0.002181
-0.00252 0.000113 -0.001597
-0.002531 0.000112 -0.001575
-0.00254 0.000113 -0.001552
-0.002546 0.000115 -0.001527
-0.002539 0.000124 -0.001497
-0.002524 0.000137 -0.001463
-0.002508 0.00015 -0.001429
-0.002491 0.000163 -0.001395
-0.002463 0.000183 -0.001356
-0.002433 0.000203 -0.001315
-0.002365 0.000248 -0.001231
-0.002325 0.000274 -0.001187
-0.002285 0.000299 -0.001142
-0.002259 0.000318 -0.001103
-0.002251 0.000327 -0.001073
-0.00225 0.000333 -0.001045
-0.002254 0.000336 -0.00102
-0.002263 0.000336 -0.000997
-0.002274 0.000336 -0.000975
-0.002288 0.000334 -0.000954
-0.002305 0.00033 -0.000935
-0.002328 0.000323 -0.000918
-0.002361 0.000312 -0.000906
-0.002417 0.000288 -0.000904
-0.002481 0.000261 -0.000906
-0.002533 0.000239 -0.000902
-0.002582 0.000219 -0.000897
-0.002628 0.000201 -0.00089
-0.002672 0.000184 -0.000882
-0.002715 0.000167 -0.000875
-0.002756 0.000151 -0.000866
-0.002796 0.000136 -0.000857
-0.002833 0.000122 -0.000846
-0.002856 0.000116 -0.000829
-0.002869 0.000115 -0.000808
-0.002879 0.000115 -0.000786
-0.002887 0.000116 -0.000762
-0.002894 0.000117 -0.000739
-0.002261 0.000605 -0.001709
-0.001101 0.000697 -0.002496
-0.002464 0.000621 -0.001688
-0.002425 0.000653 -0.001719
-0.0025 0.000682 -0.001621
-0.002489 9.1e-05 -0.001637
-0.002502 9e-05 -0.001616
-0.002514 8.9e-05 -0.001594
-0.002525 8.8e-05 -0.001572
-0.002534 8.9e-05 -0.001549
-0.002541 9.1e-05 -0.001525
-0.002538 9.7e-05 -0.001497
-0.002523 0.00011 -0.001463
-0.002508 0.000123 -0.00143
-0.00249 0.000137 -0.001395
-0.002465 0.000155 -0.001356
-0.002432 0.000177 -0.001315
-0.002398 0.000199 -0.001273
-0.002364 0.000222 -0.001231
-0.002325 0.000247 -0.001186
-0.002284 0.000273 -0.001141
-0.002258 0.000291 -0.001103
-0.002251 0.0003 -0.001072
-0.00225 0.000305 -0.001045
-0.002254 0.000308 -0.00102
-0.002262 0.000309 -0.000997
-0.002274 0.000308 -0.000975
-0.002288 0.000307 -0.000954
-0.002305 0.000303 -0.000935
-0.002329 0.000296 -0.000918
-0.002361 0.000284 -0.000906
-0.002481 0.000233 -0.000906
-0.002533 0.000212 -0.000902
-0.002583 0.000192 -0.000897
-0.002627 0.000175 -0.000889
-0.002672 0.000157 -0.000882
-0.002715 0.00014 -0.000874
-0.002756 0.000124 -0.000866
-0.002796 0.000109 -0.000857
-0.002831 9.7e-05 -0.000845
-0.002849 9.2e-05 -0.000827
-0.002862 9.1e-05 -0.000805
-0.002872 9.1e-05 -0.000783
-0.002881 9.1e-05 -0.00076
-0.002889 9.3e-05 -0.000736
-0.0019 0.000574 -0.002146
-0.00245 0.000593 -0.001707
-0.001908 0.000658 -0.002217
-0.001102 0.00058 -0.002587
-0.002466 7.1e-05 -0.001653
-0.002479 6.9e-05 -0.001633
-0.002492 6.7e-05 -0.001611
-0.002504 6.6e-05 -0.00159
-0.002515 6.6e-05 -0.001567
-0.002525 6.6e-05 -0.001545
-0.002532 6.8e-05 -0.001521
-0.002534 7.2e-05 -0.001495
-0.002523 8.2e-05 -0.001463
-0.002507 9.6e-05 -0.001429
-0.002491 0.000109 -0.001395
-0.002463 0.000128 -0.001356
-0.002432 0.000149 -0.001315
-0.002398 0.000172 -0.001273
-0.002362 0.000195 -0.00123
-0.002325 0.000219 -0.001186
-0.002285 0.000245 -0.001142
-0.002258 0.000264 -0.001103
-0.00225 0.000273 -0.001072
-0.002249 0.000278 -0.001045
-0.002254 0.000281 -0.00102
-0.002262 0.000282 -0.000997
-0.002274 0.000281 -0.000975
-0.002288 0.000279 -0.000954
-0.002305 0.000276 -0.000935
-0.002329 0.000269 -0.000918
-0.002362 0.000257 -0.000906
-0.002416 0.000234 -0.000904
-0.002481 0.000207 -0.000905
-0.002533 0.000185 -0.000901
-0.002582 0.000165 -0.000896
-0.002628 0.000147 -0.00089
-0.002671 0.00013 -0.000882
-0.002715 0.000113 -0.000875
-0.002756 9.7e-05 -0.000866
-0.002795 8.2e-05 -0.000856
-0.002825 7.2e-05 -0.000842
-0.002841 6.9e-05 -0.000823
-0.002853 6.8e-05 -0.000801
-0.002863 6.8e-05 -0.000779
-0.001807 0.000689 -0.001874
-0.001879 0.000688 -0.002063
-0.001893 0.000724 -0.002107
-0.002439 5.2e-05 -0.001668
-0.002454 5e-05 -0.001648
-0.002467 4.8e-05 -0.001627
-0.00248 4.7e-05 -0.001606
-0.002492 4.6e-05 -0.001584
-0.002502 4.5e-05 -0.001562
-0.002512 4.5e-05 -0.001539
-0.00252 4.6e-05 -0.001516
-0.002525 4.9e-05 -0.001491
-0.002521 5.7e-05 -0.001462
-0.002508 6.8e-05 -0.001429
-0.00249 8.2e-05 -0.001395
-0.002463 0.000101 -0.001356
-0.002433 0.000121 -0.001316
-0.002399 0.000144 -0.001273
-0.002324 0.000193 -0.001186
-0.002283 0.000219 -0.001141
-0.002259 0.000236 -0.001103
-0.00225 0.000246 -0.001072
-0.002249 0.000251 -0.001045
-0.002254 0.000254 -0.00102
-0.002263 0.000255 -0.000997
-0.002274 0.000254 -0.000975
-0.002287 0.000252 -0.000954
-0.002305 0.000249 -0.000935
-0.002329 0.000242 -0.000918
-0.002362 0.00023 -0.000906
-0.002418 0.000207 -0.000904
-0.00248 0.00018 -0.000905
-0.002533 0.000158 -0.000902
-0.002581 0.000139 -0.000896
-0.002629 0.000119 -0.00089
-0.002671 0.000103 -0.000882
-0.002714 8.6e-05 -0.000874
-0.002755 7e-05 -0.000866
-0.002792 5.7e-05 -0.000855
-0.002815 5e-05 -0.000838
-0.00283 4.7e-05 -0.000818
-0.001936 0.000744 -0.001628
-0.001894 0.000696 -0.002109
-0.002408 3.6e-05 -0.001681
-0.002424 3.3e-05 -0.001661
-0.002438 3.1e-05 -0.001641
-0.002451 2.9e-05 -0.00162
-0.002464 2.8e-05 -0.001599
-0.002475 2.7e-05 -0.001577
-0.002486 2.7e-05 -0.001554
-0.002496 2.7e-05 -0.001532
-0.002504 2.7e-05 -0.001509
-0.002511 2.9e-05 -0.001485
-0.002512 3.4e-05 -0.001458
-0.002506 4.2e-05 -0.001429
-0.00249 5.5e-05 -0.001394
-0.002464 7.4e-05 -0.001356
-0.002432 9.5e-05 -0.001315
-0.002398 0.000117 -0.001273
-0.002323 0.000166 -0.001186
-0.002284 0.000191 -0.001141
-0.002259 0.000209 -0.001103
-0.00225 0.000219 -0.001072
-0.002249 0.000224 -0.001045
-0.002254 0.000227 -0.00102
-0.002262 0.000228 -0.000997
-0.002274 0.000227 -0.000975
-0.002287 0.000225 -0.000954
-0.002305 0.000221 -0.000935
-0.002328 0.000215 -0.000918
-0.00236 0.000204 -0.000905
-0.002481 0.000152 -0.000905
-0.002533 0.000131 -0.000902
-0.002582 0.000111 -0.000896
-0.002628 9.3e-05 -0.00089
-0.002671 7.6e-05 -0.000882
-0.002714 5.9e-05 -0.000874
-0.002753 4.4e-05 -0.000865
-0.002782 3.4e-05 -0.000851
-0.002801 3e-05 -0.000832
-0.002059 0.000662 -0.001667
-0.002372 2.3e-05 -0.001692
-0.002389 1.9e-05 -0.001673
-0.002403 1.6e-05 -0.001652
-0.002416 1.4e-05 -0.001631
-0.002429 1.3e-05 -0.00161
-0.00244 1.2e-05 -0.001588
-0.002452 1.2e-05 -0.001566
-0.002463 1.1e-05 -0.001544
-0.002473 1.1e-05 -0.001522
-0.002482 1.2e-05 -0.001499
-0.00249 1.3e-05 -0.001476
-0.002494 1.5e-05 -0.00145
-0.002494 2.1e-05 -0.001423
-0.002484 3.1e-05 -0.001392
-0.002462 4.7e-05 -0.001355
-0.002431 6.8e-05 -0.001315
-0.002396 9.1e-05 -0.001272
-0.002323 0.000139 -0.001185
-0.002284 0.000164 -0.001141
-0.002258 0.000182 -0.001103
-0.00225 0.000192 -0.001072
-0.002249 0.000197 -0.001045
-0.002253 0.0002 -0.00102
-0.002262 0.000201 -0.000997
-0.002273 0.0002 -0.000975
-0.002287 0.000198 -0.000954
-0.002305 0.000194 -0.000935
-0.002329 0.000187 -0.000918
-0.002361 0.000176 -0.000906
-0.002481 0.000125 -0.000905
-0.002533 0.000104 -0.000901
-0.002582 8.4e-05 -0.000896
-0.002627 6.6e-05 -0.000889
-0.00267 4.9e-05 -0.000882
-0.002711 3.3e-05 -0.000873
-0.002743 2.2e-05 -0.00086
-0.002765 1.6e-05 -0.000843
-0.00278 1.3e-05 -0.000823
-0.001874 0.00062 -0.002326
-0.002328 1.2e-05 -0.0017
-0.002346 8e-06 -0.001681
-0.002361 5e-06 -0.001661
-0.002373 4e-06 -0.001639
-0.002385 3e-06 -0.001617
-0.002396 2e-06 -0.001596
-0.002407 2e-06 -0.001573
-0.002417 2e-06 -0.001551
-0.001911 0.000528 -0.002284
-0.001913 0.000538 -0.002252
-0.002448 2e-06 -0.001484
-0.002457 2e-06 -0.001461
-0.002464 5e-06 -0.001437
-0.001829 0.000744 -0.001666
-0.002468 1.2e-05 -0.001385
-0.002457 2.3e-05 -0.001353
-0.002431 4.1e-05 -0.001314
-0.002396 6.4e-05 -0.001272
-0.002284 0.000136 -0.001141
-0.002258 0.000155 -0.001103
-0.002249 0.000165 -0.001072
-0.002249 0.00017 -0.001045
-0.002254 0.000173 -0.00102
-0.002262 0.000173 -0.000997
-0.002273 0.000173 -0.000975
-0.002287 0.000171 -0.000954
-0.002305 0.000167 -0.000935
-0.002328 0.00016 -0.000918
-0.00236 0.000149 -0.000905
-0.002479 9.9e-05 -0.000904
-0.002533 7.7e-05 -0.000901
-0.002581 5.7e-05 -0.000896
-0.002627 3.9e-05 -0.000889
-0.002667 2.4e-05 -0.00088
-0.002699 1.2e-05 -0.000867
-0.002721 6e-06 -0.00085
-0.002736 4e-06 -0.00083
-0.001606 0.000645 -0.002367
-0.001835 0.000482 -0.002356
-0.002304 2e-06 -0.001662
-0.002315 1e-06 -0.00164
-0.002326 1e-06 -0.001618
-0.002334 2e-06 -0.001595
-0.002343 2e-06 -0.001572
-0.002353 2e-06 -0.001549
-0.00236 4e-06 -0.001525
-0.002419 5e-06 -0.00139
-0.002426 6e-06 -0.001366
-0.002434 7e-06 -0.001343
-0.002424 1.8e-05 -0.001311
-0.002396 3.7e-05 -0.001272
-0.002321 8.5e-05 -0.001185
-0.002286 0.000109 -0.001142
-0.002257 0.000128 -0.001102
-0.002249 0.000137 -0.001072
-0.002249 0.000143 -0.001045
-0.002254 0.000146 -0.00102
-0.002262 0.000146 -0.000997
-0.002273 0.000146 -0.000975
-0.002287 0.000144 -0.000954
-0.002305 0.00014 -0.000935
-0.002329 0.000133 -0.000918
-0.00236 0.000122 -0.000905
-0.002479 7.2e-05 -0.000904
-0.002534 4.9e-05 -0.000902
-0.002581 3e-05 -0.000896
-0.00262 1.5e-05 -0.000886
-0.002648 6e-06 -0.000872
-0.002663 3e-06 -0.000851
-0.002748 1e-06 -0.000673
-0.002393 0.000526 -0.001724
-0.00176 0.000784 -0.001705
-0.001789 0.000737 -0.001826
-0.002253 6e-06 -0.001613
-0.002263 6e-06 -0.00159
-0.002274 5e-06 -0.001568
-0.002284 5e-06 -0.001546
-0.002297 4e-06 -0.001524
-0.002307 4e-06 -0.001502
-0.001898 0.000526 -0.002305
-0.001911 0.000501 -0.002284
-0.001848 0.000715 -0.00165
-0.002349 3e-06 -0.001413
-0.00236 3e-06 -0.001391
-0.002371 2e-06 -0.001369
-0.002382 2e-06 -0.001346
-0.002393 1e-06 -0.001325
-0.0024 3e-06 -0.001301
-0.002392 1.2e-05 -0.00127
-0.002319 5.9e-05 -0.001184
-0.002287 8.1e-05 -0.001142
-0.002258 0.000101 -0.001102
-0.002249 0.00011 -0.001072
-0.002248 0.000116 -0.001044
-0.002253 0.000119 -0.00102
-0.002262 0.000119 -0.000997
-0.002273 0.000119 -0.000974
-0.002287 0.000117 -0.000954
-0.002305 0.000113 -0.000935
-0.002328 0.000106 -0.000918
-0.00236 9.5e-05 -0.000905
-0.002415 7.2e-05 -0.000903
-0.00248 4.4e-05 -0.000905
-0.002533 2.2e-05 -0.000901
-0.002571 8e-06 -0.000891
-0.002596 2e-06 -0.000875
-0.002606 0.0 -0.000853
-0.002612 2e-06 -0.000829
-0.00262 3e-06 -0.000805
-0.002648 4e-06 -0.000737
-0.002657 5e-06 -0.000714
-0.002686 5e-06 -0.000646
-0.002698 5e-06 -0.000624
-0.002704 7e-06 -0.0006
-0.00243 0.000514 -0.001723
-0.002349 0.000543 -0.001719
-0.002189 1e-06 -0.001638
-0.002201 0.0 -0.001616
-0.002212 -0.0 -0.001594
-0.002224 -1e-06 -0.001573
-0.002235 -1e-06 -0.001551
-0.002246 -2e-06 -0.001529
-0.002258 -4e-06 -0.001507
-0.002269 -4e-06 -0.001485
-0.00023 0.000685 -0.002708
-0.001898 0.000499 -0.002305
-0.0023 -5e-06 -0.001418
-0.002311 -5e-06 -0.001396
-0.002322 -5e-06 -0.001374
-0.00233 -4e-06 -0.00135
-0.002342 -5e-06 -0.001328
-0.001905 0.000561 -0.002182
-0.002363 -0.0 -0.001257
-0.002281 5.7e-05 -0.00114
-0.002258 7.3e-05 -0.001103
-0.002249 8.3e-05 -0.001072
-0.002248 8.9e-05 -0.001044
-0.002253 9.1e-05 -0.00102
-0.002262 9.2e-05 -0.000996
-0.002273 9.2e-05 -0.000974
-0.002287 8.9e-05 -0.000954
-0.002305 8.6e-05 -0.000935
-0.002328 7.9e-05 -0.000918
-0.00236 6.8e-05 -0.000905
-0.002415 4.5e-05 -0.000903
-0.002481 1.6e-05 -0.000905
-0.002518 2e-06 -0.000895
-0.002541 -4e-06 -0.000878
-0.002572 -5e-06 -0.000811
-0.002583 -5e-06 -0.000789
-0.002602 -5e-06 -0.000743
-0.002611 -4e-06 -0.00072
-0.00262 -3e-06 -0.000697
-0.002646 -1e-06 -0.000628
-0.002655 -1e-06 -0.000605
-0.002664 -0.0 -0.000582
-0.002429 0.000541 -0.001723
-0.002147 -5e-06 -0.001619
-0.002157 -5e-06 -0.001597
-0.002012 -2.3e-05 -0.000589
-0.001913 0.000511 -0.002252
-0.002244 -3e-06 -0.001393
-0.002253 -2e-06 -0.00137
-0.002271 -1e-06 -0.001324
-0.002281 -1e-06 -0.001302
-0.002003 -2.4e-05 -0.000612
-0.001909 0.00055 -0.002217
-0.002322 -1e-06 -0.001212
-0.002312 8e-06 -0.001181
-0.002283 2.8e-05 -0.001141
-0.002258 4.6e-05 -0.001103
-0.002249 5.6e-05 -0.001072
-0.002248 6.1e-05 -0.001044
-0.002253 6.4e-05 -0.00102
-0.002262 6.5e-05 -0.000996
-0.002273 6.5e-05 -0.000974
-0.002287 6.2e-05 -0.000954
-0.002304 5.9e-05 -0.000934
-0.002328 5.2e-05 -0.000918
-0.002358 4.2e-05 -0.000904
-0.00246 -1e-06 -0.000896
-0.002473 -1e-06 -0.000874
-0.002482 -1e-06 -0.000852
-0.002491 -1e-06 -0.000829
-0.002503 -1e-06 -0.000807
-0.002513 -2e-06 -0.000785
-0.002542 -1e-06 -0.000717
-0.002552 -1e-06 -0.000694
-0.0026 -5e-06 -0.000608
-0.002605 -2e-06 -0.000583
-0.002618 -4e-06 -0.000561
-0.002451 0.000538 -0.001708
-0.002089 -3e-06 -0.001594
-0.002098 -2e-06 -0.001571
-0.002108 -1e-06 -0.001548
-0.002116 -1e-06 -0.001524
-0.002122 1e-06 -0.0015
-0.002131 2e-06 -0.001478
-0.002141 2e-06 -0.001455
-0.002151 2e-06 -0.001432
-0.00216 3e-06 -0.001409
-0.002179 3e-06 -0.001364
-0.00219 3e-06 -0.001342
-0.001994 -2.4e-05 -0.000634
-0.001985 -2.5e-05 -0.000657
-0.002272 2e-06 -0.001162
-0.002275 5e-06 -0.001137
-0.002258 1.9e-05 -0.001103
-0.002248 2.9e-05 -0.001071
-0.002248 3.4e-05 -0.001044
-0.002253 3.7e-05 -0.001019
-0.002261 3.8e-05 -0.000996
-0.002272 3.8e-05 -0.000974
-0.002286 3.6e-05 -0.000953
-0.002304 3.2e-05 -0.000934
-0.002363 5e-06 -0.000907
-0.002395 0.0 -0.000894
-0.002421 3e-06 -0.000824
-0.002433 2e-06 -0.000803
-0.002441 3e-06 -0.00078
-0.002452 2e-06 -0.000757
-0.002462 3e-06 -0.000735
-0.002504 2e-06 -0.000646
-0.002512 3e-06 -0.000622
-0.002524 2e-06 -0.000601
-0.002536 1e-06 -0.000579
-0.002547 0.0 -0.000557
0.000791 -1e-05 0.002011
0.000768 -1e-05 0.002018
-0.001976 -2.5e-05 -0.00068
-0.002476 0.000715 -0.001633
-0.002035 3e-06 -0.001543
-0.002045 3e-06 -0.00152
-0.002056 3e-06 -0.001498
-0.002067 2e-06 -0.001476
-0.002077 2e-06 -0.001453
-0.002086 2e-06 -0.001431
-0.0021 1e-06 -0.00141
-0.00211 1e-06 -0.001387
-0.00212 1e-06 -0.001364
-0.00213 1e-06 -0.001342
-0.002141 0.0 -0.00132
-0.002153 -0.0 -0.001298
-0.001905 0.000534 -0.002182
-0.001776 0.000588 -0.002401
-0.00252 0.000518 -0.001605
-0.002506 0.000516 -0.001626
-0.001778 0.000736 -0.001752
-0.002214 -1e-06 -0.001164
-0.002224 -1e-06 -0.001141
-0.002234 -1e-06 -0.001119
-0.002244 -1e-06 -0.001096
-0.002246 3e-06 -0.00107
-0.002248 8e-06 -0.001044
-0.002253 1e-05 -0.001019
-0.002261 1.1e-05 -0.000996
-0.002272 1.1e-05 -0.000974
-0.002285 9e-06 -0.000953
-0.002375 -1e-06 -0.000804
-0.002384 -1e-06 -0.000781
-0.002393 0.0 -0.000758
-0.002403 0.0 -0.000735
-0.002412 1e-06 -0.000713
-0.002422 1e-06 -0.00069
-0.002451 1e-06 -0.000622
-0.00246 2e-06 -0.000599
-0.002469 2e-06 -0.000576
-0.002479 3e-06 -0.000554
-0.002489 3e-06 -0.000531
-0.002498 4e-06 -0.000508
-0.002508 3e-06 -0.000486
0.000744 -1e-05 0.002026
-0.001954 2e-06 -0.001587
-0.002447 0.000713 -0.001673
-0.00252 0.000544 -0.001606
-0.001893 0.000669 -0.002108
-0.001999 -1e-06 -0.0015
-0.002011 -2e-06 -0.001478
-0.002022 -2e-06 -0.001456
-0.002034 -3e-06 -0.001434
-0.002046 -4e-06 -0.001413
-0.001896 0.0007 -0.002272
-0.00207 -6e-06 -0.001369
-0.002081 -7e-06 -0.001347
-0.001777 0.0007 -0.001783
-0.002104 -8e-06 -0.001303
-0.002115 -8e-06 -0.001281
-0.002125 -9e-06 -0.001259
-0.002137 -9e-06 -0.001237
-0.002148 -9e-06 -0.001215
-0.002158 -1e-05 -0.001193
-0.002169 -1e-05 -0.001171
-0.002179 -1e-05 -0.001148
-0.00219 -1.1e-05 -0.001126
-0.002201 -1.1e-05 -0.001104
-0.00221 -1e-05 -0.001081
-0.002221 -1.1e-05 -0.001059
-0.00223 -1.1e-05 -0.001036
-0.002241 -1.1e-05 -0.001014
-0.00225 -1.1e-05 -0.000991
-0.00226 -8e-06 -0.000968
-0.002393 -7e-06 -0.00065
-0.002402 -6e-06 -0.000627
-0.002409 -5e-06 -0.000604
-0.002419 -4e-06 -0.000581
-0.002427 -4e-06 -0.000558
-0.002435 -2e-06 -0.000534
-0.002444 -2e-06 -0.000511
-0.002455 -2e-06 -0.000489
-0.002462 -1e-06 -0.000465
-0.001918 -6e-06 -0.001571
-0.001929 -7e-06 -0.001549
-0.002306 0.000723 -0.001715
-0.001954 -1e-05 -0.001506
-0.001967 -1.1e-05 -0.001485
-0.001979 -1.2e-05 -0.001464
-0.001989 -1.2e-05 -0.001441
-0.002 -1.3e-05 -0.001419
-0.00201 -1.1e-05 -0.001397
-0.001796 0.000718 -0.001703
-0.001863 0.000626 -0.002018
-0.002465 0.000539 -0.001688
-0.002479 0.00054 -0.001668
-0.002068 -1.2e-05 -0.001261
-0.00208 -1.3e-05 -0.001239
-0.00209 -1.2e-05 -0.001216
-0.002099 -1.2e-05 -0.001193
-0.00211 -1.2e-05 -0.001171
-0.002118 -1.1e-05 -0.001148
-0.002128 -1.1e-05 -0.001126
-0.001649 0.000599 -0.002387
-0.002168 -1.1e-05 -0.001035
-0.002177 -1.1e-05 -0.001013
-0.002189 -1.2e-05 -0.000991
-0.00235 -1.2e-05 -0.000631
-0.002359 -1.1e-05 -0.000608
-0.00237 -1.2e-05 -0.000586
-0.002391 -1.2e-05 -0.000542
-0.0024 -1.2e-05 -0.000519
-0.001875 -1.2e-05 -0.001552
-0.001887 -1.3e-05 -0.00153
-0.002408 0.000717 -0.001705
-0.001804 0.000787 -0.001644
-0.001917 -1.2e-05 -0.001463
-0.001924 -1.2e-05 -0.001439
-0.001935 -1.2e-05 -0.001417
-0.001952 -1.1e-05 -0.001371
-0.001962 -1.1e-05 -0.001348
-0.001967 -2.6e-05 -0.000703
-0.001772 0.000787 -0.001682
-0.00202 -9e-06 -0.001212
-0.002029 -9e-06 -0.001189
-0.002038 -8e-06 -0.001166
-0.002048 -8e-06 -0.001144
-0.002056 -7e-06 -0.00112
-0.002068 -8e-06 -0.001099
-0.00243 0.000714 -0.001691
-0.001416 0.000627 -0.002259
-0.002118 -8e-06 -0.000986
-0.002126 -7e-06 -0.000963
-0.002135 -6e-06 -0.00094
-0.001958 -2.6e-05 -0.000726
-0.001949 -2.7e-05 -0.000749
-0.00226 -9e-06 -0.000672
-0.001939 -2.7e-05 -0.000772
-0.002282 -9e-06 -0.000628
-0.002293 -1e-05 -0.000606
-0.002304 -1e-05 -0.000583
-0.001929 -2.7e-05 -0.000794
-0.00192 -2.7e-05 -0.000817
-0.001816 -9e-06 -0.001526
-0.001823 -8e-06 -0.001502
-0.001835 -9e-06 -0.00148
-0.00187 -6e-06 -0.001388
-0.00189 -6e-06 -0.001343
-0.001897 -5e-06 -0.001319
-0.001904 -3e-06 -0.001296
-0.002493 0.000515 -0.001647
-0.001846 0.000646 -0.001971
-0.001935 -3e-06 -0.001228
-0.001947 -4e-06 -0.001206
-0.002113 0.000666 -0.001681
-0.002165 0.000644 -0.001692
-0.001908 0.000523 -0.002216
-0.002007 -4e-06 -0.001072
-0.002018 -4e-06 -0.001049
-0.001893 0.000588 -0.002107
-0.001808 0.000716 -0.001874
-0.001863 0.000653 -0.002017
-0.001829 0.000717 -0.001666
-0.002077 -4e-06 -0.000914
-0.002085 -3e-06 -0.00089
-0.002096 -3e-06 -0.000868
-0.002107 -4e-06 -0.000846
-0.002116 -3e-06 -0.000824
-0.002186 -3e-06 -0.000666
-0.0022 -5e-06 -0.000645
-0.002218 -4e-06 -0.000599
-0.002228 -4e-06 -0.000577
-0.002237 -4e-06 -0.000554
-0.001909 -2.7e-05 -0.000839
-0.001899 -2.7e-05 -0.000862
-0.001889 -2.7e-05 -0.000884
-0.001879 -2.7e-05 -0.000907
-0.002318 -9e-06 -0.000401
-0.002327 -8e-06 -0.000378
-0.001868 -2.7e-05 -0.000929
-0.001758 -6e-06 -0.0015
-0.001763 -5e-06 -0.001476
-0.001773 -4e-06 -0.001453
-0.001782 -4e-06 -0.00143
-0.001793 -4e-06 -0.001408
-0.002462 0.000713 -0.001653
-0.001822 -4e-06 -0.00134
-0.001831 -3e-06 -0.001317
-0.001849 -2e-06 -0.001271
-0.001859 -2e-06 -0.001248
-0.001871 -3e-06 -0.001227
-0.001881 -3e-06 -0.001204
-0.00189 -2e-06 -0.001181
-0.002214 0.000624 -0.001701
-0.001606 0.000618 -0.002367
-0.001298 0.0007 -0.002169
-0.001835 0.000563 -0.002357
-0.001949 -2e-06 -0.001046
-0.00196 -2e-06 -0.001024
-0.001971 -2e-06 -0.001001
-0.001606 0.000536 -0.002368
0.000721 -1.1e-05 0.002034
-0.00188 0.000578 -0.002064
-0.002033 -3e-06 -0.000867
-0.002041 -2e-06 -0.000844
-0.002051 -2e-06 -0.000821
-0.002061 -2e-06 -0.000799
-0.002071 -3e-06 -0.000777
-0.002121 -2e-06 -0.000664
-0.002132 -3e-06 -0.000642
-0.002142 -2e-06 -0.000619
-0.002151 -2e-06 -0.000596
-0.002161 -2e-06 -0.000574
-0.002171 -2e-06 -0.000551
-0.001858 -2.7e-05 -0.000951
-0.002232 -2e-06 -0.000417
-0.002242 -3e-06 -0.000394
-0.002254 -3e-06 -0.000372
-0.002264 -3e-06 -0.00035
-0.001871 0.000711 -0.001637
-0.001716 -3e-06 -0.001428
-0.001727 -3e-06 -0.001405
-0.001735 -2e-06 -0.001382
-0.001746 -2e-06 -0.00136
-0.001776 0.000534 -0.002401
-0.001767 -3e-06 -0.001315
-0.001778 -3e-06 -0.001293
-0.001789 -4e-06 -0.001271
-0.001799 -4e-06 -0.001249
-0.00181 -4e-06 -0.001227
-0.001821 -5e-06 -0.001205
-0.00183 -4e-06 -0.001182
-0.001841 -5e-06 -0.001159
-0.00245 0.000511 -0.001708
-0.001935 0.000718 -0.001627
-0.001899 0.00073 -0.001628
0.000698 -1.1e-05 0.002042
-0.001894 -6e-06 -0.001048
-0.001905 -7e-06 -0.001026
-0.001916 -7e-06 -0.001004
-0.001926 -7e-06 -0.000982
-0.001937 -7e-06 -0.000959
-0.001947 -7e-06 -0.000937
-0.001956 -7e-06 -0.000914
-0.001968 -8e-06 -0.000892
-0.001977 -8e-06 -0.00087
-0.001987 -7e-06 -0.000847
-0.001998 -8e-06 -0.000825
-0.002007 -7e-06 -0.000802
-0.002017 -7e-06 -0.000779
-0.002027 -7e-06 -0.000757
-0.002036 -7e-06 -0.000734
-0.002045 -7e-06 -0.000711
-0.002056 -7e-06 -0.000689
-0.002065 -6e-06 -0.000666
-0.002074 -6e-06 -0.000643
-0.002084 -5e-06 -0.000621
-0.002093 -5e-06 -0.000598
-0.002102 -5e-06 -0.000575
-0.002112 -4e-06 -0.000552
-0.002177 -2e-06 -0.000392
-0.002188 -2e-06 -0.00037
-0.002198 -2e-06 -0.000348
-0.002206 -1e-06 -0.000324
-0.002216 -1e-06 -0.000302
-0.002214 0.000597 -0.001702
-0.002114 0.000639 -0.001681
-0.001905 0.00067 -0.002182
-0.001678 -5e-06 -0.001384
-0.001689 -6e-06 -0.001362
-0.001701 -7e-06 -0.00134
-0.001712 -7e-06 -0.001318
-0.001724 -8e-06 -0.001296
-0.001736 -9e-06 -0.001274
-0.001747 -9e-06 -0.001252
-0.001757 -1e-05 -0.00123
-0.001769 -1.1e-05 -0.001208
-0.001781 -1.1e-05 -0.001187
-0.001792 -1.2e-05 -0.001165
-0.001803 -1.2e-05 -0.001143
-0.001814 -1.3e-05 -0.00112
-0.001825 -1.4e-05 -0.001099
-0.001837 -1.4e-05 -0.001077
-0.001847 -1.4e-05 -0.001054
-0.001858 -1.5e-05 -0.001032
-0.001869 -1.5e-05 -0.00101
-0.00188 -1.6e-05 -0.000988
-0.001891 -1.6e-05 -0.000966
-0.0019 -1.6e-05 -0.000943
-0.001911 -1.6e-05 -0.000921
-0.001921 -1.6e-05 -0.000899
-0.001931 -1.6e-05 -0.000876
-0.00194 -1.6e-05 -0.000853
-0.001951 -1.6e-05 -0.000831
-0.001961 -1.6e-05 -0.000808
-0.00197 -1.6e-05 -0.000786
-0.00198 -1.5e-05 -0.000763
-0.001991 -1.6e-05 -0.000741
-0.002 -1.5e-05 -0.000718
-0.002009 -1.5e-05 -0.000695
-0.002018 -1.4e-05 -0.000672
-0.002027 -1.4e-05 -0.000649
-0.002037 -1.4e-05 -0.000626
-0.002045 -1.3e-05 -0.000603
-0.002054 -1.2e-05 -0.00058
-0.002134 -7e-06 -0.000373
-0.002143 -6e-06 -0.00035
-0.002151 -5e-06 -0.000327
-0.002165 0.000617 -0.001692
-0.002261 0.000578 -0.001709
-0.00252 0.000571 -0.001606
-0.002507 0.00057 -0.001627
-0.001892 0.000561 -0.002107
-0.000216 0.000669 -0.002747
-0.001863 0.000599 -0.002017
-0.0019 0.000546 -0.002146
-0.001846 0.000618 -0.001971
-0.002307 0.000559 -0.001716
-0.001092 0.000553 -0.002662
-0.002392 0.000554 -0.001724
-0.001797 0.000744 -0.001703
-0.001812 0.000745 -0.001684
-0.001788 0.000711 -0.001825
-0.00178 -2.3e-05 -0.001105
-0.001792 -2.4e-05 -0.001084
-0.001803 -2.4e-05 -0.001062
-0.001814 -2.5e-05 -0.00104
-0.001825 -2.5e-05 -0.001018
-0.001837 -2.6e-05 -0.000996
-0.001847 -2.6e-05 -0.000974
-0.001899 0.000703 -0.001628
-0.001935 0.000691 -0.001626
-0.002061 0.000634 -0.001668
-0.002114 0.000611 -0.001681
-0.002165 0.000589 -0.001692
-0.002213 0.00057 -0.001701
-0.002261 0.000551 -0.001709
-0.002306 0.000533 -0.001715
-0.00235 0.000516 -0.00172
-0.002393 0.0005 -0.001724
-0.00243 0.000486 -0.001723
-0.002451 0.000484 -0.001708
-0.002465 0.000485 -0.001688
-0.002479 0.000486 -0.001668
-0.002493 0.000487 -0.001647
-0.002506 0.000489 -0.001626
-0.00252 0.00049 -0.001605
-0.002533 0.000492 -0.001584
-0.001855 0.000564 -0.002342
-0.001104 0.000746 -0.002367
-0.001649 0.000626 -0.002387
-0.001562 0.000692 -0.002345
-0.001879 0.000474 -0.002322
-0.001898 0.000472 -0.002305
-0.001911 0.000474 -0.002284
-0.001912 0.000484 -0.002252
-0.001908 0.000496 -0.002216
-0.001905 0.000507 -0.002182
-0.0019 0.000519 -0.002146
-0.001892 0.000534 -0.002107
-0.001879 0.000552 -0.002063
-0.001863 0.000571 -0.002018
-0.001846 0.000591 -0.001971
-0.001829 0.000612 -0.001924
-0.001809 0.000634 -0.001875
-0.001789 0.000656 -0.001825
-0.001776 0.000673 -0.001782
-0.001776 0.000683 -0.00175
-0.001784 0.000688 -0.001725
-0.001796 0.00069 -0.001703
-0.001811 0.000691 -0.001683
-0.001828 0.00069 -0.001665
-0.001848 0.000688 -0.00165
-0.001871 0.000683 -0.001637
-0.001899 0.000676 -0.001628
-0.001936 0.000664 -0.001627
-0.002061 0.000606 -0.001669
-0.002115 0.000583 -0.001682
-0.002165 0.000562 -0.001692
-0.002213 0.000543 -0.001701
-0.002261 0.000524 -0.001709
-0.002307 0.000505 -0.001715
-0.00235 0.000489 -0.00172
-0.002392 0.000473 -0.001723
-0.00243 0.000459 -0.001723
-0.002451 0.000456 -0.001708
-0.002465 0.000457 -0.001688
-0.002479 0.000459 -0.001668
-0.002493 0.00046 -0.001647
-0.002507 0.000461 -0.001626
-0.00252 0.000463 -0.001606
-0.002534 0.000464 -0.001585
-0.001093 0.000607 -0.002663
-0.0011 0.000715 -0.00245
-0.001101 0.000724 -0.002496
-0.001101 0.000716 -0.002586
-0.001879 0.000446 -0.002322
-0.001898 0.000445 -0.002305
-0.001911 0.000447 -0.002284
-0.001912 0.000456 -0.002252
-0.001908 0.000468 -0.002217
-0.001904 0.00048 -0.002181
-0.0019 0.000492 -0.002146
-0.001892 0.000507 -0.002106
-0.001879 0.000525 -0.002063
-0.001863 0.000544 -0.002018
-0.001846 0.000565 -0.00197
-0.001827 0.000585 -0.001923
-0.001809 0.000607 -0.001875
-0.001788 0.000629 -0.001825
-0.001775 0.000647 -0.001781
-0.001776 0.000656 -0.00175
-0.001784 0.000661 -0.001724
-0.001796 0.000663 -0.001702
-0.001811 0.000664 -0.001683
-0.001828 0.000663 -0.001665
-0.001848 0.000661 -0.00165
-0.001871 0.000656 -0.001637
-0.001898 0.00065 -0.001627
-0.001934 0.000637 -0.001626
-0.002061 0.00058 -0.001668
-0.002114 0.000556 -0.001682
-0.002166 0.000535 -0.001693
-0.002213 0.000516 -0.001701
-0.002261 0.000496 -0.001709
-0.002308 0.000478 -0.001716
-0.002351 0.000461 -0.00172
-0.002392 0.000445 -0.001723
-0.00243 0.000432 -0.001723
-0.002451 0.000429 -0.001708
-0.002465 0.00043 -0.001688
-0.002479 0.000431 -0.001668
-0.002493 0.000433 -0.001647
-0.002507 0.000434 -0.001626
-0.00252 0.000436 -0.001606
-0.002534 0.000437 -0.001585
-0.001467 0.000601 -0.002291
-0.001093 0.000634 -0.002663
-0.001101 0.000706 -0.002542
-0.001009 0.000479 -0.00281
-0.00188 0.000419 -0.002322
-0.001898 0.000417 -0.002306
-0.001911 0.00042 -0.002284
-0.001911 0.000429 -0.002252
-0.001908 0.000441 -0.002217
-0.001904 0.000453 -0.002182
-0.0019 0.000465 -0.002145
-0.001892 0.00048 -0.002107
-0.001878 0.000498 -0.002062
-0.001863 0.000517 -0.002017
-0.001846 0.000538 -0.00197
-0.001826 0.000559 -0.001922
-0.00181 0.000579 -0.001875
-0.001787 0.000602 -0.001824
-0.001776 0.000619 -0.001782
-0.001776 0.000629 -0.00175
-0.001784 0.000634 -0.001724
-0.001795 0.000636 -0.001702
-0.001811 0.000637 -0.001682
-0.001828 0.000636 -0.001665
-0.001848 0.000634 -0.001649
-0.001871 0.000629 -0.001637
-0.001899 0.000622 -0.001628
-0.001934 0.00061 -0.001626
-0.00206 0.000553 -0.001668
-0.002114 0.00053 -0.001681
-0.002166 0.000508 -0.001693
-0.002214 0.000488 -0.001702
-0.002261 0.000469 -0.001709
-0.002308 0.00045 -0.001716
-0.002351 0.000434 -0.00172
-0.002392 0.000418 -0.001723
-0.00243 0.000405 -0.001723
-0.002451 0.000402 -0.001708
-0.002465 0.000403 -0.001688
-0.002479 0.000404 -0.001668
-0.002493 0.000405 -0.001647
-0.002507 0.000407 -0.001626
-0.00252 0.000408 -0.001606
-0.001561 0.000557 -0.002344
-0.001101 0.000662 -0.002586
-0.001072 0.000626 -0.002765
-0.001859 0.000395 -0.002337
-0.001879 0.000392 -0.002321
-0.001898 0.000391 -0.002305
-0.001911 0.000393 -0.002284
-0.001911 0.000402 -0.002252
-0.001907 0.000414 -0.002216
-0.001904 0.000426 -0.002181
-0.0019 0.000438 -0.002146
-0.001892 0.000453 -0.002106
-0.001878 0.000471 -0.002063
-0.001862 0.00049 -0.002017
-0.001845 0.000511 -0.00197
-0.001826 0.000532 -0.001922
-0.001809 0.000552 -0.001875
-0.001787 0.000575 -0.001824
-0.001775 0.000592 -0.001782
-0.001776 0.000602 -0.00175
-0.001783 0.000607 -0.001724
-0.001795 0.000609 -0.001702
-0.00181 0.00061 -0.001682
-0.001828 0.000609 -0.001665
-0.001847 0.000607 -0.001649
-0.00187 0.000602 -0.001636
-0.001898 0.000595 -0.001628
-0.001933 0.000584 -0.001625
-0.00206 0.000526 -0.001668
-0.002114 0.000503 -0.001681
-0.002166 0.00048 -0.001693
-0.002214 0.000461 -0.001702
-0.002261 0.000442 -0.001709
-0.002307 0.000423 -0.001716
-0.002351 0.000406 -0.001721
-0.002393 0.00039 -0.001724
-0.002432 0.000377 -0.001724
-0.002451 0.000375 -0.001708
-0.002465 0.000376 -0.001688
-0.002479 0.000377 -0.001668
-0.002493 0.000378 -0.001647
-0.002507 0.00038 -0.001626
-0.00252 0.000381 -0.001606
-0.00114 0.000749 -0.002198
-0.00028 0.000646 -0.002536
-0.001754 0.000617 -0.002412
-0.00186 0.000367 -0.002338
-0.00188 0.000364 -0.002322
-0.001898 0.000363 -0.002306
-0.001911 0.000365 -0.002284
-0.001911 0.000375 -0.002252
-0.001907 0.000387 -0.002216
-0.001904 0.000399 -0.002181
-0.0019 0.000411 -0.002146
-0.001891 0.000426 -0.002106
-0.001878 0.000444 -0.002062
-0.001862 0.000463 -0.002017
-0.001844 0.000484 -0.001969
-0.001827 0.000504 -0.001922
-0.001808 0.000525 -0.001874
-0.001787 0.000548 -0.001824
-0.001775 0.000565 -0.001781
-0.001776 0.000575 -0.00175
-0.001783 0.00058 -0.001724
-0.001795 0.000582 -0.001701
-0.00181 0.000583 -0.001682
-0.001828 0.000582 -0.001665
-0.001847 0.00058 -0.001649
-0.00187 0.000575 -0.001636
-0.001899 0.000568 -0.001628
-0.001935 0.000555 -0.001626
-0.002062 0.000497 -0.001669
-0.002114 0.000475 -0.001681
-0.002166 0.000454 -0.001693
-0.002215 0.000433 -0.001702
-0.002261 0.000415 -0.001708
-0.002308 0.000396 -0.001716
-0.002351 0.000379 -0.001721
-0.002393 0.000363 -0.001724
-0.00243 0.00035 -0.001723
-0.002451 0.000347 -0.001709
-0.002466 0.000348 -0.001689
-0.00248 0.00035 -0.001668
-0.002493 0.000351 -0.001647
-0.002507 0.000353 -0.001627
-0.002521 0.000354 -0.001606
-0.000986 0.000451 -0.002818
0.000923 0.000639 -0.002843
-0.001796 0.000616 -0.002386
-0.001861 0.000339 -0.002338
-0.00188 0.000337 -0.002322
-0.001899 0.000336 -0.002306
-0.001911 0.000338 -0.002284
-0.00191 0.000348 -0.002251
-0.001907 0.00036 -0.002216
-0.001904 0.000372 -0.002181
-0.0019 0.000384 -0.002145
-0.001892 0.000399 -0.002106
-0.001878 0.000417 -0.002062
-0.001862 0.000436 -0.002017
-0.001843 0.000457 -0.001968
-0.001827 0.000477 -0.001922
-0.001808 0.000498 -0.001874
-0.001788 0.00052 -0.001825
-0.001774 0.000538 -0.001781
-0.001776 0.000547 -0.00175
-0.001783 0.000552 -0.001724
-0.001795 0.000555 -0.001702
-0.00181 0.000555 -0.001682
-0.001828 0.000554 -0.001665
-0.001848 0.000552 -0.001649
-0.001871 0.000548 -0.001636
-0.001899 0.00054 -0.001628
-0.001936 0.000528 -0.001627
-0.002062 0.00047 -0.001669
-0.002116 0.000447 -0.001682
-0.002166 0.000426 -0.001693
-0.002215 0.000406 -0.001702
-0.002261 0.000388 -0.001709
-0.002308 0.000369 -0.001716
-0.002351 0.000352 -0.001721
-0.002393 0.000336 -0.001724
-0.00243 0.000323 -0.001723
-0.002451 0.00032 -0.001708
-0.002466 0.000321 -0.001688
-0.00248 0.000323 -0.001668
-0.002493 0.000324 -0.001647
-0.002507 0.000325 -0.001627
-0.00173 0.000484 -0.002421
-0.000963 0.000641 -0.002827
-0.001775 0.000616 -0.0024
-0.00186 0.000312 -0.002338
-0.00188 0.00031 -0.002322
-0.001898 0.000309 -0.002305
-0.001911 0.000311 -0.002284
-0.001911 0.000321 -0.002252
-0.001907 0.000333 -0.002216
-0.001904 0.000344 -0.002181
-0.0019 0.000357 -0.002145
-0.001892 0.000371 -0.002106
-0.001877 0.00039 -0.002062
-0.001862 0.000409 -0.002016
-0.001844 0.000429 -0.001969
-0.001825 0.000451 -0.001921
-0.001808 0.000471 -0.001874
-0.001787 0.000494 -0.001824
-0.001774 0.000511 -0.001781
-0.001775 0.00052 -0.001749
-0.001783 0.000525 -0.001724
-0.001795 0.000528 -0.001701
-0.00181 0.000528 -0.001682
-0.001828 0.000527 -0.001665
-0.001847 0.000525 -0.001649
-0.001871 0.00052 -0.001637
-0.001899 0.000513 -0.001628
-0.001936 0.0005 -0.001628
-0.002063 0.000442 -0.00167
-0.002116 0.00042 -0.001683
-0.002167 0.000398 -0.001694
-0.002215 0.000379 -0.001702
-0.002262 0.00036 -0.001709
-0.002308 0.000342 -0.001716
-0.002352 0.000325 -0.001721
-0.002394 0.000309 -0.001724
-0.00243 0.000296 -0.001722
-0.002451 0.000293 -0.001708
-0.002466 0.000294 -0.001688
-0.00248 0.000295 -0.001668
-0.002493 0.000297 -0.001647
-0.002507 0.000298 -0.001627
-0.001795 0.000508 -0.002385
-0.001101 0.000679 -0.002541
-0.001418 0.000734 -0.002261
-0.00186 0.000285 -0.002338
-0.00188 0.000283 -0.002322
-0.001898 0.000282 -0.002305
-0.001911 0.000284 -0.002284
-0.001911 0.000294 -0.002251
-0.001907 0.000306 -0.002216
-0.001904 0.000317 -0.002181
-0.0019 0.00033 -0.002145
-0.001892 0.000344 -0.002107
-0.001877 0.000363 -0.002061
-0.001862 0.000382 -0.002016
-0.001845 0.000402 -0.00197
-0.001826 0.000423 -0.001921
-0.001807 0.000445 -0.001873
-0.001788 0.000466 -0.001824
-0.001774 0.000484 -0.001781
-0.001776 0.000493 -0.001749
-0.001783 0.000498 -0.001724
-0.001795 0.000501 -0.001701
-0.00181 0.000501 -0.001682
-0.001828 0.0005 -0.001665
-0.001847 0.000498 -0.001649
-0.001871 0.000493 -0.001637
-0.001899 0.000486 -0.001628
-0.001936 0.000473 -0.001627
-0.002063 0.000415 -0.00167
-0.002116 0.000392 -0.001683
-0.002167 0.000371 -0.001693
-0.002215 0.000352 -0.001702
-0.002262 0.000333 -0.00171
-0.002308 0.000314 -0.001716
-0.002352 0.000297 -0.001721
-0.002393 0.000282 -0.001723
-0.002429 0.000269 -0.001722
-0.002451 0.000266 -0.001708
-0.002465 0.000267 -0.001688
-0.002479 0.000268 -0.001668
-0.002493 0.00027 -0.001647
-0.002507 0.000271 -0.001626
-0.00108 0.000585 -0.002729
-0.001417 0.000708 -0.002259
-0.001104 0.000738 -0.002457
-0.001774 0.000644 -0.002398
-0.00188 0.000256 -0.002322
-0.001898 0.000255 -0.002305
-0.00191 0.000257 -0.002283
-0.001911 0.000266 -0.002252
-0.001906 0.000279 -0.002215
-0.001904 0.00029 -0.002181
-0.0019 0.000302 -0.002145
-0.001892 0.000317 -0.002106
-0.001878 0.000335 -0.002062
-0.001862 0.000355 -0.002016
-0.001844 0.000375 -0.001969
-0.001825 0.000397 -0.001921
-0.001807 0.000418 -0.001873
-0.001787 0.000439 -0.001824
-0.001775 0.000457 -0.001781
-0.001776 0.000466 -0.00175
-0.001783 0.000471 -0.001724
-0.001795 0.000474 -0.001701
-0.00181 0.000474 -0.001682
-0.001828 0.000473 -0.001665
-0.001848 0.000471 -0.001649
-0.001871 0.000466 -0.001636
-0.001899 0.000459 -0.001628
-0.001937 0.000446 -0.001628
-0.002062 0.000388 -0.00167
-0.002116 0.000366 -0.001682
-0.002167 0.000344 -0.001693
-0.002215 0.000324 -0.001702
-0.002262 0.000305 -0.00171
-0.002308 0.000287 -0.001716
-0.002352 0.00027 -0.001721
-0.002393 0.000255 -0.001724
-0.002429 0.000242 -0.001722
-0.00245 0.000239 -0.001708
-0.002465 0.00024 -0.001688
-0.00248 0.000241 -0.001668
-0.002493 0.000242 -0.001647
-0.002507 0.000244 -0.001626
-0.00252 0.000246 -0.001605
-0.00116 0.000722 -0.002183
-0.001466 0.000684 -0.002289
-0.001515 0.000687 -0.002319
-0.001872 0.000648 -0.002324
-0.00188 0.000229 -0.002322
-0.001898 0.000228 -0.002305
-0.00191 0.00023 -0.002283
-0.001911 0.000239 -0.002251
-0.001906 0.000252 -0.002215
-0.001904 0.000263 -0.002181
-0.0019 0.000275 -0.002145
-0.001891 0.00029 -0.002106
-0.001877 0.000308 -0.002062
-0.001859 0.000329 -0.002014
-0.001845 0.000348 -0.00197
-0.001826 0.000369 -0.001921
-0.001807 0.00039 -0.001873
-0.001787 0.000413 -0.001823
-0.001774 0.00043 -0.001781
-0.001776 0.000439 -0.001749
-0.001783 0.000444 -0.001724
-0.001795 0.000446 -0.001701
-0.00181 0.000447 -0.001682
-0.001828 0.000446 -0.001665
-0.001848 0.000443 -0.001649
-0.001871 0.000439 -0.001637
-0.001899 0.000432 -0.001628
-0.001936 0.000419 -0.001627
-0.002063 0.000361 -0.00167
-0.002116 0.000338 -0.001683
-0.002167 0.000317 -0.001694
-0.002215 0.000297 -0.001702
-0.002262 0.000278 -0.00171
-0.002308 0.00026 -0.001716
-0.002351 0.000243 -0.001721
-0.002393 0.000227 -0.001724
-0.002429 0.000215 -0.001722
-0.00245 0.000212 -0.001707
-0.002465 0.000213 -0.001688
-0.002479 0.000214 -0.001668
-0.002493 0.000215 -0.001647
-0.002507 0.000217 -0.001626
-0.002521 0.000218 -0.001606
-0.001692 0.000499 -0.002407
-0.001515 0.00066 -0.002318
-0.001561 0.000666 -0.002344
0.000674 -1.1e-05 0.00205
-0.00188 0.000202 -0.002322
-0.001897 0.000201 -0.002305
-0.00191 0.000203 -0.002283
-0.00191 0.000213 -0.002251
-0.001907 0.000224 -0.002216
-0.001903 0.000236 -0.00218
-0.0019 0.000248 -0.002146
-0.001891 0.000263 -0.002105
-0.001877 0.000281 -0.002061
-0.001844 0.000321 -0.001969
-0.001826 0.000342 -0.001921
-0.001806 0.000364 -0.001872
-0.001786 0.000386 -0.001823
-0.001775 0.000402 -0.001781
-0.001776 0.000411 -0.00175
-0.001784 0.000416 -0.001724
-0.001795 0.000419 -0.001701
-0.00181 0.00042 -0.001682
-0.001828 0.000419 -0.001665
-0.001848 0.000416 -0.001649
-0.001871 0.000412 -0.001637
-0.001899 0.000405 -0.001628
-0.001936 0.000392 -0.001627
-0.002064 0.000333 -0.001671
-0.002116 0.000311 -0.001682
-0.002167 0.00029 -0.001693
-0.002215 0.00027 -0.001702
-0.002262 0.000251 -0.00171
-0.002308 0.000233 -0.001716
-0.002351 0.000217 -0.00172
-0.002394 0.0002 -0.001724
-0.002429 0.000188 -0.001722
-0.002449 0.000186 -0.001707
-0.002465 0.000186 -0.001688
-0.002479 0.000187 -0.001667
-0.002493 0.000188 -0.001647
-0.002507 0.00019 -0.001626
-0.00252 0.000191 -0.001605
-0.001072 0.000436 -0.002765
-0.001562 0.000638 -0.002345
-0.001755 0.000589 -0.002414
-0.001649 0.000653 -0.002388
-0.001879 0.000175 -0.002321
-0.001896 0.000174 -0.002304
-0.001909 0.000176 -0.002282
-0.00191 0.000186 -0.00225
-0.001907 0.000197 -0.002216
-0.001904 0.000209 -0.002181
-0.0019 0.000221 -0.002145
