0.000502 -3e-06 0.002669
0.000526 -4e-06 0.002671
0.000551 -4e-06 0.00267
0.000576 -3e-06 0.002671
0.001011 0.000688 0.00245
0.000668 0.000441 0.00275
-0.000656 -2e-06 0.002607
-0.000632 -2e-06 0.002605
-0.001087 0.000543 0.002516
-0.001087 0.000571 0.002516
-0.001122 0.000552 0.002548
-0.001122 0.000524 0.002549
-0.001157 0.000505 0.002581
-0.001192 0.000487 0.002612
-0.001223 0.000474 0.002632
-0.000311 -0.0 0.002603
-0.000287 4e-06 0.002593
-0.000262 2e-06 0.002597
-0.000237 2e-06 0.002598
-0.000213 3e-06 0.002595
-0.000188 3e-06 0.002596
-0.000163 3e-06 0.002597
-0.000139 1.3e-05 0.002574
-0.000114 3.5e-05 0.002528
-9e-05 4.6e-05 0.002504
-6.5e-05 5.2e-05 0.00249
-4e-05 5.6e-05 0.002483
-1.6e-05 5.7e-05 0.00248
9e-06 5.7e-05 0.002481
3.4e-05 5.5e-05 0.002484
5.8e-05 5.2e-05 0.00249
8.3e-05 4.6e-05 0.002503
0.000107 3.7e-05 0.002524
0.000531 0.000201 0.002967
0.001121 0.000384 0.002548
0.00028 2e-06 0.0026
0.000305 0.0 0.002603
0.000329 1e-06 0.002601
0.000354 0.0 0.002602
0.000379 1e-06 0.002602
0.000403 0.0 0.002602
-0.001254 0.000462 0.002649
0.000644 0.000326 0.002834
0.000629 0.000312 0.00287
0.000502 -2e-06 0.002608
0.000526 -1e-06 0.002606
0.000551 -1e-06 0.002606
0.000576 -1e-06 0.002608
0.000692 0.000538 0.002585
0.000507 0.000311 0.002971
-0.000656 1e-06 0.00254
-0.000632 2e-06 0.002538
-0.000452 0.000474 0.002981
-0.000477 0.000472 0.002977
-0.001285 0.00045 0.002667
-0.000434 3e-06 0.002536
-0.00041 3e-06 0.002537
-0.001254 0.000706 0.00265
-0.000361 3e-06 0.002536
-0.000336 3e-06 0.002537
-0.000311 3e-06 0.002538
-0.000287 3e-06 0.002538
-0.000262 3e-06 0.002538
-0.000237 2e-06 0.002539
-0.000213 2e-06 0.002539
-0.000188 2e-06 0.00254
-0.000163 1e-06 0.002542
-0.000139 1e-06 0.002542
-0.000114 8e-06 0.002527
-9e-05 1.9e-05 0.002503
-6.5e-05 2.5e-05 0.002489
-4e-05 2.9e-05 0.002483
-1.6e-05 3e-05 0.002479
9e-06 3e-05 0.00248
3.4e-05 2.8e-05 0.002483
5.8e-05 2.5e-05 0.00249
8.3e-05 2e-05 0.002502
0.000107 1.1e-05 0.002521
0.000676 0.000328 0.002695
0.001085 0.000538 0.002519
0.000206 3e-06 0.002539
0.000231 3e-06 0.002539
0.000255 3e-06 0.002538
0.00028 3e-06 0.002538
0.000305 3e-06 0.002537
0.000329 4e-06 0.002536
0.000354 4e-06 0.002536
0.000378 4e-06 0.002536
0.000403 5e-06 0.002534
0.00093 0.000441 0.00236
0.000502 4e-06 0.002537
0.000526 4e-06 0.002537
0.000551 3e-06 0.002538
0.000693 0.000373 0.002588
-0.000656 3e-06 0.002478
-0.000632 4e-06 0.002477
-0.001087 0.000598 0.002516
-0.000642 0.000513 0.002838
-0.000501 0.00047 0.002973
-0.001965 0.000664 0.002082
-0.000611 0.000702 0.002909
-0.000941 0.000684 0.002367
-0.000784 0.000709 0.002357
-0.000977 0.000689 0.002404
-0.00041 -2e-06 0.002489
-0.001926 0.000653 0.002066
-0.000614 0.000671 0.002917
-0.000336 -4e-06 0.002493
-0.000311 -4e-06 0.002494
-0.000287 -5e-06 0.002496
-0.000262 -5e-06 0.002497
-0.000237 -6e-06 0.002498
-0.000213 -6e-06 0.002499
-0.000188 -7e-06 0.0025
-0.000163 -7e-06 0.002502
-0.000139 -8e-06 0.002502
-0.000114 -8e-06 0.002502
-9e-05 -5e-06 0.002498
-6.5e-05 -1e-06 0.002488
-4e-05 2e-06 0.002482
-1.6e-05 3e-06 0.00248
9e-06 2e-06 0.002481
3.4e-05 1e-06 0.002483
5.8e-05 -1e-06 0.002489
8.3e-05 -5e-06 0.002497
0.000108 -8e-06 0.002503
0.000668 0.000305 0.002749
0.000629 0.000258 0.00287
0.000615 0.000244 0.002904
0.000206 -6e-06 0.002499
0.000231 -6e-06 0.002499
0.000255 -5e-06 0.002498
0.00028 -5e-06 0.002496
0.000305 -4e-06 0.002495
0.000329 -3e-06 0.002494
0.000354 -3e-06 0.002493
0.000378 -2e-06 0.002491
0.001156 0.000366 0.002577
0.001416 0.000293 0.00266
0.000796 0.000519 0.002348
0.000774 0.000518 0.002357
0.000502 1e-06 0.002484
0.000526 1e-06 0.002484
0.000551 2e-06 0.002482
0.001011 0.000471 0.002449
0.000732 0.000537 0.00239
0.000899 0.000534 0.002344
-0.000654 -3e-06 0.002434
-0.001527 0.000649 0.00254
-0.001122 0.000578 0.00255
-0.000628 0.000496 0.002879
-0.001285 0.000504 0.002668
-0.002068 0.000602 0.002107
-0.000628 0.000714 0.002877
-0.000641 0.000731 0.002836
-0.000459 -9e-06 0.00245
-0.000434 -1.1e-05 0.002452
-0.001359 0.000716 0.002657
-0.001223 0.000719 0.002631
-0.002068 0.000683 0.002108
-0.002002 0.000678 0.002092
-0.000311 -1.3e-05 0.002456
-0.000287 -1.3e-05 0.002455
-0.000262 -1.3e-05 0.002456
-0.000237 -1.4e-05 0.002457
-0.000213 -1.4e-05 0.002457
-0.000188 -1.4e-05 0.002457
-0.000163 -1.4e-05 0.002457
-0.000139 -1.4e-05 0.002457
-0.000114 -1.4e-05 0.002457
-9e-05 -1.3e-05 0.002455
-6.5e-05 -1.4e-05 0.002457
-4e-05 -1.4e-05 0.002457
3.4e-05 -1.2e-05 0.002454
5.8e-05 -1.4e-05 0.002457
8.3e-05 -1.4e-05 0.002457
0.000107 -1.4e-05 0.002458
0.000132 -1.3e-05 0.002457
0.000426 0.000707 0.002963
0.000452 0.000702 0.002963
0.000206 -1.3e-05 0.002457
0.000231 -1.3e-05 0.002457
0.000255 -1.3e-05 0.002457
0.00028 -1.4e-05 0.002457
0.000305 -1.3e-05 0.002457
0.000329 -1.3e-05 0.002457
0.000354 -1.3e-05 0.002457
0.000378 -1.3e-05 0.002456
0.00063 0.00061 0.002872
0.000796 0.000546 0.002348
0.000657 0.00072 0.002798
0.000477 -9e-06 0.002449
0.000502 -9e-06 0.002447
0.000526 -8e-06 0.002445
0.000551 -7e-06 0.002444
0.000576 -6e-06 0.002441
0.000668 0.000576 0.002751
0.000629 0.000393 0.00287
-0.00055 0.000495 0.002965
-0.000526 0.000442 0.002968
-0.001997 0.000736 0.002086
-0.002145 0.000576 0.00211
-0.000459 -1.2e-05 0.002395
-0.000434 -1.2e-05 0.002395
-0.001335 0.000717 0.002663
-0.001344 0.000431 0.002693
-0.000336 -1.2e-05 0.002395
-0.000311 -1.2e-05 0.002395
-0.000287 -1.1e-05 0.002392
-0.000262 -1.1e-05 0.002393
-0.000237 -1.1e-05 0.002392
-0.000213 -1.1e-05 0.002392
-0.000188 -1e-05 0.002391
-0.000164 -1e-05 0.002391
-0.001528 0.000567 0.00254
-0.000689 0.000617 0.00265
-0.00055 0.000441 0.002964
-6.5e-05 -1e-05 0.002391
-4e-05 -1e-05 0.002391
-1.6e-05 -1.1e-05 0.002393
9e-06 -1.1e-05 0.002393
3.4e-05 -1e-05 0.002391
5.8e-05 -1.1e-05 0.002393
0.000107 -1.2e-05 0.002394
0.000132 -1.1e-05 0.002393
0.0004 0.000711 0.002963
0.000845 0.00068 0.002338
0.000716 0.000446 0.002418
0.000658 0.000611 0.002799
0.000255 -1.1e-05 0.002394
0.00028 -1.2e-05 0.002395
0.000305 -1.2e-05 0.002396
0.00129 0.000278 0.002671
0.00082 0.000492 0.002341
0.000899 0.000506 0.002344
0.00119 0.000595 0.002603
0.000774 0.000546 0.002357
0.000715 0.000527 0.002417
0.000477 -1.2e-05 0.0024
0.000502 -1.3e-05 0.002399
0.000526 -1.3e-05 0.002398
0.000551 -1.4e-05 0.0024
0.000575 -1.3e-05 0.0024
0.00082 0.000627 0.002341
0.000615 0.000379 0.002907
-0.000575 0.000494 0.002959
-0.000632 -1.2e-05 0.002338
-0.000607 -1.2e-05 0.002336
-0.00131 0.000719 0.002667
-0.000655 0.000557 0.002795
-0.000508 -1.1e-05 0.002333
-0.000484 -9e-06 0.00233
-0.000459 -9e-06 0.002329
-0.000435 -9e-06 0.00233
-0.000591 0.000696 0.002929
-0.000679 0.000542 0.002701
-0.000361 -8e-06 0.002328
-0.000336 -8e-06 0.002328
-0.000312 -8e-06 0.002326
-0.000287 -8e-06 0.002328
-0.000261 -7e-06 0.002326
-0.000237 -7e-06 0.002324
-0.000213 -7e-06 0.002326
-0.000188 -6e-06 0.002324
-0.000164 -6e-06 0.002324
-0.000614 0.000453 0.002918
-0.000597 0.000442 0.002949
-0.000909 0.00067 0.002346
-4e-05 -6e-06 0.002324
-1.6e-05 -5e-06 0.002322
9e-06 -6e-06 0.002324
-0.001315 0.000439 0.002684
0.000107 -7e-06 0.002325
0.000132 -6e-06 0.002325
0.000899 0.00067 0.002343
0.000732 0.000455 0.00239
0.000231 -6e-06 0.002326
0.000255 -7e-06 0.002327
0.00028 -7e-06 0.002327
0.000305 -7e-06 0.002327
0.000329 -8e-06 0.002328
0.00093 0.000495 0.002359
0.00082 0.000546 0.002341
0.000845 0.000544 0.002337
0.000477 -1e-05 0.002333
0.000502 -1.1e-05 0.002336
0.000526 -1.1e-05 0.002335
0.000932 0.000547 0.002365
0.000796 0.000628 0.002348
-0.00071 0.000674 0.002457
-0.000632 -9e-06 0.002271
-0.000607 -9e-06 0.00227
-0.000582 -7e-06 0.002267
-0.000558 -7e-06 0.002266
-0.000533 -6e-06 0.002266
-0.000508 -5e-06 0.002263
-0.000484 -4e-06 0.002261
-0.000459 -5e-06 0.002262
-0.000435 -5e-06 0.002262
-0.001014 0.000667 0.002442
-0.00069 0.000563 0.00265
-0.000361 -4e-06 0.002261
-0.000336 -4e-06 0.00226
-0.000311 -3e-06 0.002258
-0.000262 -4e-06 0.00226
-0.000237 -4e-06 0.00226
-0.001522 0.000663 0.002577
-0.001358 0.000606 0.002687
-0.000941 0.000656 0.002367
-0.000977 0.000635 0.002404
-0.000784 0.000681 0.002357
-0.000655 0.000502 0.002795
-4e-05 -4e-06 0.00226
-1.6e-05 -3e-06 0.002259
9e-06 -2e-06 0.002257
3.4e-05 -2e-06 0.002258
0.001085 0.000402 0.002519
0.001048 0.000422 0.002486
0.001371 0.000397 0.002683
0.001348 0.000397 0.002692
0.000668 0.000333 0.002748
0.001011 0.000552 0.002451
0.000556 0.0002 0.002962
0.000255 -4e-06 0.002261
0.00028 -4e-06 0.002261
0.000305 -4e-06 0.002261
0.000329 -5e-06 0.002263
0.000354 -4e-06 0.002263
0.000556 0.00039 0.002963
0.000613 0.000708 0.0029
0.000477 -6e-06 0.002266
0.000502 -5e-06 0.002263
0.000526 -5e-06 0.002265
-0.001315 0.000493 0.002684
-0.000632 -5e-06 0.002203
-0.000607 -5e-06 0.002203
-0.000582 -4e-06 0.002201
-0.000558 -4e-06 0.002202
-0.000533 -3e-06 0.0022
-0.000508 -3e-06 0.0022
-0.000484 -3e-06 0.002201
-0.000459 -3e-06 0.002199
-0.000435 -4e-06 0.002199
-0.000667 0.000521 0.002749
-0.000361 -3e-06 0.002199
-0.000336 -2e-06 0.002199
-0.000311 -3e-06 0.0022
-0.000287 -4e-06 0.002201
-0.001843 0.000688 0.002028
-0.000238 -4e-06 0.002203
-0.000213 -4e-06 0.002202
-0.001192 0.000514 0.002612
-0.001344 0.000458 0.002693
-0.000526 0.000469 0.002969
-0.000575 0.000549 0.002959
-9e-05 -5e-06 0.002204
-6.5e-05 -5e-06 0.002204
-4e-05 -5e-06 0.002204
-1.6e-05 -5e-06 0.002203
9e-06 -4e-06 0.002203
3.3e-05 -5e-06 0.002205
0.000685 0.000486 0.002643
0.001394 0.000399 0.002672
0.0006 0.000476 0.002938
0.00119 0.000676 0.002604
0.001223 0.000661 0.002627
0.001256 0.000538 0.002648
0.000969 0.00058 0.002401
0.000255 -4e-06 0.002202
0.00028 -4e-06 0.002202
0.000304 -4e-06 0.002203
0.000329 -4e-06 0.002202
0.000354 -4e-06 0.002204
0.000531 0.000391 0.002967
0.001048 0.000558 0.002486
0.001155 0.000503 0.002575
0.000594 0.000702 0.002922
0.000477 -3e-06 0.002201
0.000502 -3e-06 0.002201
0.000526 -2e-06 0.002201
0.000615 0.000434 0.002905
0.001393 0.000454 0.002671
0.000579 0.000417 0.002956
-0.001344 0.000485 0.002693
-0.000632 -4e-06 0.002141
-0.000607 -3e-06 0.00214
-0.000582 -4e-06 0.002144
-0.000558 -4e-06 0.002143
-0.000533 -4e-06 0.002144
-0.000508 -5e-06 0.002146
-0.001523 0.000634 0.00258
-0.001254 0.000597 0.002652
-0.000784 0.000736 0.002357
-0.000723 0.000719 0.002413
-0.002035 0.000531 0.002099
-0.000361 -8e-06 0.002153
-0.000336 -9e-06 0.002154
-0.000311 -9e-06 0.002155
-0.000287 -1e-05 0.002156
-0.000262 -1e-05 0.002157
-0.000237 -1.1e-05 0.002158
-0.000213 -1.1e-05 0.002159
-0.000655 0.00072 0.002795
-0.001088 0.000732 0.002519
-0.001157 0.000695 0.002582
-0.000114 -1.2e-05 0.002162
-9e-05 -1.2e-05 0.002161
-6.5e-05 -1.2e-05 0.002161
-4e-05 -1.2e-05 0.002162
-1.6e-05 -1.2e-05 0.002162
9e-06 -1.2e-05 0.002162
3.3e-05 -1.2e-05 0.002161
5.8e-05 -1.2e-05 0.002162
8.3e-05 -1.2e-05 0.002162
0.000107 -1.2e-05 0.002161
0.000132 -1.1e-05 0.002161
0.000157 -1.1e-05 0.00216
0.001224 0.000552 0.002627
0.001371 0.000235 0.002682
0.00119 0.000295 0.002603
0.001156 0.000312 0.002577
0.001011 0.000715 0.002449
0.001456 0.000683 0.002625
0.00134 0.000707 0.002668
0.001364 0.000707 0.00266
0.00132 0.000648 0.002685
0.000556 0.000553 0.002963
0.001435 0.000679 0.002639
0.001413 0.000677 0.002652
0.000477 -5e-06 0.002148
0.000502 -5e-06 0.002148
0.000679 0.000731 0.002704
0.00112 0.000737 0.002549
0.000579 0.00058 0.002955
0.000658 0.000557 0.002798
0.000705 0.000426 0.002466
-0.000642 0.00054 0.002838
-0.000428 0.000612 0.002983
-0.00139 0.000623 0.002675
-0.001314 0.000629 0.002684
-0.001223 0.000663 0.002634
-0.000731 0.000736 0.002615
-0.000689 0.000726 0.002649
-0.000628 0.000632 0.002879
-0.001223 0.000609 0.002633
-0.000762 0.000733 0.00237
-0.000742 0.000727 0.002388
-0.00037 0.000684 0.002957
-0.000361 -1.7e-05 0.002114
-0.000336 -1.8e-05 0.002115
-0.000311 -1.8e-05 0.002117
-0.000287 -1.9e-05 0.002119
-0.000262 -2e-05 0.00212
-0.000237 -2e-05 0.002121
-0.000213 -2.1e-05 0.002122
-0.000188 -2.2e-05 0.002124
-0.000164 -2.2e-05 0.002124
-0.000139 -2.2e-05 0.002124
-0.000114 -2.2e-05 0.002125
-9e-05 -2.2e-05 0.002125
-6.5e-05 -2.3e-05 0.002126
-4e-05 -2.3e-05 0.002126
-1.6e-05 -2.3e-05 0.002126
9e-06 -2.3e-05 0.002126
3.3e-05 -2.3e-05 0.002126
5.8e-05 -2.3e-05 0.002126
8.3e-05 -2.2e-05 0.002125
0.000107 -2.2e-05 0.002125
0.000132 -2.2e-05 0.002125
0.000157 -2.2e-05 0.002124
0.000181 -2.1e-05 0.002123
0.000206 -2.1e-05 0.002123
0.000231 -2e-05 0.002122
0.000255 -1.9e-05 0.00212
0.00028 -1.9e-05 0.002118
0.000304 -1.8e-05 0.002117
0.001371 0.000561 0.002682
0.000711 0.000743 0.002485
0.000693 0.0007 0.002587
0.000531 0.000554 0.002968
0.000579 0.000553 0.002956
0.001223 0.000634 0.002626
0.000704 0.000744 0.002544
0.001048 0.000721 0.002487
0.001348 0.00056 0.002691
0.000644 0.000623 0.002837
0.000555 0.00058 0.002963
0.000644 0.000542 0.002836
0.000685 0.000378 0.002641
-0.000762 0.000706 0.00237
-0.000628 0.000523 0.002879
-0.000614 0.000507 0.002918
-0.000501 0.000444 0.002973
-0.000941 0.00071 0.002368
-0.001254 0.000489 0.00265
-0.000723 0.000665 0.002413
-0.000655 0.00053 0.002795
-0.000706 0.000641 0.002532
-0.001405 0.000575 0.002669
-0.001285 0.000477 0.002668
-0.000574 0.000467 0.002959
-0.001192 0.000541 0.002612
-0.00151 0.000601 0.002604
-0.001383 0.000715 0.002652
-0.000287 -3e-05 0.002086
-0.000262 -3.1e-05 0.002086
-0.000237 -3.2e-05 0.002088
-0.000213 -3.2e-05 0.002089
-0.000188 -3.3e-05 0.00209
-0.000164 -3.3e-05 0.002091
-0.000139 -3.4e-05 0.002092
-0.000114 -3.4e-05 0.002093
-9e-05 -3.5e-05 0.002093
-6.5e-05 -3.5e-05 0.002094
-4e-05 -3.5e-05 0.002094
-1.6e-05 -3.5e-05 0.002093
9e-06 -3.4e-05 0.002093
3.3e-05 -3.5e-05 0.002093
5.8e-05 -3.4e-05 0.002093
8.3e-05 -3.4e-05 0.002093
0.000107 -3.4e-05 0.002092
0.000132 -3.4e-05 0.002092
0.000157 -3.3e-05 0.002091
0.000181 -3.3e-05 0.00209
0.000206 -3.2e-05 0.002089
0.000231 -3.2e-05 0.002088
0.000255 -3.1e-05 0.002087
0.00028 -3e-05 0.002085
0.000304 -3e-05 0.002083
0.000329 -2.9e-05 0.002082
0.000579 0.000308 0.002956
0.000845 0.000571 0.002337
0.000676 0.00041 0.002695
0.00097 0.000525 0.002403
0.000716 0.000554 0.002418
0.0007 0.000507 0.002529
0.001371 0.00037 0.002683
0.000752 0.00057 0.002371
0.000629 0.000366 0.00287
0.000845 0.000598 0.002338
0.000716 0.000581 0.002418
0.000732 0.000592 0.002389
-0.000667 0.000494 0.002749
-0.000655 0.000475 0.002796
-0.000642 0.000458 0.002838
-0.000628 0.000441 0.00288
-0.000614 0.000426 0.002919
-0.000597 0.000414 0.002949
-0.000574 0.000413 0.002959
-0.00055 0.000414 0.002964
-0.000526 0.000415 0.002969
-0.000502 0.000416 0.002974
-0.000477 0.000418 0.002977
-0.000452 0.000419 0.002981
-0.001518 0.000592 0.002343
-0.001491 0.000572 0.00262
-0.001524 0.000606 0.002581
-0.002001 0.000705 0.002093
-0.001367 0.000403 0.002687
-0.001344 0.000403 0.002693
-0.001315 0.000411 0.002684
-0.001285 0.000423 0.002667
-0.001254 0.000435 0.00265
-0.001223 0.000446 0.002632
-0.001192 0.000459 0.002612
-0.001157 0.000477 0.002582
-0.001122 0.000497 0.002549
-0.001087 0.000516 0.002516
-0.001051 0.000537 0.002481
-0.001015 0.000557 0.002445
-0.000977 0.00058 0.002405
-0.000941 0.000601 0.002368
-0.000909 0.000616 0.002346
-0.000881 0.000623 0.002338
-0.000855 0.000627 0.002336
-0.00083 0.000629 0.00234
-0.000806 0.000629 0.002347
-0.000784 0.000627 0.002357
-0.000762 0.000624 0.00237
-0.000741 0.000619 0.002387
-0.000723 0.00061 0.002413
-0.00071 0.000593 0.002455
-0.000699 0.000532 0.002595
-0.00069 0.000508 0.002651
-0.000679 0.000487 0.0027
-0.000667 0.000467 0.00275
-0.000655 0.000448 0.002796
-0.000641 0.000431 0.002837
-0.000628 0.000414 0.00288
-0.000614 0.000399 0.002918
-0.000597 0.000387 0.002948
-0.000575 0.000385 0.00296
-0.00055 0.000386 0.002965
-0.000526 0.000387 0.002969
-0.000502 0.000389 0.002974
-0.000477 0.00039 0.002978
-0.000452 0.000392 0.002982
-0.001404 0.000521 0.002668
-0.001383 0.000576 0.00268
-0.00149 0.0006 0.002619
-0.002403 0.000618 0.001322
-0.001368 0.000375 0.002688
-0.001344 0.000376 0.002693
-0.001315 0.000384 0.002684
-0.001285 0.000395 0.002668
-0.001254 0.000408 0.00265
-0.001223 0.000419 0.002633
-0.001192 0.000432 0.002612
-0.001157 0.00045 0.002583
-0.001122 0.00047 0.002549
-0.001087 0.000489 0.002516
-0.001051 0.000509 0.002481
-0.001015 0.00053 0.002446
-0.000977 0.000553 0.002405
-0.000941 0.000575 0.002367
-0.000909 0.000589 0.002346
-0.000881 0.000596 0.002338
-0.000855 0.0006 0.002336
-0.00083 0.000602 0.00234
-0.000806 0.000601 0.002347
-0.000784 0.0006 0.002357
-0.000762 0.000597 0.00237
-0.000741 0.000592 0.002387
-0.000723 0.000583 0.002413
-0.000709 0.000567 0.002453
-0.000707 0.000532 0.002532
-0.000699 0.000504 0.002596
-0.00069 0.000481 0.00265
-0.000667 0.000439 0.00275
-0.000655 0.000421 0.002795
-0.000642 0.000404 0.002838
-0.000628 0.000387 0.002879
-0.000614 0.000371 0.002918
-0.000597 0.00036 0.002949
-0.000574 0.000358 0.00296
-0.00055 0.000359 0.002965
-0.000526 0.00036 0.002969
-0.000502 0.000362 0.002974
-0.000477 0.000363 0.002978
-0.000452 0.000365 0.002982
-0.000428 0.000366 0.002985
-0.001885 0.000643 0.002047
-0.001526 0.000632 0.002446
-0.001527 0.000639 0.002494
-0.001487 0.000657 0.002614
-0.001367 0.000348 0.002688
-0.001344 0.000349 0.002693
-0.001315 0.000357 0.002683
-0.001285 0.000368 0.002668
-0.001254 0.00038 0.00265
-0.001223 0.000392 0.002632
-0.001192 0.000405 0.002612
-0.001157 0.000423 0.002582
-0.001122 0.000442 0.002551
-0.001087 0.000462 0.002516
-0.001051 0.000482 0.002481
-0.001014 0.000504 0.002444
-0.000978 0.000526 0.002406
-0.00094 0.000548 0.002367
-0.000909 0.000561 0.002346
-0.000881 0.000569 0.002337
-0.000855 0.000573 0.002336
-0.00083 0.000574 0.00234
-0.000806 0.000574 0.002347
-0.000784 0.000573 0.002356
-0.000762 0.00057 0.00237
-0.000741 0.000565 0.002387
-0.000723 0.000556 0.002413
-0.000709 0.00054 0.002452
-0.000707 0.000504 0.002533
-0.00069 0.000454 0.00265
-0.000679 0.000432 0.002702
-0.000668 0.000412 0.002751
-0.000655 0.000394 0.002795
-0.000642 0.000376 0.002838
-0.000628 0.00036 0.002879
-0.000614 0.000344 0.002918
-0.000597 0.000333 0.002948
-0.000574 0.000331 0.00296
-0.00055 0.000332 0.002965
-0.000526 0.000333 0.002969
-0.000501 0.000334 0.002973
-0.000477 0.000336 0.002978
-0.000452 0.000337 0.002981
-0.000428 0.000339 0.002985
-0.001526 0.000604 0.002447
-0.001448 0.000573 0.002645
-0.001526 0.000658 0.002446
-0.001425 0.000657 0.002654
-0.001367 0.000321 0.002687
-0.001344 0.000322 0.002693
-0.001315 0.00033 0.002684
-0.001285 0.000341 0.002668
-0.001254 0.000352 0.002651
-0.001223 0.000365 0.002632
-0.001191 0.000378 0.002612
-0.001157 0.000396 0.002582
-0.001122 0.000415 0.002551
-0.001087 0.000435 0.002516
-0.001051 0.000455 0.002481
-0.001014 0.000476 0.002444
-0.000977 0.000499 0.002405
-0.000941 0.000521 0.002367
-0.000909 0.000534 0.002346
-0.000881 0.000542 0.002337
-0.000855 0.000546 0.002336
-0.00083 0.000547 0.00234
-0.000806 0.000547 0.002347
-0.000784 0.000546 0.002357
-0.000762 0.000543 0.00237
-0.000741 0.000538 0.002387
-0.000723 0.000529 0.002413
-0.000709 0.000513 0.002452
-0.000707 0.000477 0.002533
-0.00069 0.000427 0.002651
-0.000679 0.000405 0.002703
-0.000667 0.000385 0.00275
-0.000655 0.000367 0.002795
-0.000642 0.000349 0.002838
-0.000628 0.000333 0.002878
-0.000614 0.000317 0.002919
-0.000597 0.000306 0.002949
-0.000574 0.000304 0.002959
-0.00055 0.000305 0.002964
-0.000526 0.000306 0.002969
-0.000501 0.000308 0.002973
-0.000477 0.000309 0.002977
-0.000452 0.000311 0.002981
-0.001528 0.000585 0.002495
-0.00147 0.000572 0.002633
-0.001523 0.000679 0.002396
-0.002035 0.000694 0.002101
-0.001367 0.000294 0.002687
-0.001344 0.000295 0.002693
-0.001315 0.000303 0.002683
-0.001285 0.000314 0.002668
-0.001254 0.000325 0.002651
-0.001223 0.000338 0.002631
-0.001192 0.000351 0.002612
-0.001157 0.000369 0.002582
-0.001122 0.000387 0.002551
-0.001086 0.000408 0.002515
-0.001051 0.000428 0.002481
-0.001015 0.000449 0.002445
-0.000977 0.000472 0.002405
-0.00094 0.000494 0.002367
-0.000909 0.000507 0.002346
-0.00088 0.000515 0.002337
-0.000854 0.000519 0.002336
-0.00083 0.00052 0.00234
-0.000806 0.00052 0.002347
-0.000784 0.000519 0.002357
-0.000762 0.000516 0.00237
-0.000741 0.00051 0.002387
-0.000723 0.000501 0.002413
-0.00071 0.000484 0.002456
-0.000706 0.00045 0.002532
-0.00069 0.000399 0.002652
-0.000679 0.000378 0.002702
-0.000667 0.000358 0.002751
-0.000655 0.00034 0.002795
-0.000642 0.000322 0.002839
-0.000628 0.000306 0.002878
-0.000614 0.00029 0.002918
-0.000597 0.000279 0.002949
-0.000574 0.000277 0.002959
-0.00055 0.000278 0.002965
-0.000526 0.000279 0.002969
-0.000502 0.00028 0.002974
-0.000477 0.000281 0.002978
-0.000453 0.000283 0.002982
-0.001759 0.000698 0.001988
-0.001528 0.000612 0.002495
-0.001469 0.0006 0.002632
-0.0021 0.000674 0.002111
-0.001367 0.000267 0.002687
-0.001343 0.000268 0.002693
-0.001315 0.000276 0.002683
-0.001285 0.000287 0.002668
-0.001254 0.000298 0.00265
-0.001223 0.000311 0.002632
-0.001192 0.000324 0.002612
-0.001157 0.000342 0.002582
-0.001123 0.00036 0.002551
-0.001086 0.000381 0.002515
-0.001051 0.000401 0.002481
-0.001014 0.000422 0.002444
-0.000978 0.000444 0.002406
-0.00094 0.000467 0.002366
-0.000909 0.00048 0.002346
-0.000881 0.000487 0.002337
-0.000855 0.000491 0.002336
-0.00083 0.000493 0.00234
-0.000806 0.000493 0.002347
-0.000783 0.000491 0.002357
-0.000762 0.000488 0.00237
-0.000741 0.000483 0.002387
-0.000723 0.000474 0.002413
-0.000709 0.000457 0.002455
-0.000707 0.000422 0.002534
-0.000699 0.000396 0.002596
-0.00069 0.000372 0.002652
-0.000679 0.00035 0.002703
-0.000667 0.000331 0.00275
-0.000655 0.000313 0.002795
-0.000642 0.000295 0.002839
-0.000628 0.000278 0.00288
-0.000614 0.000262 0.002919
-0.000597 0.000251 0.002949
-0.000574 0.00025 0.002959
-0.00055 0.000251 0.002964
-0.000526 0.000252 0.002969
-0.000501 0.000253 0.002974
-0.000477 0.000255 0.002978
-0.000452 0.000256 0.002982
-0.001448 0.000492 0.002645
-0.001465 0.000702 0.002038
-0.001426 0.000601 0.002657
-0.001469 0.000627 0.002632
-0.001367 0.00024 0.002687
-0.001343 0.00024 0.002693
-0.001315 0.000249 0.002684
-0.001284 0.00026 0.002668
-0.001254 0.000271 0.002651
-0.001223 0.000284 0.002631
-0.001191 0.000297 0.002611
-0.001157 0.000315 0.002581
-0.001122 0.000333 0.00255
-0.001086 0.000354 0.002514
-0.001051 0.000373 0.002483
-0.001014 0.000395 0.002444
-0.000978 0.000417 0.002406
-0.00094 0.000439 0.002366
-0.000909 0.000453 0.002345
-0.00088 0.00046 0.002337
-0.000854 0.000464 0.002336
-0.00083 0.000466 0.00234
-0.000806 0.000466 0.002347
-0.000783 0.000464 0.002357
-0.000762 0.000461 0.00237
-0.000741 0.000456 0.002388
-0.000723 0.000447 0.002413
-0.000707 0.000395 0.002534
-0.000699 0.000368 0.002596
-0.00069 0.000345 0.002652
-0.000679 0.000323 0.002703
-0.000667 0.000304 0.002749
-0.000655 0.000285 0.002795
-0.000641 0.000268 0.002838
-0.000628 0.000251 0.00288
-0.000614 0.000235 0.00292
-0.000597 0.000224 0.002948
-0.000574 0.000223 0.002959
-0.00055 0.000224 0.002964
-0.000526 0.000225 0.002969
-0.000501 0.000226 0.002973
-0.000477 0.000227 0.002977
-0.001569 0.000696 0.001934
-0.002145 0.000548 0.002111
-0.002259 0.000497 0.001883
-0.001404 0.00063 0.002667
-0.001367 0.000213 0.002687
-0.001343 0.000214 0.002692
-0.001315 0.000221 0.002684
-0.001284 0.000233 0.002668
-0.001254 0.000244 0.002651
-0.001223 0.000257 0.002631
-0.001191 0.00027 0.002612
-0.001157 0.000288 0.00258
-0.001122 0.000306 0.00255
-0.001086 0.000327 0.002514
-0.00105 0.000347 0.002479
-0.001014 0.000368 0.002443
-0.000978 0.000389 0.002406
-0.00094 0.000412 0.002367
-0.000909 0.000426 0.002346
-0.00088 0.000433 0.002337
-0.000854 0.000437 0.002336
-0.00083 0.000439 0.00234
-0.000806 0.000438 0.002347
-0.000783 0.000437 0.002357
-0.000762 0.000434 0.00237
-0.000741 0.000429 0.002388
-0.000723 0.00042 0.002413
-0.000709 0.000403 0.002455
-0.000707 0.000368 0.002535
-0.000699 0.000341 0.002596
-0.00069 0.000318 0.002651
-0.000679 0.000296 0.002703
-0.000667 0.000277 0.002749
-0.000655 0.000258 0.002795
-0.000641 0.000241 0.002837
-0.000628 0.000223 0.00288
-0.000614 0.000208 0.002919
-0.000596 0.000198 0.002947
-0.000574 0.000196 0.002958
-0.00055 0.000196 0.002964
-0.000526 0.000198 0.002969
-0.000501 0.000199 0.002973
-0.000477 0.0002 0.002977
-0.001759 0.000726 0.001987
-0.001359 0.000578 0.002689
-0.001382 0.000604 0.002679
-0.001926 0.000734 0.002066
-0.001367 0.000186 0.002686
-0.001343 0.000187 0.002691
-0.001315 0.000194 0.002683
-0.001284 0.000206 0.002667
-0.001254 0.000217 0.002651
-0.001223 0.000229 0.002632
-0.001191 0.000242 0.002612
-0.001157 0.000261 0.00258
-0.001122 0.00028 0.002548
-0.001086 0.0003 0.002514
-0.00105 0.00032 0.00248
-0.001014 0.000341 0.002443
-0.000977 0.000363 0.002404
-0.00094 0.000385 0.002367
-0.000909 0.000398 0.002346
-0.000881 0.000406 0.002338
-0.000854 0.00041 0.002336
-0.00083 0.000411 0.00234
-0.000806 0.000411 0.002347
-0.000784 0.00041 0.002357
-0.000762 0.000407 0.00237
-0.000741 0.000402 0.002388
-0.000723 0.000393 0.002413
-0.000709 0.000377 0.002452
-0.0007 0.000313 0.002598
-0.00069 0.00029 0.002652
-0.000679 0.000269 0.002703
-0.000667 0.00025 0.002749
-0.000655 0.000231 0.002795
-0.000641 0.000214 0.002838
-0.000628 0.000197 0.00288
-0.000614 0.000181 0.002919
-0.000596 0.000171 0.002946
-0.000574 0.000169 0.002957
-0.00055 0.000169 0.002964
-0.000526 0.00017 0.002969
-0.000501 0.000172 0.002973
-0.000477 0.000173 0.002977
-0.002196 0.000674 0.00173
-0.001511 0.000573 0.002606
-0.001518 0.000701 0.002342
-0.001446 0.000656 0.002642
-0.001366 0.00016 0.002684
-0.001342 0.00016 0.00269
-0.001315 0.000167 0.002683
-0.001284 0.000178 0.002667
-0.001254 0.00019 0.002651
-0.001223 0.000202 0.002632
-0.001191 0.000215 0.002612
-0.001156 0.000234 0.00258
-0.001122 0.000252 0.002549
-0.001086 0.000273 0.002514
-0.00105 0.000293 0.00248
-0.001014 0.000314 0.002442
-0.000977 0.000337 0.002403
-0.00094 0.000358 0.002366
-0.000909 0.000371 0.002346
-0.00088 0.000379 0.002337
-0.000854 0.000383 0.002336
-0.00083 0.000384 0.00234
-0.000806 0.000384 0.002347
-0.000784 0.000383 0.002357
-0.000762 0.000379 0.00237
-0.000741 0.000374 0.002388
-0.000723 0.000366 0.002413
-0.000709 0.000349 0.002453
-0.0007 0.000286 0.002598
-0.00069 0.000263 0.002653
-0.000678 0.000243 0.002701
-0.000667 0.000223 0.002749
-0.000655 0.000203 0.002797
-0.000641 0.000186 0.002838
-0.000628 0.00017 0.002879
-0.000614 0.000154 0.002919
-0.000595 0.000145 0.002944
-0.000573 0.000143 0.002955
-0.000549 0.000143 0.002962
-0.000525 0.000143 0.002968
-0.000501 0.000144 0.002973
-0.000477 0.000146 0.002977
-0.000452 0.000148 0.00298
-0.000318 -3e-05 0.002081
-0.002067 0.000521 0.002106
-0.001525 0.000578 0.002582
-0.001527 0.000621 0.00254
-0.001402 0.000659 0.002664
-0.001366 0.000134 0.002682
-0.001342 0.000134 0.002687
-0.001315 0.00014 0.002682
-0.001284 0.000151 0.002667
-0.001254 0.000163 0.00265
-0.001223 0.000174 0.002633
-0.001191 0.000188 0.002612
-0.001157 0.000206 0.002581
-0.001122 0.000225 0.00255
-0.001086 0.000245 0.002515
-0.00105 0.000265 0.00248
-0.001014 0.000287 0.002443
-0.000977 0.000309 0.002403
-0.00094 0.00033 0.002367
-0.000909 0.000344 0.002346
-0.00088 0.000351 0.002337
-0.000854 0.000355 0.002336
-0.00083 0.000357 0.00234
-0.000806 0.000357 0.002347
-0.000784 0.000355 0.002357
-0.000762 0.000352 0.002371
-0.000741 0.000347 0.002388
-0.000723 0.000339 0.002413
-0.000707 0.000286 0.002534
-0.0007 0.000258 0.002599
-0.000689 0.000237 0.00265
-0.000679 0.000215 0.002702
-0.000667 0.000195 0.002749
-0.000655 0.000176 0.002795
-0.000641 0.00016 0.002836
-0.000628 0.000143 0.002879
-0.000614 0.000127 0.002918
-0.000594 0.00012 0.00294
-0.000572 0.000118 0.002951
-0.000548 0.000117 0.002959
-0.000525 0.000118 0.002965
-0.0005 0.000119 0.00297
-0.000476 0.00012 0.002975
-0.000451 0.000122 0.002977
-0.000342 -3.1e-05 0.002075
-0.001448 0.000519 0.002645
-0.001511 0.000698 0.002285
-0.00151 0.000726 0.002284
-0.001506 0.000658 0.002598
-0.001364 0.000109 0.002677
-0.00134 0.000109 0.002683
-0.001314 0.000113 0.002682
-0.001284 0.000124 0.002666
-0.001254 0.000135 0.00265
-0.001223 0.000147 0.002632
-0.001192 0.000161 0.002612
-0.001157 0.000179 0.002581
-0.001122 0.000197 0.002551
-0.001086 0.000219 0.002513
-0.00105 0.000238 0.00248
-0.001014 0.000259 0.002443
-0.000976 0.000283 0.002403
-0.00094 0.000303 0.002367
-0.000909 0.000317 0.002346
-0.00088 0.000324 0.002338
-0.000854 0.000328 0.002336
-0.00083 0.00033 0.00234
-0.000806 0.000329 0.002347
-0.000784 0.000328 0.002357
-0.000762 0.000325 0.00237
-0.000741 0.00032 0.002387
-0.000723 0.000311 0.002413
-0.000709 0.000295 0.002454
-0.000706 0.00026 0.002531
-0.0007 0.000232 0.002598
-0.00069 0.000209 0.002651
-0.000679 0.000188 0.002701
-0.000667 0.000169 0.002749
-0.000655 0.000149 0.002796
-0.000641 0.000133 0.002836
-0.000628 0.000115 0.00288
-0.000613 0.000101 0.002915
-0.000593 9.5e-05 0.002935
-0.00057 9.4e-05 0.002945
-0.000547 9.3e-05 0.002953
-0.000523 9.3e-05 0.00296
-0.000499 9.4e-05 0.002965
-0.000474 9.5e-05 0.002969
-0.000449 9.7e-05 0.002972
-0.000424 0.0001 0.002973
-0.000365 -3.1e-05 0.002068
-0.00147 0.000518 0.002633
-0.001523 0.000652 0.002396
-0.001926 0.000707 0.002066
-0.001526 0.000713 0.002447
-0.001362 8.5e-05 0.00267
-0.001338 8.5e-05 0.002676
-0.001313 8.8e-05 0.002677
-0.001284 9.7e-05 0.002666
-0.001254 0.000108 0.00265
-0.001223 0.00012 0.002632
-0.001191 0.000134 0.002612
-0.001157 0.000152 0.002581
-0.001122 0.00017 0.00255
-0.00105 0.000212 0.002478
-0.001014 0.000232 0.002444
-0.000976 0.000255 0.002403
-0.00094 0.000276 0.002367
-0.000909 0.00029 0.002346
-0.00088 0.000297 0.002338
-0.000854 0.000301 0.002336
-0.00083 0.000303 0.00234
-0.000806 0.000302 0.002347
-0.000783 0.000301 0.002357
-0.000762 0.000298 0.00237
-0.000741 0.000293 0.002387
-0.000723 0.000284 0.002413
-0.000709 0.000267 0.002454
-0.000706 0.000233 0.002532
-0.0007 0.000205 0.002597
-0.00069 0.000182 0.002651
-0.000678 0.000161 0.002701
-0.000667 0.000141 0.002749
-0.000655 0.000122 0.002796
-0.000641 0.000105 0.002836
-0.000627 8.9e-05 0.002878
-0.000611 7.6e-05 0.00291
-0.00059 7.2e-05 0.002926
-0.000567 7.1e-05 0.002936
-0.000544 7e-05 0.002944
-0.00052 7e-05 0.00295
-0.000496 7.1e-05 0.002956
-0.000472 7.2e-05 0.00296
-0.000447 7.4e-05 0.002963
-0.000422 7.7e-05 0.002965
-0.00039 -3.2e-05 0.002063
-0.001523 0.00057 0.002396
-0.001772 0.000741 0.002008
-0.001965 0.000691 0.002081
-0.001467 0.000656 0.002629
-0.001359 6.3e-05 0.00266
-0.001336 6.3e-05 0.002667
-0.001311 6.5e-05 0.00267
-0.001284 7e-05 0.002665
-0.001254 8.1e-05 0.00265
-0.001223 9.3e-05 0.002633
-0.001191 0.000107 0.002612
-0.001156 0.000125 0.00258
-0.001122 0.000143 0.00255
-0.001086 0.000163 0.002515
-0.001049 0.000185 0.002477
-0.001014 0.000205 0.002444
-0.000977 0.000228 0.002404
-0.00094 0.000249 0.002366
-0.000908 0.000263 0.002346
-0.00088 0.00027 0.002338
-0.000854 0.000274 0.002336
-0.00083 0.000275 0.00234
-0.000806 0.000275 0.002347
-0.000783 0.000274 0.002357
-0.000762 0.000271 0.00237
-0.000741 0.000266 0.002387
-0.000723 0.000257 0.002413
-0.000709 0.00024 0.002454
-0.0007 0.000177 0.002598
-0.000689 0.000155 0.00265
-0.000678 0.000134 0.002701
-0.000667 0.000114 0.00275
-0.000655 9.5e-05 0.002795
-0.000641 7.8e-05 0.002837
-0.000627 6.3e-05 0.002876
-0.000608 5.4e-05 0.002901
-0.000587 5.1e-05 0.002914
-0.000564 4.9e-05 0.002924
-0.00054 4.9e-05 0.002931
-0.000517 4.9e-05 0.002938
-0.000492 5e-05 0.002943
-0.000468 5.1e-05 0.002948
-0.000443 5.3e-05 0.002951
-0.000418 5.5e-05 0.002953
-0.000413 -3.3e-05 0.002057
-0.001495 0.000738 0.001986
-0.001844 0.000715 0.002028
-0.001489 0.000628 0.002618
-0.00208 0.000659 0.00154
-0.001355 4.2e-05 0.002647
-0.001332 4.2e-05 0.002654
-0.001307 4.3e-05 0.002658
-0.001282 4.7e-05 0.002659
-0.001253 5.5e-05 0.002649
-0.001223 6.6e-05 0.002632
-0.001191 8e-05 0.00261
-0.001157 9.7e-05 0.002581
-0.001122 0.000116 0.002549
-0.001086 0.000137 0.002514
-0.001014 0.000178 0.002442
-0.000977 0.0002 0.002404
-0.00094 0.000222 0.002366
-0.000908 0.000236 0.002345
-0.00088 0.000243 0.002337
-0.000854 0.000247 0.002336
-0.00083 0.000248 0.00234
-0.000806 0.000248 0.002347
-0.000783 0.000247 0.002357
-0.000762 0.000244 0.00237
-0.000741 0.000239 0.002387
-0.000723 0.00023 0.002413
-0.00071 0.000212 0.002456
-0.000437 -3.3e-05 0.002051
-0.000699 0.000152 0.002595
-0.00069 0.000127 0.002652
-0.000679 0.000106 0.002702
-0.000667 8.7e-05 0.002749
-0.000654 6.8e-05 0.002795
-0.000641 5.2e-05 0.002835
-0.000624 3.9e-05 0.002868
-0.000604 3.3e-05 0.002887
-0.000582 3.1e-05 0.002899
-0.000559 3e-05 0.002908
-0.000536 3e-05 0.002915
-0.000512 3e-05 0.002922
-0.000488 3.1e-05 0.002928
-0.000463 3.2e-05 0.002932
-0.000439 3.3e-05 0.002936
-0.000414 3.5e-05 0.002938
-0.000461 -3.3e-05 0.002045
-0.001603 0.000734 0.001926
-0.001926 0.00068 0.002066
-0.001397 2.5e-05 0.002612
-0.001374 2.4e-05 0.002622
-0.00135 2.4e-05 0.00263
-0.001327 2.3e-05 0.002637
-0.001303 2.4e-05 0.002642
-0.001278 2.6e-05 0.002645
-0.001251 3.1e-05 0.002641
-0.001222 4e-05 0.00263
-0.001191 5.3e-05 0.00261
-0.001157 7e-05 0.002583
-0.001122 8.9e-05 0.00255
-0.00105 0.00013 0.002479
-0.001014 0.000151 0.002442
-0.000977 0.000173 0.002404
-0.00094 0.000195 0.002366
-0.000908 0.000209 0.002345
-0.00088 0.000216 0.002337
-0.000854 0.00022 0.002336
-0.00083 0.000221 0.00234
-0.000806 0.000221 0.002347
-0.000783 0.00022 0.002357
-0.000762 0.000217 0.00237
-0.000741 0.000211 0.002387
-0.000723 0.000203 0.002413
-0.000709 0.000186 0.002453
-0.000699 0.000124 0.002596
-0.00069 0.0001 0.002651
-0.000678 8e-05 0.002701
-0.000666 6e-05 0.002748
-0.000654 4.2e-05 0.002792
-0.000638 2.8e-05 0.002828
-0.00062 1.9e-05 0.002853
-0.000599 1.5e-05 0.002868
-0.000576 1.3e-05 0.002879
-0.000553 1.3e-05 0.002887
-0.000529 1.3e-05 0.002894
-0.000506 1.3e-05 0.002901
-0.000482 1.4e-05 0.002907
-0.000457 1.5e-05 0.002911
-0.000433 1.6e-05 0.002915
-0.000408 1.8e-05 0.002919
-0.000485 -3.4e-05 0.002039
-0.002462 0.000723 0.000522
-0.001506 0.000748 0.002231
-0.00139 9e-06 0.002589
-0.001367 9e-06 0.002598
-0.001343 8e-06 0.002605
-0.00132 8e-06 0.002612
-0.001296 8e-06 0.002619
-0.001271 9e-06 0.002623
-0.001246 1.3e-05 0.002623
-0.001219 1.8e-05 0.002618
-0.001189 2.8e-05 0.002605
-0.001156 4.4e-05 0.00258
-0.001122 6.2e-05 0.002549
-0.000509 -3.4e-05 0.002033
-0.00105 0.000103 0.002478
-0.001013 0.000124 0.002442
-0.000977 0.000146 0.002405
-0.00094 0.000168 0.002367
-0.000908 0.000181 0.002345
-0.00088 0.000189 0.002337
-0.000854 0.000193 0.002336
-0.00083 0.000194 0.002339
-0.000806 0.000194 0.002347
-0.000783 0.000192 0.002357
-0.000761 0.00019 0.00237
-0.000741 0.000184 0.002387
-0.000723 0.000175 0.002413
-0.000707 0.000122 0.002537
-0.000699 9.6e-05 0.002597
-0.00069 7.3e-05 0.002651
-0.000678 5.3e-05 0.002701
-0.000666 3.3e-05 0.002748
-0.000651 1.9e-05 0.002784
-0.000633 1e-05 0.00281
-0.000612 5e-06 0.002827
-0.00059 3e-06 0.002837
-0.000566 3e-06 0.002844
-0.000542 3e-06 0.002851
-0.000519 3e-06 0.002859
-0.000496 2e-06 0.002867
-0.000472 2e-06 0.002874
-0.000449 2e-06 0.002881
-0.000424 3e-06 0.002886
-0.000533 -3.4e-05 0.002026
-0.002232 0.000463 0.002024
-0.001525 0.000551 0.002445
-0.001378 1e-06 0.002549
-0.001355 1e-06 0.002556
-0.001331 1e-06 0.002564
-0.001307 1e-06 0.002571
-0.001284 1e-06 0.002577
-0.00126 1e-06 0.002585
-0.001236 2e-06 0.002589
-0.001211 4e-06 0.002591
-0.001184 1e-05 0.002587
-0.001154 2e-05 0.002573
-0.001121 3.6e-05 0.002547
-0.001049 7.7e-05 0.002476
-0.001013 9.7e-05 0.002442
-0.000977 0.000119 0.002403
-0.00094 0.000141 0.002366
-0.000908 0.000154 0.002345
-0.00088 0.000162 0.002336
-0.000854 0.000165 0.002336
-0.000829 0.000167 0.002339
-0.000806 0.000167 0.002347
-0.000783 0.000165 0.002357
-0.000761 0.000162 0.00237
-0.000741 0.000157 0.002387
-0.000723 0.000148 0.002412
-0.000709 0.000132 0.002454
-0.000706 9.8e-05 0.002531
-0.000699 7e-05 0.002595
-0.000689 4.6e-05 0.002651
-0.000678 2.6e-05 0.002699
-0.000663 1.1e-05 0.002736
-0.000643 5e-06 0.002756
-0.000621 3e-06 0.002768
-0.000597 2e-06 0.002776
-0.000574 3e-06 0.002782
-0.000551 2e-06 0.002791
-0.000527 2e-06 0.002798
-0.000503 2e-06 0.002805
-0.00048 2e-06 0.002812
-0.000456 2e-06 0.002819
-0.000556 -3.5e-05 0.002019
-0.00058 -3.5e-05 0.002013
-0.001362 2e-06 0.002492
-0.001337 3e-06 0.002497
-0.001314 3e-06 0.002504
-0.00129 3e-06 0.00251
-0.001267 2e-06 0.002518
-0.001243 3e-06 0.002524
-0.001219 2e-06 0.002532
-0.001196 3e-06 0.002539
-0.001171 4e-06 0.002544
-0.001146 5e-06 0.002547
-0.001117 1.1e-05 0.00254
-0.001086 2.8e-05 0.002515
-0.000604 -3.4e-05 0.002005
-0.000976 9.2e-05 0.002403
-0.00094 0.000114 0.002365
-0.000908 0.000127 0.002345
-0.00088 0.000135 0.002336
-0.000854 0.000138 0.002336
-0.000829 0.00014 0.002339
-0.000806 0.00014 0.002346
-0.000783 0.000138 0.002357
-0.000761 0.000135 0.002369
-0.000741 0.00013 0.002387
-0.000723 0.000121 0.002412
-0.000708 0.000106 0.002451
-0.000689 2e-05 0.002649
-0.000673 6e-06 0.002684
-0.000652 2e-06 0.0027
-0.000628 2e-06 0.002706
-0.000605 3e-06 0.002713
-0.000581 3e-06 0.002719
-0.000557 3e-06 0.002726
-0.000533 3e-06 0.002732
-0.00051 3e-06 0.002739
-0.000486 3e-06 0.002746
-0.000627 -3.4e-05 0.001998
-0.002182 0.000545 0.002078
-0.001345 3e-06 0.002434
-0.001321 2e-06 0.002442
-0.001298 2e-06 0.002449
-0.001275 1e-06 0.002458
-0.001426 0.000492 0.002657
-0.001334 0.000556 0.002692
-0.001204 0.0 0.002481
-0.001181 -1e-06 0.00249
-0.001158 -1e-06 0.002497
-0.001134 -1e-06 0.002505
-0.00111 -0.0 0.00251
-0.001082 7e-06 0.002502
-0.000651 -3.4e-05 0.00199
-0.000939 8.8e-05 0.002362
-0.000908 0.0001 0.002344
-0.00088 0.000108 0.002336
-0.000854 0.000111 0.002336
-0.000829 0.000113 0.002339
-0.000806 0.000113 0.002346
-0.000783 0.000111 0.002356
-0.000761 0.000108 0.002369
-0.000741 0.000103 0.002386
-0.000722 9.4e-05 0.002412
-0.000699 1.6e-05 0.002595
-0.000683 2e-06 0.00263
-0.00064 -4e-06 0.002658
-0.000616 -4e-06 0.002664
-0.000593 -4e-06 0.002671
-0.000569 -4e-06 0.002677
-0.000545 -4e-06 0.002684
-0.000521 -2e-06 0.00269
-0.000497 -2e-06 0.002696
-0.000473 -1e-06 0.002701
-0.000674 -3.4e-05 0.001983
-0.000698 -3.4e-05 0.001976
-0.001511 0.000518 0.002607
-0.001332 -4e-06 0.002392
-0.001308 -3e-06 0.002397
-0.001284 -3e-06 0.002404
-0.001261 -4e-06 0.002412
-0.001528 0.000512 0.00254
-0.001143 -3e-06 0.002445
-0.001119 -3e-06 0.002452
-0.001095 -3e-06 0.002459
-0.001071 -2e-06 0.002464
-0.001045 2e-06 0.002462
-0.001013 1.5e-05 0.002442
-0.000939 6e-05 0.002363
-0.000908 7.3e-05 0.002344
-0.00088 8e-05 0.002336
-0.000854 8.4e-05 0.002335
-0.000829 8.6e-05 0.002339
-0.000806 8.6e-05 0.002346
-0.000783 8.4e-05 0.002356
-0.000761 8.1e-05 0.002369
-0.00074 7.7e-05 0.002386
-0.000722 6.7e-05 0.002411
-0.000721 -3.3e-05 0.001968
-0.000692 -0.0 0.002572
-0.000671 -4e-06 0.002587
-0.000745 -3.3e-05 0.001961
-0.000622 -1e-06 0.002595
-0.000599 -2e-06 0.002603
-0.000575 -3e-06 0.002611
-0.000551 -3e-06 0.002618
-0.000528 -3e-06 0.002626
-0.000481 -3e-06 0.002639
-0.000458 -4e-06 0.002648
-0.000434 -4e-06 0.002656
-0.001525 0.000705 0.002537
-0.001315 -2e-06 0.002332
-0.001291 -2e-06 0.002339
-0.001268 -3e-06 0.002347
-0.001244 -2e-06 0.002352
-0.001527 0.000531 0.002494
-0.001491 0.00049 0.002621
-0.00147 0.000491 0.002633
-0.00136 0.000496 0.00269
-0.0011 1e-06 0.002389
-0.001076 1e-06 0.002394
-0.001052 3e-06 0.002398
-0.001028 2e-06 0.002406
-0.001004 2e-06 0.002412
-0.000976 7e-06 0.002402
-0.000939 3.3e-05 0.002364
-0.000908 4.6e-05 0.002344
-0.00088 5.3e-05 0.002336
-0.000854 5.7e-05 0.002335
-0.000829 5.9e-05 0.002338
-0.000806 5.9e-05 0.002345
-0.000783 5.7e-05 0.002356
-0.000761 5.4e-05 0.002369
-0.00074 4.9e-05 0.002386
-0.000722 4.1e-05 0.002411
-0.000768 -3.3e-05 0.001953
-0.000602 4e-06 0.002528
-0.000579 3e-06 0.002536
-0.000556 4e-06 0.002542
-0.000438 2e-06 0.00258
-0.000415 1e-06 0.00259
-0.001522 0.000705 0.001959
-0.001296 2e-06 0.002266
-0.001272 2e-06 0.002274
-0.001247 4e-06 0.002277
-0.001224 4e-06 0.002284
-0.0012 4e-06 0.002292
-0.001176 4e-06 0.002297
-0.001502 0.000689 0.002591
-0.001383 0.000494 0.00268
-0.001463 0.000687 0.002622
-0.001082 5e-06 0.002325
-0.001058 4e-06 0.002333
-0.001036 2e-06 0.002343
-0.001013 1e-06 0.002353
-0.000965 2e-06 0.002364
-0.000938 8e-06 0.002359
-0.000908 1.9e-05 0.002344
-0.00088 2.6e-05 0.002335
-0.000854 3e-05 0.002335
-0.000829 3.2e-05 0.002338
-0.000805 3.2e-05 0.002345
-0.000783 3e-05 0.002355
-0.000761 2.8e-05 0.002368
-0.00074 2.3e-05 0.002384
-0.000722 1.4e-05 0.00241
-0.000706 1e-06 0.002442
-0.000611 2e-06 0.002469
-0.000587 2e-06 0.002476
-0.000563 2e-06 0.002483
-0.00054 2e-06 0.002489
-0.000516 2e-06 0.002496
-0.000492 3e-06 0.002503
-0.000468 3e-06 0.002509
-0.000444 3e-06 0.002515
-0.000791 -3.2e-05 0.001945
-0.001502 0.00067 0.002225
-0.001525 0.000551 0.002582
-0.001279 3e-06 0.002209
-0.001256 2e-06 0.002218
-0.001233 2e-06 0.002226
-0.00121 0.0 0.002236
-0.001186 -0.0 0.002243
-0.001163 -1e-06 0.002252
-0.00114 -1e-06 0.002261
-0.002001 0.000624 0.002092
-0.001483 0.000687 0.002608
-0.00107 -3e-06 0.002284
-0.001046 -3e-06 0.002291
-0.001526 0.000685 0.002447
-0.001 -4e-06 0.002308
-0.000814 -3.1e-05 0.001937
-0.000953 -6e-06 0.002324
-0.00093 -6e-06 0.002332
-0.000905 -5e-06 0.002336
-0.000879 -0.0 0.002335
-0.000854 3e-06 0.002336
-0.000829 4e-06 0.002338
-0.000805 5e-06 0.002345
-0.000782 3e-06 0.002355
-0.000761 1e-06 0.002367
-0.000739 -3e-06 0.002382
-0.000718 -7e-06 0.002397
-0.000695 -8e-06 0.002406
-0.000671 -8e-06 0.002412
-0.000647 -8e-06 0.002419
-0.000623 -7e-06 0.002425
-0.0006 -7e-06 0.002431
-0.000576 -7e-06 0.002437
-0.000552 -6e-06 0.002444
-0.000528 -7e-06 0.002451
-0.00048 -6e-06 0.002463
-0.000457 -5e-06 0.002469
-0.000433 -4e-06 0.002475
-0.000409 -4e-06 0.002481
-0.000385 -3e-06 0.002486
-0.000361 -3e-06 0.002493
-0.002315 0.00068 0.00131
-0.001291 -4e-06 0.002161
-0.001268 -5e-06 0.002171
-0.001245 -6e-06 0.002179
-0.001221 -7e-06 0.002188
-0.001199 -8e-06 0.002197
-0.001176 -9e-06 0.002207
-0.001153 -9e-06 0.002216
-0.002035 0.000612 0.002099
-0.001885 0.000616 0.002047
-0.001525 0.000497 0.002582
-0.001405 0.000602 0.002668
-0.001426 0.000629 0.002656
-0.001448 0.000628 0.002644
-0.001569 0.000723 0.001934
-0.000942 -1.4e-05 0.002285
-0.000918 -1.4e-05 0.002292
-0.000895 -1.2e-05 0.0023
-0.001523 0.000598 0.002396
-0.001715 0.000719 0.001963
-0.000823 -1.3e-05 0.002319
-0.0008 -1.3e-05 0.002326
-0.000776 -1.3e-05 0.002332
-0.000752 -1.2e-05 0.002338
-0.000728 -1.2e-05 0.002345
-0.000706 -1.4e-05 0.002355
-0.000682 -1.5e-05 0.002364
-0.000658 -1.3e-05 0.002367
-0.000634 -1.3e-05 0.002375
-0.00061 -1.3e-05 0.002381
-0.000586 -1.1e-05 0.002385
-0.000562 -1.2e-05 0.002392
-0.000539 -1.3e-05 0.0024
-0.000516 -1.3e-05 0.002408
-0.000398 -1.3e-05 0.002444
-0.000374 -1.3e-05 0.002453
-0.000351 -1.3e-05 0.002458
-0.000327 -1.2e-05 0.002463
-0.001483 0.000704 0.00215
-0.00128 -1.4e-05 0.002126
-0.001256 -1.3e-05 0.002131
-0.001233 -1.4e-05 0.002139
-0.001209 -1.4e-05 0.002146
-0.001186 -1.5e-05 0.002154
-0.001162 -1.4e-05 0.00216
-0.001138 -1.4e-05 0.002167
-0.001965 0.000637 0.002081
-0.001511 0.00049 0.002607
-0.001491 0.000517 0.002621
-0.001965 0.00061 0.002082
-0.001469 0.000545 0.002632
-0.001491 0.000545 0.00262
-0.001484 0.000676 0.002152
-0.000924 -1.2e-05 0.002225
-0.0009 -1.1e-05 0.00223
-0.000877 -1.1e-05 0.002238
-0.001673 0.000737 0.001944
-0.001524 0.000741 0.002444
-0.000782 -1e-05 0.002263
-0.000758 -1e-05 0.002271
-0.000735 -1.1e-05 0.002279
-0.000711 -1.1e-05 0.002285
-0.000687 -1.1e-05 0.002292
-0.000664 -1.1e-05 0.0023
-0.000569 -1e-05 0.002327
-0.000546 -1.1e-05 0.002336
-0.000523 -1.2e-05 0.002344
-0.000838 -3.1e-05 0.001929
-0.000404 -1.2e-05 0.002377
-0.001215 -1.2e-05 0.002079
-0.001192 -1.2e-05 0.002086
-0.001168 -1.1e-05 0.002091
-0.001144 -1.2e-05 0.002099
-0.001072 -9e-06 0.002114
-0.001048 -9e-06 0.002121
-0.001359 0.000551 0.002689
-0.000977 -8e-06 0.002141
-0.000953 -7e-06 0.002146
-0.001885 0.00067 0.002047
-0.000881 -6e-06 0.002164
-0.000858 -7e-06 0.002173
-0.000834 -7e-06 0.002179
-0.001527 0.000721 0.002493
-0.000738 -5e-06 0.002204
-0.000715 -5e-06 0.002211
-0.000691 -6e-06 0.002218
-0.000668 -5e-06 0.002225
-0.000644 -6e-06 0.002233
-0.000861 -3e-05 0.00192
-0.000409 -7e-06 0.002304
-0.000386 -8e-06 0.002314
-0.000151 -1e-05 0.002389
-0.000127 -1.1e-05 0.002396
-0.000104 -1.1e-05 0.002404
-0.002034 0.000558 0.002098
-0.002165 0.000546 0.002095
-0.001172 -6e-06 0.002018
-0.001148 -6e-06 0.002026
0.000537 -3.4e-05 0.002024
-0.001502 0.000642 0.002226
-0.001053 -6e-06 0.002052
-0.00103 -6e-06 0.002059
-0.001006 -5e-06 0.002065
-0.000982 -5e-06 0.002071
-0.000957 -3e-06 0.002074
-0.000934 -3e-06 0.002082
-0.000911 -4e-06 0.002091
-0.000887 -4e-06 0.002098
-0.000863 -4e-06 0.002104
-0.000839 -3e-06 0.00211
-0.000815 -3e-06 0.002115
-0.001543 0.000729 0.001945
-0.001759 0.000671 0.001987
-0.001801 0.000653 0.002008
-0.001843 0.000634 0.002027
-0.00065 -4e-06 0.002166
-0.000414 -3e-06 0.002235
-0.00039 -4e-06 0.002242
-0.001965 0.000582 0.002082
-0.000226 -5e-06 0.002293
-0.000179 -6e-06 0.002309
-0.000155 -6e-06 0.002316
-0.000132 -7e-06 0.002325
-0.000109 -7e-06 0.002333
-8.5e-05 -7e-06 0.00234
-0.002068 0.000547 0.002107
-0.001202 -4e-06 0.001944
-0.001178 -4e-06 0.00195
-0.001154 -3e-06 0.001956
0.000513 -3.3e-05 0.002031
0.000489 -3.3e-05 0.002037
-0.001035 -3e-06 0.00199
-0.001012 -3e-06 0.001998
-0.000988 -2e-06 0.002003
-0.000964 -2e-06 0.002009
-0.00094 -2e-06 0.002016
-0.000917 -3e-06 0.002024
-0.000893 -3e-06 0.002031
-0.00087 -3e-06 0.00204
-0.000846 -3e-06 0.002046
-0.000823 -3e-06 0.002053
-0.0008 -4e-06 0.002061
-0.001448 0.0006 0.002644
-0.001426 0.00052 0.002657
-0.001519 0.000619 0.002343
-0.001527 0.000558 0.002494
-0.002271 0.000696 0.001305
-0.001522 0.000732 0.001959
-0.000635 -5e-06 0.002112
-0.000611 -5e-06 0.002119
-0.000588 -5e-06 0.002126
-0.000564 -5e-06 0.002133
-0.000493 -5e-06 0.002153
-0.000469 -4e-06 0.002159
-0.000445 -4e-06 0.002166
-0.000422 -4e-06 0.002173
-0.000398 -3e-06 0.002179
-0.000374 -4e-06 0.002187
-0.000208 -3e-06 0.002233
-0.000184 -2e-06 0.002238
-0.000161 -2e-06 0.002246
-0.000137 -3e-06 0.002255
-0.000114 -4e-06 0.002263
-9.1e-05 -4e-06 0.002271
-6.7e-05 -4e-06 0.002277
-0.001802 0.000679 0.002009
-0.001185 -4e-06 0.001887
-0.001161 -3e-06 0.001894
-0.001138 -4e-06 0.001903
-0.001114 -4e-06 0.001909
-0.001926 0.000625 0.002066
-0.002035 0.000585 0.002099
-0.002067 0.000575 0.002107
-0.001517 0.000694 0.002569
-0.000997 -6e-06 0.001948
-0.000974 -7e-06 0.001957
-0.000951 -8e-06 0.001965
-0.000928 -8e-06 0.001973
-0.000904 -9e-06 0.001981
-0.000881 -9e-06 0.001988
-0.000858 -1e-05 0.001997
-0.000834 -1e-05 0.002005
-0.000811 -1.1e-05 0.002013
-0.000787 -1.1e-05 0.00202
-0.000764 -1.1e-05 0.002028
-0.001964 0.000718 0.002083
-0.001518 0.000729 0.002342
-0.000694 -1.2e-05 0.00205
-0.00067 -1.2e-05 0.002057
-0.000646 -1.2e-05 0.002064
-0.000623 -1.2e-05 0.002071
-0.000599 -1.2e-05 0.002077
-0.000575 -1.2e-05 0.002084
-0.000552 -1.2e-05 0.002092
-0.000528 -1.2e-05 0.002098
-0.000504 -1.2e-05 0.002105
-0.00048 -1.1e-05 0.002111
-0.000457 -1.1e-05 0.002117
-0.000433 -1.1e-05 0.002125
-0.000409 -1.1e-05 0.002131
-0.000385 -1e-05 0.002137
-0.000194 -6e-06 0.002184
-0.00017 -6e-06 0.002191
-0.000146 -5e-06 0.002195
-0.000122 -5e-06 0.002202
-9.8e-05 -4e-06 0.002207
-7.4e-05 -4e-06 0.002214
-5e-05 -4e-06 0.00222
-0.001633 0.000727 0.001927
-0.001502 0.000697 0.002225
-0.001885 0.000724 0.002048
-0.001148 -9e-06 0.001849
-0.001125 -1e-05 0.001859
-0.001102 -1.1e-05 0.001867
-0.001382 0.000549 0.002679
-0.001404 0.000548 0.002667
-0.002227 0.00066 0.001298
-0.002097 0.000703 0.002105
-0.002123 0.000698 0.0021
-0.000963 -1.6e-05 0.001919
-0.00094 -1.7e-05 0.001928
-0.000917 -1.7e-05 0.001936
-0.000894 -1.8e-05 0.001945
-0.000871 -1.9e-05 0.001953
-0.000847 -1.9e-05 0.001961
-0.000824 -2e-05 0.001969
-0.000801 -2e-05 0.001977
-0.000777 -2.1e-05 0.001985
-0.000754 -2.1e-05 0.001993
-0.000731 -2.2e-05 0.002001
-0.000707 -2.2e-05 0.002008
-0.000683 -2.2e-05 0.002015
-0.00066 -2.2e-05 0.002023
-0.000636 -2.3e-05 0.00203
-0.000613 -2.3e-05 0.002037
-0.000589 -2.2e-05 0.002044
-0.000565 -2.3e-05 0.002051
-0.000542 -2.2e-05 0.002057
