0.001846 0.000399 -0.001615
0.001833 0.000397 -0.001636
0.001822 0.000393 -0.00166
0.001817 0.000386 -0.001688
0.00182 0.000374 -0.001724
0.001883 0.000314 -0.001846
0.001903 0.000291 -0.001898
0.001921 0.000269 -0.001947
0.001935 0.00025 -0.001993
0.001948 0.000232 -0.002038
0.00196 0.000214 -0.002082
0.001968 0.000198 -0.002123
0.001977 0.000183 -0.002163
0.001985 0.000167 -0.002204
0.001983 0.000158 -0.002235
0.00197 0.000156 -0.002256
0.001953 0.000156 -0.002275
0.001935 0.000158 -0.002291
0.002851 0.000516 -0.000761
0.002557 0.000557 -0.001574
0.002786 0.00062 -0.000783
0.002862 0.000597 -0.000464
0.002706 0.000732 -0.000799
0.002548 0.000137 -0.001584
0.002533 0.000136 -0.001604
0.002517 0.000136 -0.001622
0.002496 0.000139 -0.001636
0.002464 0.000149 -0.001641
0.002429 0.000161 -0.001642
0.002392 0.000173 -0.001643
0.002356 0.000186 -0.001643
0.002311 0.000204 -0.001636
0.002265 0.000222 -0.001627
0.002213 0.000244 -0.001614
0.002163 0.000266 -0.001601
0.002111 0.000288 -0.001588
0.002055 0.000312 -0.001571
0.002001 0.000336 -0.001556
0.001956 0.000354 -0.001548
0.001924 0.000364 -0.001552
0.001899 0.000369 -0.001563
0.001878 0.000372 -0.001578
0.001861 0.000372 -0.001595
0.001846 0.000371 -0.001615
0.001833 0.00037 -0.001636
0.001822 0.000366 -0.00166
0.001817 0.000358 -0.001688
0.00182 0.000347 -0.001724
0.001883 0.000287 -0.001847
0.001904 0.000263 -0.001899
0.00192 0.000242 -0.001947
0.001935 0.000223 -0.001993
0.001948 0.000204 -0.002038
0.00196 0.000187 -0.002082
0.001968 0.000171 -0.002122
0.001977 0.000155 -0.002164
0.001984 0.00014 -0.002204
0.001981 0.000132 -0.002233
0.001967 0.000131 -0.002254
0.001951 0.000131 -0.002273
0.001933 0.000131 -0.00229
0.002819 0.000527 -0.000772
0.002582 0.000555 -0.001532
0.002883 0.000587 -0.000748
0.002583 0.000609 -0.001532
0.002734 0.000724 8.2e-05
0.002545 0.000112 -0.001581
0.00253 0.000111 -0.001601
0.002513 0.000112 -0.001619
0.002493 0.000114 -0.001634
0.002464 0.000122 -0.001641
0.002428 0.000134 -0.001642
0.002392 0.000146 -0.001642
0.002355 0.000159 -0.001642
0.002311 0.000176 -0.001636
0.002264 0.000196 -0.001626
0.002213 0.000217 -0.001613
0.002164 0.000238 -0.001602
0.00211 0.000261 -0.001588
0.002055 0.000285 -0.001571
0.002002 0.000308 -0.001556
0.001955 0.000327 -0.001547
0.001924 0.000337 -0.001552
0.001899 0.000342 -0.001563
0.001878 0.000345 -0.001578
0.001861 0.000345 -0.001595
0.001846 0.000344 -0.001615
0.001833 0.000342 -0.001636
0.001823 0.000338 -0.00166
0.001818 0.000331 -0.001689
0.001821 0.000319 -0.001725
0.001883 0.000259 -0.001847
0.001903 0.000236 -0.001898
0.001921 0.000215 -0.001947
0.001936 0.000195 -0.001994
0.001948 0.000177 -0.002038
0.00196 0.000159 -0.002082
0.001968 0.000144 -0.002122
0.001978 0.000128 -0.002164
0.001983 0.000114 -0.002202
0.001977 0.000108 -0.00223
0.001963 0.000106 -0.002251
0.001947 0.000106 -0.002269
0.00193 0.000106 -0.002287
0.002594 0.000473 -0.001511
0.002605 0.000554 -0.001488
0.002457 0.000696 -0.001226
0.00282 0.000662 -0.000771
0.002587 0.000683 -0.001425
0.002539 8.8e-05 -0.001576
0.002524 8.8e-05 -0.001596
0.002508 8.8e-05 -0.001614
0.002489 8.9e-05 -0.00163
0.002463 9.5e-05 -0.00164
0.002428 0.000107 -0.001642
0.002392 0.000119 -0.001643
0.002355 0.000132 -0.001642
0.002311 0.000149 -0.001636
0.002263 0.000169 -0.001626
0.002214 0.00019 -0.001614
0.002162 0.000211 -0.001601
0.00211 0.000234 -0.001587
0.002054 0.000259 -0.00157
0.002001 0.000282 -0.001556
0.001955 0.0003 -0.001547
0.001924 0.00031 -0.001552
0.001899 0.000315 -0.001563
0.001878 0.000317 -0.001578
0.001861 0.000318 -0.001595
0.001846 0.000317 -0.001615
0.001832 0.000315 -0.001636
0.001823 0.000311 -0.00166
0.001817 0.000304 -0.001688
0.001821 0.000292 -0.001725
0.001922 0.000187 -0.001949
0.001936 0.000168 -0.001994
0.001948 0.00015 -0.002038
0.00196 0.000132 -0.002082
0.001968 0.000117 -0.002123
0.001978 0.000101 -0.002164
0.00198 8.9e-05 -0.0022
0.001971 8.4e-05 -0.002225
0.001957 8.3e-05 -0.002245
0.001941 8.2e-05 -0.002264
0.001924 8.3e-05 -0.002282
0.002613 0.000606 -0.000809
0.002542 0.000609 -0.001348
0.002819 0.000636 -0.000771
0.002516 0.000709 -0.001309
0.00288 0.00067 -0.000746
0.002587 0.000667 -0.001507
0.002516 6.5e-05 -0.001589
0.0025 6.5e-05 -0.001607
0.002482 6.6e-05 -0.001624
0.002459 7e-05 -0.001637
0.002428 8e-05 -0.001642
0.002392 9.2e-05 -0.001642
0.002355 0.000105 -0.001642
0.002311 0.000122 -0.001636
0.002263 0.000142 -0.001625
0.002214 0.000162 -0.001614
0.002162 0.000184 -0.001601
0.002109 0.000207 -0.001587
0.002054 0.000231 -0.00157
0.002 0.000255 -0.001555
0.001955 0.000273 -0.001547
0.001924 0.000282 -0.001552
0.001899 0.000288 -0.001563
0.001878 0.00029 -0.001578
0.001861 0.000291 -0.001595
0.001846 0.00029 -0.001614
0.001832 0.000288 -0.001636
0.001823 0.000284 -0.00166
0.001817 0.000277 -0.001689
0.001821 0.000264 -0.001725
0.001846 0.000238 -0.001781
0.001883 0.000205 -0.001847
0.001903 0.000182 -0.001898
0.001922 0.00016 -0.001949
0.001936 0.00014 -0.001995
0.001947 0.000123 -0.002037
0.001959 0.000105 -0.002082
0.001968 9e-05 -0.002123
0.001976 7.4e-05 -0.002163
0.001975 6.5e-05 -0.002195
0.001964 6.2e-05 -0.002218
0.001949 6e-05 -0.002238
0.001933 6e-05 -0.002257
0.001915 6.1e-05 -0.002274
0.002415 0.00074 -0.000823
0.002614 0.000687 -0.000809
0.002428 0.000678 -0.001647
0.002476 0.000658 -0.001644
0.002555 0.000639 -0.001574
0.002601 0.000638 -0.001486
0.00282 0.00069 -0.000771
0.00249 4.4e-05 -0.001598
0.002473 4.5e-05 -0.001616
0.002452 4.8e-05 -0.00163
0.002426 5.4e-05 -0.001639
0.002392 6.5e-05 -0.001642
0.002355 7.8e-05 -0.001642
0.002311 9.5e-05 -0.001636
0.002263 0.000115 -0.001625
0.002161 0.000158 -0.0016
0.002109 0.00018 -0.001586
0.002055 0.000204 -0.001571
0.002 0.000228 -0.001555
0.001955 0.000246 -0.001547
0.001924 0.000255 -0.001552
0.001899 0.000261 -0.001563
0.001878 0.000263 -0.001578
0.001861 0.000264 -0.001595
0.001845 0.000263 -0.001614
0.001832 0.000261 -0.001636
0.001823 0.000257 -0.00166
0.001817 0.00025 -0.001688
0.00182 0.000238 -0.001724
0.001846 0.000211 -0.00178
0.001883 0.000177 -0.001847
0.001903 0.000155 -0.001898
0.001922 0.000132 -0.001949
0.001936 0.000114 -0.001994
0.001948 9.6e-05 -0.002038
0.001959 7.8e-05 -0.002082
0.001968 6.3e-05 -0.002122
0.001972 5e-05 -0.002159
0.001966 4.3e-05 -0.002187
0.001954 4.1e-05 -0.002209
0.001938 4e-05 -0.002229
0.001922 4e-05 -0.002247
0.001905 4e-05 -0.002264
0.002516 0.000645 -0.000817
0.002543 0.000586 -0.001595
0.00275 0.00066 -0.000792
0.002786 0.000647 -0.000783
0.002603 0.00061 -0.001487
0.002557 0.000611 -0.001575
0.00257 0.00061 -0.001554
0.002594 0.000609 -0.00151
0.00246 2.6e-05 -0.001604
0.002441 2.7e-05 -0.00162
0.002418 3.2e-05 -0.001633
0.002389 3.9e-05 -0.00164
0.002354 5.1e-05 -0.001641
0.00231 6.8e-05 -0.001635
0.002261 8.9e-05 -0.001624
0.002162 0.00013 -0.001601
0.002108 0.000153 -0.001586
0.002054 0.000178 -0.00157
0.001999 0.000201 -0.001554
0.001954 0.000219 -0.001547
0.001924 0.000228 -0.001552
0.001899 0.000233 -0.001563
0.001878 0.000236 -0.001578
0.001861 0.000236 -0.001595
0.001845 0.000236 -0.001614
0.001832 0.000234 -0.001636
0.001823 0.00023 -0.00166
0.001817 0.000223 -0.001688
0.00182 0.00021 -0.001724
0.001845 0.000184 -0.00178
0.001905 0.000127 -0.0019
0.001922 0.000105 -0.001949
0.001936 8.7e-05 -0.001994
0.001948 6.8e-05 -0.002038
0.001958 5.2e-05 -0.002081
0.001964 3.8e-05 -0.002119
0.001962 2.8e-05 -0.002151
0.001954 2.3e-05 -0.002176
0.00194 2.2e-05 -0.002197
0.001924 2.1e-05 -0.002216
0.001908 2.1e-05 -0.002234
0.001891 2.2e-05 -0.002252
0.002464 0.000666 -0.000819
0.002733 0.000609 -0.000367
0.002751 0.000551 -0.000793
0.002944 0.000634 -0.000552
0.002458 0.000641 -0.001226
0.002556 0.00053 -0.001574
0.002606 0.000505 -0.001461
0.002553 0.000701 -0.001545
0.002442 1e-05 -0.001588
0.002424 1.1e-05 -0.001605
0.002403 1.3e-05 -0.00162
0.002379 1.9e-05 -0.001631
0.002348 2.7e-05 -0.001636
0.002309 4.1e-05 -0.001634
0.002262 6.1e-05 -0.001625
0.002214 8.1e-05 -0.001614
0.002162 0.000103 -0.001601
0.002108 0.000126 -0.001586
0.002054 0.00015 -0.00157
0.002001 0.000173 -0.001555
0.001954 0.000192 -0.001546
0.001923 0.000201 -0.001552
0.001899 0.000206 -0.001563
0.001878 0.000209 -0.001577
0.001861 0.000209 -0.001595
0.001845 0.000209 -0.001614
0.001832 0.000207 -0.001636
0.001822 0.000203 -0.00166
0.001817 0.000196 -0.001688
0.00182 0.000183 -0.001724
0.001846 0.000157 -0.001781
0.001905 9.9e-05 -0.0019
0.001922 7.8e-05 -0.001949
0.001936 5.9e-05 -0.001994
0.001948 4.2e-05 -0.002038
0.001954 2.7e-05 -0.002077
0.001954 1.7e-05 -0.00211
0.001947 1.1e-05 -0.002136
0.001905 7e-06 -0.002198
0.001888 7e-06 -0.002216
0.001871 7e-06 -0.002234
0.001775 1.6e-05 -0.002313
0.002286 0.000726 -0.000897
0.002523 4e-06 -0.001429
0.002507 4e-06 -0.001448
0.002423 5e-06 -0.001538
0.002408 4e-06 -0.001558
0.002392 4e-06 -0.001577
0.002375 4e-06 -0.001594
0.002355 6e-06 -0.00161
0.002333 1e-05 -0.001623
0.002302 1.9e-05 -0.001628
0.00226 3.5e-05 -0.001623
0.002213 5.4e-05 -0.001614
0.00216 7.7e-05 -0.001599
0.002109 9.8e-05 -0.001587
0.002053 0.000123 -0.001569
0.002 0.000146 -0.001555
0.001953 0.000165 -0.001546
0.001923 0.000174 -0.001551
0.001898 0.000179 -0.001563
0.001878 0.000182 -0.001577
0.001861 0.000182 -0.001595
0.001845 0.000181 -0.001614
0.001832 0.000179 -0.001636
0.001822 0.000176 -0.00166
0.001817 0.000168 -0.001688
0.00182 0.000156 -0.001724
0.001845 0.00013 -0.00178
0.001904 7.3e-05 -0.001899
0.001922 5.1e-05 -0.001949
0.001935 3.3e-05 -0.001993
0.001942 1.8e-05 -0.002032
0.001941 8e-06 -0.002065
0.00193 4e-06 -0.002089
0.001768 3e-06 -0.002274
0.001751 4e-06 -0.002292
0.001729 9e-06 -0.002304
0.002456 0.000588 -0.001225
0.00248 4e-06 -0.00139
0.002462 5e-06 -0.001407
0.002446 4e-06 -0.001426
0.002431 4e-06 -0.001446
0.002414 4e-06 -0.001464
0.002398 4e-06 -0.001482
0.002384 2e-06 -0.001502
0.002365 4e-06 -0.001518
0.002351 2e-06 -0.001539
0.002335 2e-06 -0.001558
0.002318 2e-06 -0.001576
0.002302 2e-06 -0.001595
0.002283 4e-06 -0.001611
0.002253 1.2e-05 -0.001617
0.002211 2.8e-05 -0.001612
0.00216 5e-05 -0.0016
0.002053 9.6e-05 -0.00157
0.001999 0.00012 -0.001553
0.001953 0.000138 -0.001546
0.001922 0.000147 -0.001551
0.001898 0.000152 -0.001562
0.001878 0.000155 -0.001577
0.00186 0.000155 -0.001595
0.001845 0.000155 -0.001614
0.001832 0.000152 -0.001635
0.001822 0.000148 -0.00166
0.001817 0.000141 -0.001688
0.001819 0.000129 -0.001724
0.001886 6.7e-05 -0.00185
0.001905 4.5e-05 -0.0019
0.001921 2.4e-05 -0.001948
0.001927 1e-05 -0.001986
0.001922 2e-06 -0.002015
0.001908 1e-06 -0.002036
0.001892 1e-06 -0.002054
0.001758 2e-06 -0.002199
0.001741 3e-06 -0.002217
0.001726 3e-06 -0.002236
0.001709 3e-06 -0.002254
0.001692 3e-06 -0.002272
0.001672 6e-06 -0.002287
0.001638 1.6e-05 -0.002289
0.002543 0.000504 -0.001595
0.002542 0.000663 -0.001349
0.002426 0.0 -0.001375
0.00241 -0.0 -0.001394
0.002394 -0.0 -0.001412
0.002379 -1e-06 -0.001432
0.002363 -2e-06 -0.001451
0.002943 0.000495 -0.000602
0.002458 0.000722 -0.001636
0.002316 -3e-06 -0.001508
0.0023 -3e-06 -0.001527
0.002748 0.000715 -0.000792
0.002269 -4e-06 -0.001565
0.002252 -4e-06 -0.001583
0.002231 -2e-06 -0.001597
0.002201 7e-06 -0.001604
0.002161 2.2e-05 -0.0016
0.002109 4.4e-05 -0.001587
0.002053 6.9e-05 -0.00157
0.001999 9.3e-05 -0.001553
0.001953 0.000111 -0.001545
0.001922 0.00012 -0.001551
0.001898 0.000125 -0.001562
0.001878 0.000128 -0.001577
0.00186 0.000128 -0.001595
0.001845 0.000127 -0.001614
0.001832 0.000125 -0.001635
0.001822 0.000121 -0.001659
0.001817 0.000114 -0.001688
0.001819 0.000102 -0.001724
0.001904 1.8e-05 -0.0019
0.001911 2e-06 -0.001938
0.001905 -3e-06 -0.001966
0.001892 -5e-06 -0.001988
0.001877 -5e-06 -0.002008
0.00186 -5e-06 -0.002026
0.001843 -4e-06 -0.002043
0.001739 -2e-06 -0.002148
0.001722 -1e-06 -0.002166
0.001705 -1e-06 -0.002184
0.001688 -1e-06 -0.002202
0.001611 6e-06 -0.002265
0.002921 0.000497 -0.000698
0.002621 0.000742 1e-06
0.002392 -5e-06 -0.001344
0.002375 -5e-06 -0.001362
0.002358 -5e-06 -0.00138
0.002341 -4e-06 -0.001397
0.002325 -5e-06 -0.001416
0.002414 0.000714 -0.000822
0.002489 0.000566 -0.001268
0.002314 0.000722 -0.000857
0.002659 0.000587 -0.000804
0.002885 0.000673 -0.000741
0.002734 0.000696 8.2e-05
0.002174 -3e-06 -0.001578
0.002148 3e-06 -0.001589
0.002109 1.7e-05 -0.001587
0.001998 6.6e-05 -0.001553
0.001952 8.5e-05 -0.001545
0.001923 9.3e-05 -0.001551
0.001898 9.8e-05 -0.001562
0.001878 0.0001 -0.001577
0.00186 0.000101 -0.001595
0.001845 0.0001 -0.001614
0.001831 9.8e-05 -0.001635
0.001822 9.4e-05 -0.001659
0.001817 8.7e-05 -0.001689
0.001819 7.5e-05 -0.001724
0.001844 4.9e-05 -0.001779
0.001848 -5e-06 -0.001948
0.001831 -4e-06 -0.001966
0.001815 -4e-06 -0.001985
0.001797 -4e-06 -0.002002
0.001703 -6e-06 -0.002116
0.001686 -6e-06 -0.002134
0.001669 -6e-06 -0.002152
0.002363 -4e-06 -0.001285
0.002344 -3e-06 -0.001301
0.002328 -3e-06 -0.001319
0.002312 -3e-06 -0.001338
0.002294 -2e-06 -0.001355
0.002275 -1e-06 -0.001372
0.002241 0.0 -0.001407
0.001355 -2.6e-05 -0.001604
0.002977 0.000465 0.00042
0.002126 0.0 -0.001535
0.002109 0.0 -0.001554
0.002089 3e-06 -0.001568
0.002053 1.5e-05 -0.001569
0.001952 5.7e-05 -0.001545
0.001922 6.6e-05 -0.001551
0.001898 7.1e-05 -0.001562
0.001877 7.3e-05 -0.001577
0.00186 7.4e-05 -0.001594
0.001845 7.3e-05 -0.001614
0.001831 7.1e-05 -0.001635
0.001821 6.7e-05 -0.001659
0.001817 6e-05 -0.001688
0.001818 4.8e-05 -0.001723
0.001372 -2.6e-05 -0.001586
0.001781 -0.0 -0.001921
0.001766 -1e-06 -0.001941
0.001749 -1e-06 -0.001959
0.001651 -1e-06 -0.002069
0.001635 -1e-06 -0.002088
0.001621 -3e-06 -0.002109
0.00154 -4e-06 -0.002202
0.001513 3e-06 -0.00221
0.002313 -0.0 -0.00124
0.002297 -0.0 -0.001258
0.00228 -0.0 -0.001277
0.002262 1e-06 -0.001294
0.002244 1e-06 -0.001311
0.002565 0.000537 -0.001387
0.002193 3e-06 -0.001364
0.002177 3e-06 -0.001383
0.002159 3e-06 -0.0014
0.002143 3e-06 -0.001418
0.002579 0.000714 -0.001421
0.002338 0.000742 -0.00084
0.002061 3e-06 -0.00151
0.002046 2e-06 -0.00153
0.002029 2e-06 -0.001548
0.001997 1.2e-05 -0.001552
0.001952 3e-05 -0.001545
0.001922 3.9e-05 -0.001551
0.001898 4.4e-05 -0.001562
0.001877 4.6e-05 -0.001577
0.00186 4.7e-05 -0.001594
0.001845 4.6e-05 -0.001614
0.001831 4.4e-05 -0.001635
0.001821 4e-05 -0.001659
0.001816 3.3e-05 -0.001688
0.001732 3e-06 -0.001878
0.001715 3e-06 -0.001895
0.001619 2e-06 -0.002008
0.001601 3e-06 -0.002025
0.001585 3e-06 -0.002043
0.001539 1e-06 -0.002101
0.001523 0.0 -0.00212
0.001506 0.0 -0.002138
0.001491 -0.0 -0.002157
0.001474 0.0 -0.002175
0.002265 3e-06 -0.001197
0.002248 3e-06 -0.001215
0.002232 3e-06 -0.001234
0.002216 3e-06 -0.001252
0.002201 1e-06 -0.001272
0.002556 0.000503 -0.001574
0.002169 -0.0 -0.001309
0.002155 -0.0 -0.00133
0.002138 -0.0 -0.001348
0.002123 -1e-06 -0.001367
0.002107 -1e-06 -0.001386
0.002091 -2e-06 -0.001405
0.002075 -2e-06 -0.001423
0.00285 0.000647 0.000138
0.002939 0.000604 -0.000626
0.002813 0.00069 0.000119
0.002774 0.000707 0.0001
0.001997 -4e-06 -0.001519
0.00198 -4e-06 -0.001536
0.001951 4e-06 -0.001544
0.001922 1.2e-05 -0.001551
0.001897 1.7e-05 -0.001562
0.001877 1.9e-05 -0.001577
0.001859 2e-05 -0.001594
0.001844 1.9e-05 -0.001613
0.001831 1.7e-05 -0.001635
0.001821 1.3e-05 -0.001659
0.001815 6e-06 -0.001687
0.001814 -3e-06 -0.001719
0.001698 -3e-06 -0.001847
0.001681 -3e-06 -0.001865
0.001578 -0.0 -0.00197
0.001561 0.0 -0.001988
0.00151 1e-06 -0.002042
0.001494 2e-06 -0.00206
0.001477 2e-06 -0.002079
0.001461 2e-06 -0.002097
0.001443 2e-06 -0.002114
0.001426 5e-06 -0.002131
0.002898 0.000659 -0.000495
0.002488 0.00062 -0.001268
0.002882 0.000641 -0.000748
0.0022 -4e-06 -0.001205
0.002185 -5e-06 -0.001224
0.00217 -6e-06 -0.001244
0.002154 -7e-06 -0.001263
0.00214 -8e-06 -0.001283
0.002124 -8e-06 -0.001302
0.002109 -9e-06 -0.001321
0.002094 -1e-05 -0.001341
0.002078 -1e-05 -0.00136
0.002063 -1.1e-05 -0.001379
0.002047 -1.1e-05 -0.001398
0.002031 -1.1e-05 -0.001417
0.002608 0.000723 2.8e-05
0.002469 0.000743 -0.000199
0.002543 0.000477 -0.001595
0.002557 0.000476 -0.001574
0.002588 0.000492 -0.001425
0.001935 -1.4e-05 -0.00153
0.001916 -1.2e-05 -0.001546
0.001896 -1e-05 -0.001561
0.001876 -8e-06 -0.001576
0.001859 -7e-06 -0.001594
0.001844 -8e-06 -0.001613
0.00183 -9e-06 -0.001634
0.001817 -1.2e-05 -0.001656
0.001803 -1.3e-05 -0.001676
0.001788 -1.4e-05 -0.001696
0.001772 -1.4e-05 -0.001714
0.001755 -1.4e-05 -0.001732
0.001512 -7e-06 -0.001977
0.001494 -5e-06 -0.001994
0.001476 -4e-06 -0.002011
0.001459 -3e-06 -0.002029
0.001441 -3e-06 -0.002046
0.001423 -2e-06 -0.002063
0.001406 -2e-06 -0.002081
0.001389 -1e-06 -0.002099
0.002813 0.000636 0.000119
0.002202 -1.2e-05 -0.00114
0.002188 -1.3e-05 -0.001161
0.002172 -1.4e-05 -0.00118
0.002157 -1.5e-05 -0.001199
0.002141 -1.5e-05 -0.001218
0.002124 -1.5e-05 -0.001236
0.002108 -1.4e-05 -0.001255
0.002786 0.000566 -0.000783
0.002569 0.000529 -0.001553
0.002589 0.000546 -0.001426
0.002542 0.000636 -0.001349
0.002026 -1.5e-05 -0.001346
0.002008 -1.5e-05 -0.001364
0.001992 -1.4e-05 -0.001382
0.001973 -1.3e-05 -0.001398
0.002774 0.000653 0.0001
0.001389 -2.7e-05 -0.001569
0.001875 -1.4e-05 -0.001509
0.001859 -1.3e-05 -0.001527
0.001809 -1.3e-05 -0.001582
0.001794 -1.4e-05 -0.001601
0.00176 -1.3e-05 -0.001637
0.001742 -1.3e-05 -0.001655
0.001729 -1.4e-05 -0.001675
0.001713 -1.5e-05 -0.001694
0.001611 -1.3e-05 -0.001801
0.001596 -1.3e-05 -0.001821
0.001482 -1.4e-05 -0.001951
0.001465 -1.4e-05 -0.001968
0.001449 -1.4e-05 -0.001987
0.001432 -1.4e-05 -0.002005
0.001414 -1.3e-05 -0.002022
0.001396 -1.2e-05 -0.002039
0.001378 -1.1e-05 -0.002055
0.002163 -1.5e-05 -0.001105
0.002146 -1.4e-05 -0.001123
0.002129 -1.4e-05 -0.001141
0.002112 -1.4e-05 -0.001159
0.002094 -1.3e-05 -0.001176
0.002606 0.000532 -0.001461
0.002488 0.000674 -0.001268
0.001975 -1e-05 -0.0013
0.001959 -1.1e-05 -0.001319
0.001941 -1e-05 -0.001336
0.001928 -1.2e-05 -0.001357
0.001407 -2.7e-05 -0.001551
0.001843 -1e-05 -0.001447
0.001826 -1e-05 -0.001465
0.001808 -9e-06 -0.001482
0.00179 -8e-06 -0.001499
0.002594 0.0005 -0.00151
0.001759 -9e-06 -0.001537
0.001744 -1e-05 -0.001557
0.001598 -1.1e-05 -0.001723
0.00158 -1e-05 -0.001741
0.001565 -1.1e-05 -0.00176
0.001547 -1e-05 -0.001777
0.001424 -2.8e-05 -0.001534
0.001481 -1e-05 -0.00185
0.001452 -1.2e-05 -0.00189
0.001436 -1.3e-05 -0.001909
0.001419 -1.3e-05 -0.001927
0.001403 -1.3e-05 -0.001946
0.001386 -1.2e-05 -0.001963
0.001371 -1.3e-05 -0.001983
0.001354 -1.3e-05 -0.002001
0.001337 -1.3e-05 -0.002019
0.002097 -1.1e-05 -0.001079
0.00208 -1.1e-05 -0.001097
0.00206 -9e-06 -0.001112
0.002045 -9e-06 -0.001132
0.002543 0.000554 -0.001349
0.001442 -2.8e-05 -0.001516
0.002566 0.000509 -0.001387
0.002543 0.000526 -0.001349
0.002268 0.000713 -0.000998
0.002365 0.000706 -0.000826
0.001905 -4e-06 -0.001271
0.001889 -5e-06 -0.00129
0.001459 -2.9e-05 -0.001499
0.001826 -6e-06 -0.001365
0.001809 -6e-06 -0.001383
0.001791 -5e-06 -0.0014
0.001775 -5e-06 -0.001419
0.001759 -5e-06 -0.001438
0.001742 -5e-06 -0.001455
0.002605 0.0005 -0.001488
0.001709 -5e-06 -0.001492
0.001694 -6e-06 -0.001511
0.001678 -6e-06 -0.00153
0.001662 -6e-06 -0.001549
0.001595 -5e-06 -0.001621
0.001578 -5e-06 -0.001639
0.001562 -6e-06 -0.001657
0.001528 -5e-06 -0.001693
0.001514 -7e-06 -0.001714
0.001481 -6e-06 -0.001751
0.001466 -7e-06 -0.00177
0.001433 -7e-06 -0.001807
0.001415 -6e-06 -0.001824
0.0014 -7e-06 -0.001844
0.001386 -9e-06 -0.001864
0.00137 -9e-06 -0.001883
0.001323 -1e-05 -0.00194
0.001308 -1.1e-05 -0.001959
0.001292 -1.2e-05 -0.001979
0.00208 -7e-06 -0.000997
0.002062 -6e-06 -0.001014
0.002046 -6e-06 -0.001033
0.002029 -6e-06 -0.001051
0.002013 -6e-06 -0.001069
0.001995 -5e-06 -0.001086
0.002488 0.000593 -0.001268
0.002517 0.000573 -0.001309
0.001928 -4e-06 -0.001159
0.00191 -4e-06 -0.001176
0.001475 -2.9e-05 -0.00148
0.002848 0.000708 -0.000758
0.001796 -4e-06 -0.001305
0.001778 -3e-06 -0.001322
0.001761 -3e-06 -0.00134
0.001746 -4e-06 -0.001359
0.00173 -4e-06 -0.001378
0.001714 -5e-06 -0.001397
0.002314 0.000782 -0.000829
0.001664 -5e-06 -0.001451
0.001646 -4e-06 -0.001468
0.00163 -3e-06 -0.001487
0.001615 -4e-06 -0.001506
0.001599 -4e-06 -0.001525
0.001583 -5e-06 -0.001544
0.001566 -4e-06 -0.001562
0.001548 -3e-06 -0.001579
0.001532 -3e-06 -0.001597
0.001515 -3e-06 -0.001616
0.001493 -2.9e-05 -0.001463
0.001435 -5e-06 -0.001709
0.001417 -4e-06 -0.001727
0.001369 -5e-06 -0.001783
0.001355 -6e-06 -0.001803
0.001289 -6e-06 -0.001876
0.00127 -4e-06 -0.001893
0.001257 -6e-06 -0.001914
0.001239 -5e-06 -0.001931
0.002565 0.0007 -0.001523
0.002015 -4e-06 -0.000972
0.002605 0.000472 -0.001489
0.002422 0.000611 -0.001181
0.001949 -4e-06 -0.001045
0.002412 0.000736 -0.001122
0.002413 0.000687 -0.000822
0.002567 0.000624 -0.000814
0.001885 -5e-06 -0.00112
0.001868 -4e-06 -0.001138
0.001853 -5e-06 -0.001158
0.001838 -6e-06 -0.001177
0.001821 -6e-06 -0.001195
0.001806 -6e-06 -0.001215
0.002584 0.000701 -0.001478
0.002301 0.00075 -0.000877
0.001757 -7e-06 -0.00127
0.001742 -8e-06 -0.001289
0.001726 -8e-06 -0.001308
0.00171 -8e-06 -0.001327
0.001693 -9e-06 -0.001345
0.00228 0.000756 -0.001031
0.002575 0.0007 -0.001501
0.002586 0.000705 -0.001452
0.001628 -9e-06 -0.001419
0.001612 -9e-06 -0.001438
0.001595 -8e-06 -0.001455
0.001579 -9e-06 -0.001474
0.001562 -9e-06 -0.001492
0.001546 -9e-06 -0.001511
0.00153 -9e-06 -0.001529
0.001513 -8e-06 -0.001547
0.001495 -8e-06 -0.001565
0.001359 -5e-06 -0.001707
0.001341 -4e-06 -0.001724
0.001325 -4e-06 -0.001743
0.00151 -3e-05 -0.001445
0.00124 -3e-06 -0.001832
0.001225 -3e-06 -0.001851
0.00121 -4e-06 -0.001871
0.001195 -5e-06 -0.001891
0.002455 0.000728 -0.000121
0.002818 0.000554 -0.000771
0.002852 0.000543 -0.000761
0.002594 0.000527 -0.00151
0.002516 0.0006 -0.001309
0.00257 0.000583 -0.001554
0.002557 0.000584 -0.001575
0.002516 0.000672 -0.000817
0.002566 0.0007 -0.001387
0.001853 -1.2e-05 -0.001091
0.001837 -1.2e-05 -0.00111
0.001822 -1.3e-05 -0.001129
0.001807 -1.4e-05 -0.001149
0.001792 -1.4e-05 -0.001169
0.001776 -1.5e-05 -0.001187
0.00176 -1.5e-05 -0.001207
0.001745 -1.6e-05 -0.001226
0.001729 -1.6e-05 -0.001245
0.001713 -1.7e-05 -0.001264
0.001698 -1.8e-05 -0.001283
0.001682 -1.8e-05 -0.001302
0.001666 -1.8e-05 -0.001321
0.001649 -1.8e-05 -0.001339
0.001633 -1.8e-05 -0.001357
0.001617 -1.9e-05 -0.001376
0.0016 -1.8e-05 -0.001394
0.001584 -1.8e-05 -0.001412
0.001567 -1.8e-05 -0.001431
0.001551 -1.8e-05 -0.001449
0.001534 -1.8e-05 -0.001467
0.001518 -1.8e-05 -0.001486
0.001501 -1.8e-05 -0.001503
0.001484 -1.7e-05 -0.001521
0.001466 -1.7e-05 -0.001539
0.00145 -1.7e-05 -0.001557
0.001432 -1.6e-05 -0.001574
0.001416 -1.6e-05 -0.001593
0.001399 -1.6e-05 -0.00161
0.001381 -1.5e-05 -0.001627
0.001346 -1.4e-05 -0.001662
0.001329 -1.3e-05 -0.00168
0.001311 -1.2e-05 -0.001697
0.001188 -7e-06 -0.001818
0.00117 -6e-06 -0.001835
0.001152 -6e-06 -0.001852
0.002706 0.000569 -0.000799
0.002269 0.000739 -0.000999
0.002785 0.000539 -0.000783
0.002605 0.000527 -0.001488
0.002569 0.000502 -0.001553
0.002581 0.000501 -0.001532
0.002686 0.000633 -0.000335
0.002279 0.000729 -0.00103
0.002568 0.000651 -0.000814
0.002366 0.000733 -0.000827
0.002581 0.000528 -0.001532
0.00293 0.00066 -0.00065
0.002543 0.000532 -0.001595
0.002543 0.000581 -0.001349
0.002276 0.000725 -0.00092
0.001734 -2.6e-05 -0.001183
0.001719 -2.7e-05 -0.001203
0.001704 -2.8e-05 -0.001222
0.001688 -2.8e-05 -0.001241
0.001672 -2.9e-05 -0.00126
0.001656 -2.9e-05 -0.001278
0.00164 -2.9e-05 -0.001297
0.001624 -3e-05 -0.001316
0.001608 -3e-05 -0.001335
0.001592 -3e-05 -0.001353
0.001576 -3e-05 -0.001372
0.001559 -3e-05 -0.00139
0.001543 -3e-05 -0.001409
0.001526 -3e-05 -0.001427
0.002785 0.000512 -0.000782
0.002749 0.000525 -0.000792
0.002706 0.000541 -0.000799
0.00266 0.00056 -0.000804
0.002612 0.000579 -0.000808
0.002466 0.000638 -0.00082
0.002414 0.00066 -0.000822
0.002366 0.000679 -0.000827
0.002336 0.000689 -0.000839
0.002314 0.000695 -0.000856
0.002298 0.000698 -0.000876
0.002285 0.000699 -0.000897
0.002276 0.000698 -0.00092
0.002928 0.000671 -0.000524
0.002265 0.000692 -0.00097
0.002267 0.000686 -0.000998
0.002279 0.000674 -0.001031
0.002422 0.000584 -0.001182
0.002457 0.00056 -0.001226
0.002489 0.000538 -0.001269
0.002518 0.000518 -0.00131
0.002543 0.000499 -0.001349
0.002566 0.000482 -0.001388
0.002588 0.000465 -0.001425
0.002606 0.00045 -0.001461
0.002605 0.000445 -0.001489
0.002595 0.000445 -0.001511
0.002582 0.000446 -0.001532
0.00257 0.000447 -0.001553
0.002557 0.000448 -0.001575
0.002544 0.00045 -0.001596
0.002458 0.000752 -0.000147
0.002773 0.00068 0.0001
0.00285 0.000675 0.000138
0.002903 0.000667 -0.00072
0.002851 0.000462 -0.000761
0.002819 0.000473 -0.000772
0.002786 0.000484 -0.000783
0.002749 0.000497 -0.000792
0.002706 0.000514 -0.000799
0.00266 0.000533 -0.000804
0.002613 0.000551 -0.000809
0.002567 0.00057 -0.000814
0.002467 0.000611 -0.00082
0.002414 0.000632 -0.000822
0.002366 0.000652 -0.000826
0.002335 0.000662 -0.000839
0.002314 0.000668 -0.000856
0.002298 0.000671 -0.000876
0.002285 0.000672 -0.000897
0.002276 0.000671 -0.00092
0.002269 0.000669 -0.000944
0.002265 0.000665 -0.00097
0.002267 0.000659 -0.000998
0.002278 0.000647 -0.00103
0.002422 0.000557 -0.001182
0.002456 0.000534 -0.001225
0.002489 0.000511 -0.001269
0.002518 0.000491 -0.00131
0.002543 0.000472 -0.001349
0.002566 0.000455 -0.001388
0.002588 0.000438 -0.001426
0.002606 0.000423 -0.001462
0.002605 0.000418 -0.001489
0.002594 0.000418 -0.001511
0.002582 0.000419 -0.001532
0.002569 0.00042 -0.001553
0.002556 0.000421 -0.001575
0.002543 0.000423 -0.001596
0.00246 0.000749 -0.000172
0.00264 0.000717 -0.000315
0.002943 0.000603 -0.000602
0.002941 0.000661 -0.000576
0.002851 0.000435 -0.000761
0.002819 0.000446 -0.000772
0.002786 0.000457 -0.000783
0.002749 0.000471 -0.000792
0.002706 0.000487 -0.000799
0.002661 0.000505 -0.000804
0.002613 0.000524 -0.000809
0.002566 0.000543 -0.000814
0.002465 0.000584 -0.00082
0.002414 0.000605 -0.000822
0.002367 0.000624 -0.000827
0.002335 0.000635 -0.000839
0.002313 0.000641 -0.000856
0.002297 0.000644 -0.000876
0.002285 0.000645 -0.000897
0.002276 0.000644 -0.00092
0.002268 0.000642 -0.000944
0.002265 0.000638 -0.000969
0.002267 0.000631 -0.000998
0.002278 0.00062 -0.00103
0.002455 0.000507 -0.001225
0.00249 0.000484 -0.001269
0.002518 0.000464 -0.00131
0.002543 0.000445 -0.001349
0.002566 0.000427 -0.001388
0.002588 0.000411 -0.001426
0.002606 0.000396 -0.001462
0.002605 0.000391 -0.001489
0.002595 0.000391 -0.001511
0.002582 0.000392 -0.001532
0.002569 0.000393 -0.001553
0.002557 0.000394 -0.001575
0.002544 0.000395 -0.001596
0.002949 0.000496 -0.000553
0.002813 0.000663 0.000119
0.002947 0.000605 -0.000553
0.002938 0.00066 -0.000601
0.002851 0.000407 -0.000761
0.002818 0.000419 -0.000771
0.002786 0.00043 -0.000783
0.002749 0.000443 -0.000792
0.002706 0.00046 -0.000799
0.002661 0.000478 -0.000804
0.002613 0.000497 -0.000809
0.002565 0.000516 -0.000813
0.002517 0.000536 -0.000817
0.002465 0.000557 -0.00082
0.002414 0.000578 -0.000822
0.002367 0.000597 -0.000827
0.002336 0.000608 -0.000839
0.002313 0.000614 -0.000856
0.002297 0.000616 -0.000876
0.002285 0.000617 -0.000897
0.002275 0.000617 -0.00092
0.002268 0.000615 -0.000944
0.002265 0.000611 -0.000969
0.002266 0.000604 -0.000998
0.002278 0.000593 -0.00103
0.002457 0.000479 -0.001226
0.00249 0.000456 -0.001269
0.002518 0.000436 -0.00131
0.002543 0.000418 -0.001349
0.002566 0.0004 -0.001388
0.002589 0.000383 -0.001426
0.002606 0.000369 -0.001461
0.002605 0.000364 -0.001489
0.002594 0.000364 -0.001511
0.002582 0.000365 -0.001532
0.002569 0.000366 -0.001553
0.002556 0.000367 -0.001575
0.002544 0.000368 -0.001596
0.002922 0.000552 -0.000698
0.002947 0.000576 -0.000578
0.002813 0.000717 0.000119
0.002882 0.00037 -0.000749
0.002851 0.00038 -0.00076
0.002818 0.000391 -0.000771
0.002785 0.000403 -0.000783
0.002749 0.000416 -0.000792
0.002707 0.000432 -0.000799
0.002661 0.000451 -0.000805
0.002612 0.000471 -0.000808
0.002567 0.000488 -0.000814
0.002516 0.000509 -0.000817
0.002466 0.00053 -0.00082
0.002413 0.000552 -0.000822
0.002366 0.00057 -0.000826
0.002335 0.000581 -0.000839
0.002313 0.000586 -0.000856
0.002297 0.000589 -0.000875
0.002285 0.00059 -0.000897
0.002276 0.000589 -0.00092
0.002268 0.000587 -0.000944
0.002264 0.000584 -0.000969
0.002266 0.000577 -0.000998
0.002278 0.000566 -0.00103
0.002457 0.000451 -0.001226
0.00249 0.000429 -0.001269
0.002518 0.000409 -0.00131
0.002543 0.000391 -0.001349
0.002567 0.000373 -0.001388
0.002588 0.000356 -0.001426
0.002606 0.000342 -0.001462
0.002605 0.000336 -0.001489
0.002595 0.000337 -0.001511
0.002582 0.000338 -0.001532
0.00257 0.000339 -0.001554
0.002557 0.00034 -0.001575
0.002543 0.000341 -0.001596
0.002823 0.00059 -0.000432
0.002932 0.000587 -0.000525
0.002883 0.000689 0.000156
0.002883 0.000342 -0.000748
0.00285 0.000353 -0.00076
0.002818 0.000364 -0.000771
0.002786 0.000376 -0.000783
0.00275 0.000388 -0.000793
0.002705 0.000406 -0.000799
0.002661 0.000423 -0.000805
0.002613 0.000443 -0.000809
0.002565 0.000462 -0.000813
0.002516 0.000482 -0.000817
0.002465 0.000503 -0.00082
0.002412 0.000525 -0.000821
0.002365 0.000544 -0.000826
0.002335 0.000553 -0.000839
0.002313 0.000559 -0.000856
0.002297 0.000562 -0.000875
0.002285 0.000563 -0.000897
0.002276 0.000562 -0.00092
0.002268 0.00056 -0.000944
0.002264 0.000557 -0.000969
0.002267 0.00055 -0.000998
0.002277 0.000539 -0.00103
0.002457 0.000424 -0.001226
0.00249 0.000402 -0.001269
0.002518 0.000382 -0.00131
0.002544 0.000363 -0.00135
0.002567 0.000345 -0.001388
0.002588 0.000329 -0.001426
0.002605 0.000315 -0.001461
0.002605 0.000309 -0.001489
0.002594 0.00031 -0.001511
0.002581 0.000311 -0.001532
0.002569 0.000312 -0.001553
0.002556 0.000313 -0.001574
0.002543 0.000314 -0.001596
0.002944 0.000549 -0.000602
0.002921 0.000579 -0.000698
0.002823 0.000672 -0.000432
0.002882 0.000315 -0.000748
0.00285 0.000326 -0.00076
0.002818 0.000337 -0.000771
0.002785 0.000349 -0.000782
0.002749 0.000362 -0.000793
0.002706 0.000379 -0.000799
0.00266 0.000397 -0.000804
0.002613 0.000415 -0.000809
0.002565 0.000435 -0.000813
0.002516 0.000455 -0.000817
0.002465 0.000475 -0.00082
0.002413 0.000497 -0.000822
0.002365 0.000517 -0.000826
0.002335 0.000526 -0.000839
0.002313 0.000532 -0.000856
0.002297 0.000535 -0.000876
0.002285 0.000536 -0.000897
0.002275 0.000535 -0.00092
0.002268 0.000533 -0.000944
0.002265 0.000529 -0.00097
0.002267 0.000523 -0.000998
0.002278 0.000512 -0.00103
0.002423 0.00042 -0.001182
0.002457 0.000397 -0.001226
0.002489 0.000375 -0.001269
0.002518 0.000355 -0.00131
0.002544 0.000336 -0.00135
0.002567 0.000318 -0.001388
0.002588 0.000302 -0.001426
0.002606 0.000287 -0.001462
0.002605 0.000282 -0.001489
0.002594 0.000283 -0.001511
0.002582 0.000283 -0.001532
0.002569 0.000285 -0.001553
0.002556 0.000286 -0.001574
0.002732 0.000599 0.001262
0.002697 0.000739 6.3e-05
0.002852 0.000702 0.000132
0.002882 0.000288 -0.000748
0.00285 0.000299 -0.00076
0.002817 0.00031 -0.000771
0.002785 0.000322 -0.000782
0.00275 0.000334 -0.000793
0.002705 0.000352 -0.000799
0.002662 0.000369 -0.000805
0.002613 0.000388 -0.000809
0.002565 0.000408 -0.000813
0.002516 0.000428 -0.000817
0.002464 0.000449 -0.000819
0.002412 0.000471 -0.000821
0.002365 0.000489 -0.000826
0.002335 0.000499 -0.000839
0.002313 0.000505 -0.000856
0.002297 0.000508 -0.000876
0.002285 0.000509 -0.000897
0.002276 0.000508 -0.00092
0.002268 0.000506 -0.000944
0.002265 0.000502 -0.00097
0.002268 0.000495 -0.000999
0.002278 0.000485 -0.00103
0.002424 0.000393 -0.001183
0.002457 0.00037 -0.001226
0.00249 0.000348 -0.001269
0.002518 0.000327 -0.00131
0.002544 0.000309 -0.00135
0.002567 0.000291 -0.001388
0.002589 0.000274 -0.001426
0.002605 0.00026 -0.001462
0.002605 0.000255 -0.001489
0.002595 0.000255 -0.001511
0.002582 0.000256 -0.001532
0.00257 0.000257 -0.001554
0.002557 0.000258 -0.001575
0.002854 0.00055 -0.00076
0.002894 0.000587 -0.000742
0.002898 0.000632 -0.000494
0.002881 0.000261 -0.000748
0.00285 0.000272 -0.00076
0.002817 0.000283 -0.000771
0.002785 0.000294 -0.000783
0.002749 0.000308 -0.000792
0.002705 0.000324 -0.000799
0.002661 0.000342 -0.000805
0.002612 0.000362 -0.000808
0.002564 0.000381 -0.000813
0.002516 0.000401 -0.000817
0.002464 0.000422 -0.000819
0.002411 0.000444 -0.000821
0.002364 0.000462 -0.000826
0.002334 0.000472 -0.000839
0.002313 0.000478 -0.000856
0.002297 0.000481 -0.000876
0.002285 0.000481 -0.000897
0.002276 0.000481 -0.00092
0.002268 0.000479 -0.000944
0.002265 0.000475 -0.00097
0.002268 0.000468 -0.000999
0.002278 0.000457 -0.00103
0.002383 0.000392 -0.001136
0.002424 0.000365 -0.001183
0.002459 0.000342 -0.001227
0.00249 0.00032 -0.001269
0.002519 0.0003 -0.001311
0.002543 0.000282 -0.001349
0.002567 0.000264 -0.001388
0.002589 0.000247 -0.001426
0.002606 0.000233 -0.001462
0.002605 0.000228 -0.001489
0.002595 0.000228 -0.001511
0.002582 0.000229 -0.001532
0.00257 0.00023 -0.001554
0.002557 0.000231 -0.001575
0.002695 0.000713 6.4e-05
0.002932 0.000577 -0.00065
0.000381 -1.9e-05 0.002102
0.002882 0.000234 -0.000748
0.00285 0.000245 -0.00076
0.002817 0.000256 -0.000771
0.002785 0.000267 -0.000782
0.002749 0.00028 -0.000792
0.002706 0.000297 -0.000799
0.002661 0.000315 -0.000805
0.002612 0.000335 -0.000808
0.002564 0.000354 -0.000813
0.002514 0.000374 -0.000816
0.002464 0.000395 -0.000819
0.002412 0.000416 -0.000821
0.002364 0.000435 -0.000826
0.002335 0.000445 -0.000839
0.002313 0.000451 -0.000856
0.002297 0.000454 -0.000876
0.002285 0.000454 -0.000897
0.002276 0.000453 -0.00092
0.002268 0.000451 -0.000944
0.002265 0.000447 -0.00097
0.002268 0.000441 -0.000999
0.00228 0.000429 -0.001031
0.002385 0.000364 -0.001137
0.002425 0.000338 -0.001183
0.002459 0.000314 -0.001227
0.00249 0.000293 -0.001269
0.002519 0.000273 -0.001311
0.002543 0.000255 -0.00135
0.002567 0.000237 -0.001388
0.002589 0.00022 -0.001426
0.002606 0.000206 -0.001462
0.002604 0.000201 -0.001488
0.002594 0.000201 -0.001511
0.002582 0.000202 -0.001532
0.00257 0.000203 -0.001554
0.002557 0.000204 -0.001575
0.002464 0.000703 0.000879
0.002913 0.000581 -0.000722
0.002862 0.000651 -0.000464
0.002881 0.000207 -0.000748
0.002849 0.000218 -0.00076
0.002818 0.000229 -0.000771
0.002785 0.00024 -0.000782
0.002748 0.000253 -0.000792
0.002707 0.000269 -0.0008
0.002661 0.000288 -0.000805
0.002611 0.000308 -0.000808
0.002566 0.000326 -0.000814
0.002515 0.000346 -0.000817
0.002464 0.000368 -0.000819
0.002411 0.000389 -0.000821
0.002364 0.000408 -0.000826
0.002334 0.000418 -0.000839
0.002313 0.000424 -0.000856
0.002297 0.000427 -0.000875
0.002285 0.000427 -0.000897
0.002276 0.000426 -0.00092
0.002269 0.000424 -0.000944
0.002265 0.00042 -0.00097
0.002268 0.000413 -0.000999
0.00228 0.000402 -0.001032
0.002322 0.000375 -0.001079
0.00249 0.000266 -0.001269
0.002519 0.000245 -0.001311
0.002543 0.000228 -0.001349
0.002567 0.00021 -0.001388
0.002589 0.000193 -0.001426
0.002605 0.000179 -0.001461
0.002603 0.000175 -0.001488
0.002594 0.000174 -0.001511
0.002582 0.000174 -0.001532
0.00257 0.000175 -0.001554
0.002557 0.000177 -0.001575
0.002933 0.000532 -0.000525
0.002938 0.000577 -0.000626
0.002985 0.000437 0.000371
0.002881 0.00018 -0.000748
0.00285 0.00019 -0.00076
0.002818 0.000201 -0.000771
0.002784 0.000213 -0.000782
0.002749 0.000226 -0.000792
0.002706 0.000243 -0.000799
0.002661 0.00026 -0.000805
0.00261 0.000281 -0.000808
0.002567 0.000298 -0.000814
0.002515 0.000319 -0.000817
0.002464 0.00034 -0.000819
0.002412 0.000362 -0.000822
0.002364 0.000381 -0.000826
0.002334 0.000391 -0.000839
0.002313 0.000396 -0.000856
0.002297 0.000399 -0.000876
0.002285 0.0004 -0.000897
0.002275 0.000399 -0.00092
0.002268 0.000397 -0.000944
0.002266 0.000393 -0.00097
0.002268 0.000386 -0.000999
0.00228 0.000375 -0.001032
0.00232 0.000349 -0.001078
0.002426 0.000283 -0.001184
0.002458 0.000261 -0.001227
0.00249 0.000239 -0.001269
0.002519 0.000218 -0.001311
0.002543 0.0002 -0.00135
0.002567 0.000183 -0.001388
0.002589 0.000166 -0.001426
0.002604 0.000152 -0.001461
0.002601 0.000149 -0.001487
0.002592 0.000148 -0.00151
0.002581 0.000148 -0.001532
0.002569 0.000149 -0.001553
0.002556 0.00015 -0.001575
0.002651 0.000705 4.6e-05
0.002927 0.000578 -0.000674
0.002772 0.000735 0.000101
0.002881 0.000153 -0.000748
0.002849 0.000163 -0.00076
0.002817 0.000175 -0.000771
0.002784 0.000186 -0.000782
0.002748 0.000199 -0.000792
0.002706 0.000216 -0.000799
0.00266 0.000234 -0.000804
0.002611 0.000254 -0.000808
0.002566 0.000271 -0.000814
0.002515 0.000292 -0.000817
0.002463 0.000314 -0.000819
0.002412 0.000334 -0.000822
0.002364 0.000354 -0.000826
0.002334 0.000364 -0.000839
0.002313 0.000369 -0.000856
0.002297 0.000372 -0.000876
0.002285 0.000373 -0.000897
0.002276 0.000372 -0.00092
0.002269 0.00037 -0.000944
0.002266 0.000366 -0.00097
0.002268 0.000359 -0.000999
0.002281 0.000347 -0.001032
0.002424 0.000257 -0.001183
0.002458 0.000233 -0.001227
0.00249 0.000212 -0.001269
0.002519 0.000191 -0.001311
0.002543 0.000173 -0.001349
0.002567 0.000155 -0.001388
0.002588 0.000139 -0.001426
0.002601 0.000127 -0.00146
0.002597 0.000123 -0.001485
0.002588 0.000122 -0.001508
0.002578 0.000122 -0.001531
0.002566 0.000123 -0.001552
0.002553 0.000124 -0.001573
0.002567 0.000741 1e-05
0.002943 0.000576 -0.000602
0.002909 0.000637 -0.000721
0.00288 0.000126 -0.000747
0.002849 0.000136 -0.00076
0.002816 0.000148 -0.00077
0.002784 0.000159 -0.000782
0.002749 0.000171 -0.000793
0.002705 0.000189 -0.000799
0.00266 0.000206 -0.000805
0.002564 0.000245 -0.000813
0.002515 0.000265 -0.000816
0.002463 0.000286 -0.000819
0.002412 0.000307 -0.000822
0.002364 0.000327 -0.000826
0.002334 0.000336 -0.000839
0.002313 0.000342 -0.000856
0.002297 0.000345 -0.000876
0.002285 0.000346 -0.000897
0.002276 0.000345 -0.00092
0.002268 0.000343 -0.000944
0.002265 0.000339 -0.00097
0.002268 0.000332 -0.000999
0.00228 0.00032 -0.001032
0.002424 0.000229 -0.001183
0.00246 0.000205 -0.001228
0.002489 0.000185 -0.001269
0.002519 0.000164 -0.00131
0.002542 0.000146 -0.001349
0.002567 0.000128 -0.001389
0.002589 0.000111 -0.001426
0.002596 0.000102 -0.001457
0.002591 9.9e-05 -0.001482
0.002583 9.8e-05 -0.001505
0.002573 9.8e-05 -0.001528
0.002561 9.8e-05 -0.00155
0.002548 0.0001 -0.001571
0.002949 0.000523 -0.000553
0.002898 0.000605 -0.000495
0.002919 0.000634 -0.000698
0.002878 0.0001 -0.000746
0.002849 0.000109 -0.00076
0.002817 0.00012 -0.000771
0.002784 0.000132 -0.000782
0.002749 0.000144 -0.000793
0.002705 0.000161 -0.000799
0.00266 0.000179 -0.000804
0.00261 0.0002 -0.000808
0.002564 0.000218 -0.000813
0.002515 0.000238 -0.000816
0.002462 0.00026 -0.000818
0.00241 0.000281 -0.000821
0.002364 0.000299 -0.000826
0.002334 0.000309 -0.000839
0.002313 0.000315 -0.000856
0.002297 0.000318 -0.000876
0.002285 0.000318 -0.000897
0.002276 0.000317 -0.00092
0.002269 0.000315 -0.000944
0.002265 0.000311 -0.00097
0.002269 0.000304 -0.000999
0.002281 0.000293 -0.001032
0.002319 0.000268 -0.001077
0.002461 0.000178 -0.001228
0.00249 0.000157 -0.001269
0.002519 0.000137 -0.001311
0.002543 0.000119 -0.00135
0.002567 0.000101 -0.001388
0.002587 8.5e-05 -0.001425
0.00259 7.8e-05 -0.001454
0.002583 7.6e-05 -0.001478
0.002575 7.5e-05 -0.001502
0.002564 7.5e-05 -0.001524
0.002553 7.5e-05 -0.001546
0.00254 7.7e-05 -0.001567
0.002735 0.000662 -0.000368
0.002822 0.000645 -0.000432
0.002933 0.000631 -0.00065
0.002873 7.5e-05 -0.000743
0.002849 8.2e-05 -0.000759
0.002816 9.3e-05 -0.00077
0.002784 0.000105 -0.000782
0.002749 0.000117 -0.000793
0.002705 0.000134 -0.000799
0.00266 0.000152 -0.000804
0.00261 0.000172 -0.000808
0.002564 0.000191 -0.000813
0.002515 0.000211 -0.000816
0.002462 0.000233 -0.000818
0.00241 0.000254 -0.000821
0.002363 0.000273 -0.000826
0.002334 0.000282 -0.000839
0.002313 0.000288 -0.000856
0.002297 0.00029 -0.000876
0.002285 0.000291 -0.000897
0.002276 0.00029 -0.00092
0.002269 0.000288 -0.000944
0.002265 0.000284 -0.00097
0.002268 0.000277 -0.000999
0.00228 0.000266 -0.001032
0.002427 0.000174 -0.001184
0.002461 0.000151 -0.001228
0.00249 0.00013 -0.001269
0.002518 0.00011 -0.00131
0.002543 9.1e-05 -0.00135
0.002567 7.4e-05 -0.001388
0.002581 6.1e-05 -0.001422
0.00258 5.6e-05 -0.001449
0.002573 5.4e-05 -0.001473
0.002564 5.3e-05 -0.001496
0.002553 5.3e-05 -0.001519
0.002542 5.4e-05 -0.00154
0.002529 5.5e-05 -0.001561
0.002515 5.7e-05 -0.001582
0.002823 0.000562 -0.000432
0.000357 -1.8e-05 0.002108
0.002927 0.000633 -0.000674
0.002945 0.000632 -0.000577
0.002845 5.7e-05 -0.000757
0.002816 6.6e-05 -0.00077
0.002784 7.8e-05 -0.000782
0.002748 9.1e-05 -0.000792
0.002706 0.000107 -0.000799
0.00266 0.000125 -0.000804
0.00261 0.000145 -0.000808
0.002562 0.000164 -0.000812
0.002515 0.000184 -0.000817
0.002461 0.000206 -0.000818
0.002409 0.000227 -0.00082
0.002363 0.000246 -0.000825
0.002333 0.000255 -0.000839
0.002312 0.000261 -0.000856
0.002297 0.000263 -0.000876
0.002285 0.000264 -0.000897
0.002275 0.000263 -0.00092
0.002268 0.000261 -0.000944
0.002265 0.000257 -0.00097
0.002268 0.00025 -0.000999
0.00228 0.000239 -0.001031
0.002426 0.000147 -0.001184
0.00246 0.000124 -0.001228
0.00249 0.000103 -0.00127
0.002518 8.3e-05 -0.00131
0.002543 6.4e-05 -0.00135
0.002563 4.8e-05 -0.001387
0.00257 3.9e-05 -0.001417
0.002567 3.6e-05 -0.001443
0.002559 3.4e-05 -0.001467
0.002549 3.4e-05 -0.001489
0.002539 3.4e-05 -0.001512
0.002527 3.4e-05 -0.001534
0.002515 3.5e-05 -0.001555
0.002501 3.7e-05 -0.001575
0.002486 3.9e-05 -0.001596
0.002895 0.000533 -0.000743
0.002781 0.000666 -0.0004
0.002882 0.000662 0.000156
0.002921 0.000606 -0.000698
0.00278 0.000693 -0.0004
0.002812 4.1e-05 -0.000769
0.002783 5.1e-05 -0.000782
0.002748 6.3e-05 -0.000792
0.002705 8e-05 -0.000799
0.002659 9.8e-05 -0.000804
0.00261 0.000118 -0.000808
0.002564 0.000137 -0.000813
0.002514 0.000157 -0.000816
0.002462 0.000178 -0.000819
0.002409 0.0002 -0.00082
0.002362 0.000219 -0.000825
0.002333 0.000228 -0.000839
0.002312 0.000234 -0.000856
0.002297 0.000236 -0.000876
0.002284 0.000237 -0.000897
0.002275 0.000236 -0.00092
0.002268 0.000234 -0.000944
0.002265 0.00023 -0.00097
0.002268 0.000223 -0.000999
0.00228 0.000212 -0.001032
0.002426 0.00012 -0.001184
0.00246 9.7e-05 -0.001228
0.002491 7.5e-05 -0.00127
0.002517 5.6e-05 -0.00131
0.002541 3.9e-05 -0.001349
0.002553 2.7e-05 -0.001382
0.002553 2.1e-05 -0.001409
0.002549 1.8e-05 -0.001435
0.00254 1.6e-05 -0.001458
0.002531 1.6e-05 -0.00148
0.00252 1.6e-05 -0.001503
0.002508 1.7e-05 -0.001524
0.002496 1.8e-05 -0.001546
0.002483 1.9e-05 -0.001567
0.002469 2.1e-05 -0.001587
0.002895 0.00056 -0.000743
0.002928 0.000551 -0.000674
0.002933 0.00055 -0.00065
0.002933 0.00056 -0.000525
0.002898 0.000578 -0.000495
0.000333 -1.7e-05 0.002113
0.002776 2.7e-05 -0.000779
0.002745 3.8e-05 -0.000791
0.002704 5.4e-05 -0.000798
0.002659 7.1e-05 -0.000804
0.002611 9.1e-05 -0.000808
0.002563 0.00011 -0.000813
0.002514 0.00013 -0.000816
0.002462 0.000151 -0.000818
0.00241 0.000172 -0.000821
0.002362 0.000192 -0.000825
0.002333 0.000201 -0.000839
0.002312 0.000207 -0.000856
0.002296 0.000209 -0.000876
0.002284 0.00021 -0.000897
0.002275 0.000209 -0.00092
0.002268 0.000207 -0.000944
0.002265 0.000203 -0.00097
0.002268 0.000196 -0.000999
0.00228 0.000185 -0.001032
0.002319 0.000159 -0.001078
0.002424 9.4e-05 -0.001183
0.002459 7e-05 -0.001227
0.00249 4.8e-05 -0.00127
0.002515 3e-05 -0.001309
0.00253 1.7e-05 -0.001343
0.002532 1e-05 -0.001372
0.002528 7e-06 -0.001397
0.002501 4e-06 -0.001466
0.00249 4e-06 -0.001488
0.002481 4e-06 -0.001511
0.00247 4e-06 -0.001533
0.002458 5e-06 -0.001555
0.002938 0.000522 -0.000626
0.002938 0.000631 -0.000626
0.002687 0.00066 -0.000335
0.002695 0.000686 6.3e-05
0.002947 0.000604 -0.000578
0.002897 0.000687 -0.000494
0.002734 1.6e-05 -0.000786
0.002701 2.8e-05 -0.000797
0.002657 4.5e-05 -0.000803
0.002561 8.3e-05 -0.000812
0.002512 0.000103 -0.000816
0.00241 0.000145 -0.000821
0.002361 0.000165 -0.000825
0.002333 0.000174 -0.000839
0.002312 0.000179 -0.000856
0.002296 0.000182 -0.000876
0.002284 0.000183 -0.000897
0.002275 0.000182 -0.00092
0.002268 0.00018 -0.000944
0.002265 0.000176 -0.00097
0.002268 0.000169 -0.000999
0.002279 0.000158 -0.001031
0.002423 6.7e-05 -0.001183
0.002459 4.3e-05 -0.001227
0.002487 2.3e-05 -0.001268
0.002502 1e-05 -0.001303
0.002501 4e-06 -0.00133
0.002492 4e-06 -0.001353
0.002481 4e-06 -0.001374
0.002448 5e-06 -0.001441
0.002437 5e-06 -0.001463
0.002903 0.000696 -0.000695
0.00292 0.000692 -0.000648
0.002455 0.000726 -0.000146
0.002928 0.000696 -0.000549
0.002858 0.000734 -0.000463
0.002895 0.000715 -0.000494
0.002875 0.000706 -0.00074
0.002862 0.000705 -0.000464
0.002685 8e-06 -0.00079
0.002654 1.9e-05 -0.000802
0.002612 3.5e-05 -0.000809
0.002563 5.6e-05 -0.000812
0.002514 7.5e-05 -0.000816
0.002461 9.7e-05 -0.000818
0.002409 0.000119 -0.00082
0.00236 0.000138 -0.000824
0.002332 0.000147 -0.000838
0.002312 0.000152 -0.000856
0.002296 0.000155 -0.000876
0.002284 0.000156 -0.000897
0.002275 0.000155 -0.00092
0.002268 0.000153 -0.000944
0.002265 0.000148 -0.00097
0.002268 0.000142 -0.000999
0.002278 0.000131 -0.001031
0.002457 1.7e-05 -0.001226
0.002471 4e-06 -0.00126
0.002469 -0.0 -0.001287
0.002457 -0.0 -0.001309
0.002447 -0.0 -0.001331
0.002435 1e-06 -0.001352
0.00237 1e-06 -0.001485
0.002913 0.000694 -0.000672
0.002721 1e-06 -0.000615
0.002711 1e-06 -0.000638
0.002702 0.0 -0.000661
0.002692 -0.0 -0.000683
0.002684 -1e-06 -0.000707
0.002855 0.000523 -0.00076
0.00299 0.000496 0.000248
0.002948 0.000494 -0.000578
0.002635 1e-06 -0.000793
0.002606 1.1e-05 -0.000806
0.002563 2.8e-05 -0.000812
0.002515 4.7e-05 -0.000817
0.002461 7e-05 -0.000818
0.002409 9.2e-05 -0.00082
0.00236 0.000111 -0.000824
0.002332 0.00012 -0.000838
0.002312 0.000125 -0.000856
0.002296 0.000128 -0.000875
0.002284 0.000129 -0.000897
0.002275 0.000128 -0.00092
0.002268 0.000126 -0.000944
0.002265 0.000121 -0.00097
0.002268 0.000114 -0.000999
0.002277 0.000105 -0.00103
0.001233 -5e-06 0.001856
0.001209 -4e-06 0.001862
0.002437 -0.0 -0.001217
0.002434 -4e-06 -0.001243
0.002425 -5e-06 -0.001265
0.002415 -6e-06 -0.001288
0.002404 -5e-06 -0.00131
0.00233 -5e-06 -0.001466
0.002318 -5e-06 -0.001488
0.002306 -4e-06 -0.001509
0.002295 -4e-06 -0.001531
0.002284 -4e-06 -0.001553
0.002862 0.000569 -0.000464
0.002682 -5e-06 -0.000597
0.002671 -5e-06 -0.000619
0.002659 -5e-06 -0.00064
0.002649 -5e-06 -0.000663
0.002638 -5e-06 -0.000685
0.002594 -4e-06 -0.000773
0.002578 -1e-06 -0.000793
0.002553 6e-06 -0.000808
0.002515 2.1e-05 -0.000817
0.002462 4.2e-05 -0.000818
0.002409 6.4e-05 -0.000821
0.002361 8.4e-05 -0.000825
0.002332 9.3e-05 -0.000838
0.002311 9.8e-05 -0.000856
0.002296 0.000101 -0.000875
0.002284 0.000101 -0.000897
0.002274 0.000101 -0.00092
0.002268 9.9e-05 -0.000944
0.002264 9.5e-05 -0.00097
0.002267 8.8e-05 -0.000999
0.002278 7.7e-05 -0.001031
0.001186 -4e-06 0.001871
0.002368 -3e-06 -0.001238
0.002357 -3e-06 -0.00126
0.002265 -4e-06 -0.001462
0.002256 -5e-06 -0.001485
0.002245 -5e-06 -0.001507
0.002233 -5e-06 -0.001529
0.002224 -5e-06 -0.001552
0.002213 -5e-06 -0.001574
0.002899 0.00055 -0.000495
0.002625 -3e-06 -0.000569
0.002614 -3e-06 -0.000591
0.002601 -2e-06 -0.000612
0.002592 -2e-06 -0.000635
0.00258 -2e-06 -0.000657
0.002569 -2e-06 -0.000679
0.002535 -1e-06 -0.000745
0.002524 -1e-06 -0.000767
0.002514 -1e-06 -0.000789
0.002496 3e-06 -0.000808
0.00246 1.6e-05 -0.000818
0.002408 3.7e-05 -0.00082
0.002359 5.7e-05 -0.000824
0.002331 6.6e-05 -0.000838
0.002311 7.1e-05 -0.000855
0.002296 7.4e-05 -0.000875
0.002283 7.5e-05 -0.000897
0.002274 7.4e-05 -0.00092
0.002267 7.2e-05 -0.000944
0.002264 6.8e-05 -0.00097
0.002266 6.1e-05 -0.000998
0.002278 5e-05 -0.001031
0.002331 1e-06 -0.001166
0.00232 0.0 -0.001188
0.002307 2e-06 -0.001209
0.002247 1e-06 -0.001344
0.002235 1e-06 -0.001365
0.002194 -0.0 -0.001455
0.002184 -1e-06 -0.001478
0.002172 -0.0 -0.0015
0.002162 -0.0 -0.001522
0.002154 -2e-06 -0.001545
0.002555 0.0 -0.000563
0.002543 1e-06 -0.000584
0.002507 3e-06 -0.000649
0.002496 3e-06 -0.000671
0.002735 0.000615 8.2e-05
0.002464 0.000728 -7.3e-05
0.002463 4e-06 -0.000737
0.002452 4e-06 -0.000759
0.002444 3e-06 -0.000783
0.002432 3e-06 -0.000804
0.002357 3.1e-05 -0.000823
0.002331 3.9e-05 -0.000838
0.00231 4.4e-05 -0.000855
0.002295 4.7e-05 -0.000875
