-0.001085 -9e-06 -0.002234
-0.001102 6e-06 -0.002198
-0.00112 1.4e-05 -0.002174
-0.001141 1.9e-05 -0.002157
-0.001163 2.1e-05 -0.002145
-0.001186 2.3e-05 -0.002136
-0.00121 2.2e-05 -0.00213
-0.001234 2e-05 -0.002126
-0.001261 1.5e-05 -0.002128
-0.001291 5e-06 -0.002143
-0.001322 -7e-06 -0.002158
-0.000667 0.000654 -0.002658
-0.000177 0.000572 -0.00284
-0.000153 0.000551 -0.002884
-0.000541 0.000661 -0.00247
-0.000129 0.000452 -0.002922
-7e-06 0.000556 -0.002993
1.8e-05 0.000668 -0.002986
-0.000276 -1.8e-05 -0.002444
-0.000299 -1.8e-05 -0.002437
-0.000442 0.00069 -0.002409
-5.6e-05 0.000421 -0.002991
0.000116 0.000426 -0.002981
6.7e-05 0.000557 -0.002992
9.2e-05 0.000558 -0.002989
-0.000466 0.000715 -0.002414
-5.6e-05 0.000475 -0.002991
-7e-06 0.000475 -0.002993
-0.000721 -2.9e-05 -0.001966
-0.000466 0.000742 -0.002414
-0.000605 -1.7e-05 -0.002341
-0.000651 -1.6e-05 -0.002324
-0.000675 -1.6e-05 -0.002317
-0.000699 -1.7e-05 -0.002312
-0.000722 -1.6e-05 -0.002302
-0.000745 -1.6e-05 -0.002296
-0.000769 -1.7e-05 -0.002289
-0.000793 -1.6e-05 -0.002282
-0.000816 -1.6e-05 -0.002273
-0.000864 -1.7e-05 -0.002262
-0.000887 -1.7e-05 -0.002253
-0.000959 -1.8e-05 -0.002235
-0.000982 -1.8e-05 -0.002228
-0.001006 -1.8e-05 -0.002221
-0.001029 -1.8e-05 -0.002213
-0.001077 -1.9e-05 -0.0022
-0.001099 -1.7e-05 -0.002188
-0.00112 -1.2e-05 -0.002172
-0.001141 -9e-06 -0.002158
-0.001164 -7e-06 -0.002147
-0.001186 -5e-06 -0.002137
-0.00121 -5e-06 -0.002129
-0.001261 -1.2e-05 -0.002129
-0.001288 -1.7e-05 -0.002132
-0.001312 -1.9e-05 -0.002128
-0.000698 -2.9e-05 -0.001973
0.000116 0.000481 -0.002982
0.000141 0.000498 -0.002945
-0.000211 -1.8e-05 -0.002401
-0.000234 -1.7e-05 -0.002393
-8.1e-05 0.000424 -0.002985
-0.000105 0.000436 -0.002958
-0.000466 0.000688 -0.002414
-0.000374 -1.5e-05 -0.002345
-0.000398 -1.5e-05 -0.002339
0.000567 0.000664 -0.002477
-0.000674 -2.9e-05 -0.00198
-0.00065 -2.9e-05 -0.001987
-0.000627 -2.9e-05 -0.001995
-0.000604 -2.9e-05 -0.002002
0.001785 0.000616 -0.002399
-7e-06 0.000701 -0.002973
-0.000609 -1.4e-05 -0.002271
-0.000632 -1.3e-05 -0.002263
-0.000656 -1.3e-05 -0.002256
-0.000845 -1.4e-05 -0.0022
-0.000868 -1.4e-05 -0.002193
-0.00058 -2.9e-05 -0.002009
-0.000939 -1.4e-05 -0.00217
-0.000962 -1.3e-05 -0.002161
-0.000986 -1.3e-05 -0.002154
-0.001058 -1.6e-05 -0.002139
-0.001081 -1.6e-05 -0.002131
-0.001105 -1.6e-05 -0.002125
-0.001129 -1.6e-05 -0.002117
-0.001152 -1.5e-05 -0.002108
-0.001175 -1.5e-05 -0.0021
-0.001247 -1.7e-05 -0.002084
-0.001271 -1.8e-05 -0.002078
-0.000556 -2.9e-05 -0.002016
-0.000567 0.000693 -0.002517
-0.000541 0.000716 -0.002468
0.000996 0.000585 -0.002824
-0.000214 -1.2e-05 -0.002327
-0.000237 -1.1e-05 -0.002318
0.001187 -5e-06 0.001873
-0.000353 -9e-06 -0.002278
-0.000377 -9e-06 -0.002269
-0.000401 -1e-05 -0.002264
4.2e-05 0.000669 -0.002985
6.7e-05 0.00067 -0.002982
-0.000533 -2.9e-05 -0.002024
0.000445 0.000751 -0.002405
-0.000565 -9e-06 -0.002212
-0.000588 -7e-06 -0.002202
-0.000612 -8e-06 -0.002196
-0.000682 -7e-06 -0.002173
-0.000706 -8e-06 -0.002168
-0.00073 -8e-06 -0.002161
-0.000753 -8e-06 -0.002154
-0.000509 -2.8e-05 -0.00203
-0.000485 -2.8e-05 -0.002037
-0.000462 -2.8e-05 -0.002044
-0.000438 -2.8e-05 -0.00205
-0.001061 -1.1e-05 -0.002065
-0.001084 -1e-05 -0.002057
-0.001108 -1.1e-05 -0.002051
-0.001157 -1.3e-05 -0.002041
-0.00118 -1.2e-05 -0.002032
-0.000414 -2.7e-05 -0.002056
-3.1e-05 -1e-05 -0.002319
-5.4e-05 -1e-05 -0.002311
-0.000642 0.000587 -0.002627
-0.000617 0.000602 -0.002596
-0.000129 0.000534 -0.002922
-0.000105 0.000517 -0.002959
0.001163 -5e-06 0.00188
0.001025 -8e-06 0.001931
-0.000334 -6e-06 -0.002216
-0.000358 -6e-06 -0.002208
-0.000405 -7e-06 -0.002195
-0.000429 -7e-06 -0.002189
4.2e-05 0.000475 -0.002992
0.00102 0.000477 -0.002816
-0.000546 -5e-06 -0.00215
-0.000569 -5e-06 -0.002142
-0.000593 -6e-06 -0.002136
-0.000617 -7e-06 -0.002131
-0.000641 -7e-06 -0.002124
-0.000664 -7e-06 -0.002116
-0.000687 -6e-06 -0.002107
-0.000711 -6e-06 -0.002101
-0.000734 -6e-06 -0.002092
-0.000758 -6e-06 -0.002086
-0.000876 -6e-06 -0.002051
-0.0009 -6e-06 -0.002043
-0.000994 -7e-06 -0.002016
-0.001018 -8e-06 -0.00201
-0.001042 -8e-06 -0.002002
-0.001066 -8e-06 -0.001997
-0.001089 -8e-06 -0.00199
-0.001136 -7e-06 -0.001973
-0.001161 -1e-05 -0.001972
-0.001185 -1e-05 -0.001964
-0.00039 -2.7e-05 -0.002063
-0.000366 -2.7e-05 -0.002069
-0.000342 -2.6e-05 -0.002075
-1.3e-05 -9e-06 -0.00226
-3.5e-05 -7e-06 -0.002248
0.001084 0.000541 -0.002777
0.000302 0.00075 -0.002529
-8.1e-05 0.000644 -0.002978
-5.6e-05 0.000641 -0.002985
-0.000177 0.000626 -0.00284
-8.1e-05 0.00056 -0.002983
-0.000665 0.000599 -0.00266
-5.6e-05 0.000448 -0.002991
-3.2e-05 0.000448 -0.002992
-7e-06 0.000448 -0.002992
-0.000177 0.000545 -0.00284
-0.000153 0.000525 -0.002883
-0.000393 0.000743 -0.002411
-0.000129 0.00048 -0.002922
-0.000413 -9e-06 -0.002136
0.000973 0.000503 -0.002832
-0.000592 0.000618 -0.00256
6.7e-05 0.000476 -0.002992
0.000166 0.000627 -0.002901
-0.000531 -9e-06 -0.002102
-0.000555 -1e-05 -0.002095
-0.000578 -1e-05 -0.002088
-0.000602 -1e-05 -0.002081
-0.000626 -1e-05 -0.002074
-0.000649 -1e-05 -0.002067
-0.000673 -1e-05 -0.00206
-0.000696 -1e-05 -0.002052
-0.00072 -1e-05 -0.002045
-0.000743 -1e-05 -0.002038
-0.000767 -1e-05 -0.00203
-0.00079 -9e-06 -0.002022
-0.000813 -9e-06 -0.002014
-0.000837 -9e-06 -0.002007
-0.000861 -9e-06 -0.002
-0.000884 -9e-06 -0.001993
-0.000907 -8e-06 -0.001983
-0.000977 -8e-06 -0.00196
-0.001001 -7e-06 -0.001953
-0.001024 -6e-06 -0.001944
-0.001047 -6e-06 -0.001937
-0.001071 -6e-06 -0.001929
-0.001094 -6e-06 -0.001921
-0.000318 -2.5e-05 -0.002081
-0.000294 -2.4e-05 -0.002086
0.00042 0.000722 -0.002408
-1.8e-05 -8e-06 -0.002193
-4.2e-05 -8e-06 -0.002187
0.000142 0.00069 -0.002942
-3.2e-05 0.00064 -0.002988
-0.000105 0.000654 -0.002958
-0.000105 0.000572 -0.002958
-5.6e-05 0.000557 -0.002991
0.000738 0.000609 -0.002723
-0.000592 0.0007 -0.002559
-0.000567 0.000721 -0.002516
-0.000516 0.000675 -0.002439
9.2e-05 0.000673 -0.002977
-0.000305 -1.4e-05 -0.002121
-0.000329 -1.5e-05 -0.002116
-0.000353 -1.5e-05 -0.002109
-0.000377 -1.6e-05 -0.002103
-0.000401 -1.6e-05 -0.002097
-0.000425 -1.7e-05 -0.002091
-0.000448 -1.8e-05 -0.002085
-0.000472 -1.7e-05 -0.002077
-0.000496 -1.8e-05 -0.00207
-0.000519 -1.8e-05 -0.002064
-0.000543 -1.8e-05 -0.002057
-0.000567 -1.8e-05 -0.00205
-0.00059 -1.8e-05 -0.002043
-0.000614 -1.9e-05 -0.002036
-0.000637 -1.8e-05 -0.002028
-0.000661 -1.8e-05 -0.002022
-0.000684 -1.8e-05 -0.002014
-0.000708 -1.8e-05 -0.002006
-0.000731 -1.8e-05 -0.001999
-0.000754 -1.7e-05 -0.00199
-0.000778 -1.7e-05 -0.001983
-0.000802 -1.7e-05 -0.001976
-0.000825 -1.7e-05 -0.001967
-0.000848 -1.7e-05 -0.00196
-0.000871 -1.6e-05 -0.001951
-0.000895 -1.6e-05 -0.001943
-0.000941 -1.5e-05 -0.001926
-0.000964 -1.4e-05 -0.001916
-0.000987 -1.3e-05 -0.001908
-0.001011 -1.3e-05 -0.001901
-0.001034 -1.2e-05 -0.001893
-0.001057 -1.1e-05 -0.001883
-0.00108 -1e-05 -0.001875
0.000396 0.00072 -0.002413
0.000567 0.000691 -0.002477
0.001828 0.000533 -0.002374
0.000503 0.000744 -0.002426
0.000421 0.000749 -0.00241
-8.1e-05 0.000505 -0.002984
-0.000567 0.000638 -0.002517
-0.000592 0.000673 -0.002559
1.7e-05 0.000475 -0.002993
0.000371 0.000742 -0.002424
-0.000541 0.000741 -0.002471
-0.000617 0.000684 -0.002594
0.000117 0.000678 -0.002967
0.000543 0.000652 -0.002443
0.000518 0.000663 -0.002422
0.000494 0.000668 -0.002411
0.00047 0.00067 -0.002405
0.000445 0.00067 -0.002404
0.00042 0.000668 -0.002407
0.000396 0.000666 -0.002412
0.000371 0.000661 -0.002421
0.000152 0.000706 -0.002912
0.000353 0.000734 -0.002434
0.001514 0.000482 -0.002288
0.00102 0.000586 -0.002816
0.000166 0.000437 -0.0029
0.000141 0.000416 -0.002945
0.000116 0.000399 -0.002982
9.1e-05 0.000395 -0.00299
6.7e-05 0.000394 -0.002992
4.2e-05 0.000393 -0.002993
1.7e-05 0.000393 -0.002993
-7e-06 0.000393 -0.002993
-3.2e-05 0.000393 -0.002993
-5.6e-05 0.000393 -0.002991
-8.1e-05 0.000397 -0.002984
-0.000105 0.000409 -0.002958
-0.000129 0.000425 -0.002923
-0.000153 0.000443 -0.002884
-0.000393 0.000662 -0.002411
-0.000417 0.000663 -0.002408
-0.000442 0.000663 -0.002409
-0.000466 0.000661 -0.002414
-0.000491 0.000656 -0.002422
-0.000516 0.000648 -0.00244
-0.000541 0.000634 -0.00247
-0.000567 0.000612 -0.002516
-0.000592 0.000591 -0.00256
-0.000617 0.000574 -0.002597
-0.000642 0.000559 -0.002628
-0.000667 0.000545 -0.002658
0.000612 0.000579 -0.002546
0.000591 0.000593 -0.002513
0.000567 0.00061 -0.002476
0.000543 0.000626 -0.002442
0.000518 0.000635 -0.002422
0.000494 0.00064 -0.002411
0.00047 0.000643 -0.002405
0.000445 0.000643 -0.002404
0.00042 0.000641 -0.002407
0.000396 0.000638 -0.002412
0.000149 0.000738 -0.0029
0.000901 0.000614 -0.002847
0.001065 0.00048 -0.002797
0.001465 0.000724 -0.002255
0.000164 0.00041 -0.0029
0.000141 0.000389 -0.002946
0.000116 0.000372 -0.002981
9.1e-05 0.000368 -0.00299
6.7e-05 0.000367 -0.002991
4.2e-05 0.000367 -0.002992
1.7e-05 0.000366 -0.002993
-7e-06 0.000366 -0.002993
-3.2e-05 0.000366 -0.002993
-5.7e-05 0.000366 -0.002991
-8.1e-05 0.000369 -0.002985
-0.000105 0.000382 -0.002958
-0.000129 0.000398 -0.002923
-0.000153 0.000416 -0.002884
-0.00029 -2.6e-05 -0.00208
-0.000393 0.000635 -0.00241
-0.000417 0.000636 -0.002408
-0.000442 0.000636 -0.002409
-0.000466 0.000634 -0.002413
-0.000491 0.000629 -0.002422
-0.000516 0.000621 -0.002439
-0.000541 0.000606 -0.00247
-0.000567 0.000585 -0.002516
-0.000592 0.000564 -0.002561
-0.000617 0.000547 -0.002597
-0.000642 0.000532 -0.002628
-0.000665 0.000518 -0.002659
0.000615 0.000552 -0.002542
0.000591 0.000566 -0.002513
0.000567 0.000583 -0.002477
0.000542 0.000598 -0.002443
0.000518 0.000608 -0.002423
0.000494 0.000613 -0.002411
0.00047 0.000615 -0.002405
0.000445 0.000616 -0.002404
0.00042 0.000614 -0.002407
0.001018 0.000671 -0.002808
0.000925 0.00064 -0.002842
0.000774 0.000669 -0.002761
0.000185 0.000567 -0.002848
-0.000265 -2.7e-05 -0.002082
0.001083 0.000487 -0.002776
0.00095 0.000475 -0.00284
0.000141 0.000361 -0.002946
0.000116 0.000345 -0.002981
9.1e-05 0.00034 -0.002991
6.7e-05 0.000339 -0.002992
4.2e-05 0.000339 -0.002993
1.7e-05 0.000339 -0.002993
-7e-06 0.000339 -0.002993
-3.2e-05 0.000339 -0.002992
-5.7e-05 0.000339 -0.002992
-8.1e-05 0.000342 -0.002984
-0.000105 0.000354 -0.002958
-0.000129 0.000371 -0.002922
-0.000153 0.000388 -0.002884
-0.000241 -2.7e-05 -0.002083
-0.000216 -2.8e-05 -0.002085
-0.000393 0.000608 -0.00241
-0.000417 0.000609 -0.002408
-0.000442 0.000609 -0.002408
-0.000466 0.000607 -0.002413
-0.000491 0.000602 -0.002421
-0.000516 0.000594 -0.002439
-0.000541 0.000579 -0.00247
-0.000567 0.000558 -0.002516
-0.000592 0.000537 -0.00256
-0.000617 0.00052 -0.002595
-0.000642 0.000505 -0.002628
-0.000662 0.000491 -0.002662
0.000615 0.000525 -0.002543
0.000591 0.000539 -0.002512
0.000567 0.000556 -0.002476
0.000542 0.000571 -0.002443
0.000518 0.000581 -0.002422
0.000494 0.000586 -0.002411
0.00047 0.000588 -0.002405
0.000445 0.000589 -0.002404
0.00042 0.000587 -0.002406
0.000971 0.000669 -0.002826
0.000808 0.000679 -0.002789
0.000186 0.000703 -0.002849
0.001795 0.000707 -0.002367
-0.000191 -2.8e-05 -0.002086
0.000141 0.000334 -0.002946
0.000116 0.000318 -0.002981
9.1e-05 0.000313 -0.002991
6.7e-05 0.000312 -0.002992
4.2e-05 0.000312 -0.002992
1.7e-05 0.000312 -0.002993
-7e-06 0.000312 -0.002993
-3.2e-05 0.000312 -0.002993
-5.7e-05 0.000312 -0.002991
-8.1e-05 0.000315 -0.002984
-0.000105 0.000327 -0.002958
-0.000129 0.000344 -0.002922
-0.000153 0.000362 -0.002884
-0.000177 0.000382 -0.002839
-0.000393 0.000581 -0.00241
-0.000417 0.000582 -0.002408
-0.000442 0.000582 -0.002408
-0.000466 0.00058 -0.002412
-0.000491 0.000575 -0.002421
-0.000516 0.000566 -0.002439
-0.000541 0.000552 -0.00247
-0.000567 0.00053 -0.002517
-0.000592 0.00051 -0.00256
-0.000617 0.000493 -0.002596
-0.000642 0.000478 -0.002628
-0.000665 0.000463 -0.002661
0.000615 0.000498 -0.002541
0.000591 0.000512 -0.002512
0.000567 0.000528 -0.002477
0.000543 0.000544 -0.002443
0.000518 0.000554 -0.002422
0.000494 0.000559 -0.00241
0.00047 0.000561 -0.002405
0.000445 0.000562 -0.002403
0.00042 0.00056 -0.002407
0.000898 0.000672 -0.002838
0.000185 0.000731 -0.002846
0.001083 0.000596 -0.002774
0.000996 0.000558 -0.002823
-0.000167 -2.8e-05 -0.002087
-0.000142 -2.9e-05 -0.002088
0.000501 0.000722 -0.002415
0.000285 0.00071 -0.002563
0.000141 0.000307 -0.002946
0.000116 0.000291 -0.002981
9.1e-05 0.000286 -0.00299
6.7e-05 0.000285 -0.002992
4.2e-05 0.000285 -0.002992
1.7e-05 0.000285 -0.002992
-7e-06 0.000285 -0.002992
-3.2e-05 0.000285 -0.002992
-5.7e-05 0.000285 -0.002991
-8.1e-05 0.000288 -0.002984
-0.000105 0.0003 -0.002958
-0.000129 0.000317 -0.002921
-0.000154 0.000334 -0.002884
-0.000177 0.000355 -0.00284
-0.000393 0.000554 -0.00241
-0.000417 0.000555 -0.002408
-0.000442 0.000554 -0.002408
-0.000467 0.000552 -0.002412
-0.000491 0.000547 -0.002422
-0.000516 0.000539 -0.002439
-0.000541 0.000525 -0.00247
-0.000567 0.000503 -0.002516
-0.000592 0.000482 -0.002561
-0.000617 0.000465 -0.002598
-0.000642 0.00045 -0.002628
-0.000665 0.000436 -0.002661
0.000615 0.000471 -0.002542
0.000591 0.000485 -0.002512
0.000567 0.000501 -0.002477
0.000543 0.000517 -0.002442
0.000519 0.000526 -0.002422
0.000494 0.000532 -0.00241
0.00047 0.000534 -0.002405
0.000445 0.000534 -0.002404
0.00042 0.000533 -0.002407
0.000923 0.00067 -0.002837
0.000169 0.000718 -0.00288
0.001043 0.000587 -0.002806
0.000186 0.000648 -0.002849
-0.000117 -2.9e-05 -0.002089
-9.3e-05 -2.9e-05 -0.00209
0.001065 0.000534 -0.002796
0.000164 0.000301 -0.002899
0.000141 0.00028 -0.002946
0.000116 0.000263 -0.002981
9.1e-05 0.000259 -0.00299
6.7e-05 0.000258 -0.002991
4.2e-05 0.000258 -0.002992
1.7e-05 0.000258 -0.002992
-7e-06 0.000258 -0.002992
-3.2e-05 0.000258 -0.002992
-5.7e-05 0.000258 -0.00299
-8.1e-05 0.000261 -0.002984
-0.000105 0.000273 -0.002958
-0.000129 0.00029 -0.00292
-0.000154 0.000307 -0.002884
-0.000178 0.000327 -0.00284
-6.8e-05 -3e-05 -0.002091
-0.000393 0.000527 -0.00241
-0.000417 0.000528 -0.002408
-0.000442 0.000527 -0.002408
-0.000467 0.000525 -0.002413
-0.000491 0.00052 -0.002423
-0.000516 0.000512 -0.002439
-0.000541 0.000498 -0.00247
-0.000567 0.000476 -0.002516
-0.000592 0.000455 -0.00256
-0.000617 0.000438 -0.002598
-0.000642 0.000423 -0.002628
-0.000668 0.000409 -0.002658
0.000612 0.000443 -0.002545
0.000591 0.000457 -0.002512
0.000567 0.000474 -0.002477
0.000543 0.00049 -0.002442
0.000519 0.000499 -0.002422
0.000494 0.000505 -0.00241
0.00047 0.000507 -0.002405
0.000445 0.000507 -0.002404
0.00042 0.000505 -0.002407
0.001061 0.000677 -0.002782
0.001722 0.000689 -0.00239
0.000973 0.000584 -0.002832
0.00119 0.000733 -0.002137
-4.4e-05 -3e-05 -0.002091
0.000807 0.000517 -0.002787
0.000165 0.000274 -0.0029
0.000141 0.000253 -0.002946
0.000116 0.000236 -0.002981
9.1e-05 0.000232 -0.00299
6.7e-05 0.000231 -0.002992
4.2e-05 0.00023 -0.002993
1.7e-05 0.00023 -0.002993
-7e-06 0.00023 -0.002993
-3.2e-05 0.00023 -0.002992
-5.7e-05 0.000231 -0.00299
-8.1e-05 0.000234 -0.002983
-0.000105 0.000246 -0.002958
-0.000129 0.000263 -0.002921
-0.000154 0.00028 -0.002884
-0.000178 0.0003 -0.00284
-0.000393 0.000499 -0.00241
-0.000417 0.0005 -0.002408
-0.000442 0.0005 -0.002408
-0.000467 0.000498 -0.002413
-0.000491 0.000493 -0.002423
-0.000516 0.000485 -0.002439
-0.000541 0.000471 -0.002469
-0.000567 0.000449 -0.002516
-0.000592 0.000428 -0.002561
-0.000617 0.000411 -0.002597
-0.000642 0.000397 -0.002627
-0.000668 0.000381 -0.00266
0.000615 0.000416 -0.002543
0.000591 0.00043 -0.002513
0.000567 0.000447 -0.002476
0.000543 0.000463 -0.002442
0.000519 0.000472 -0.002422
0.000494 0.000477 -0.00241
0.00047 0.00048 -0.002405
0.000445 0.00048 -0.002404
0.00042 0.000478 -0.002407
0.00108 0.000683 -0.002762
0.001064 0.000617 -0.002793
0.00095 0.000584 -0.00284
0.000275 0.000659 -0.002618
-1.9e-05 -2.9e-05 -0.002091
0.000201 0.000635 -0.002814
0.000166 0.000246 -0.002901
0.000141 0.000225 -0.002947
0.000116 0.000209 -0.00298
9.1e-05 0.000205 -0.002989
6.7e-05 0.000204 -0.002991
4.2e-05 0.000204 -0.002992
1.7e-05 0.000203 -0.002992
-7e-06 0.000203 -0.002992
-3.2e-05 0.000203 -0.002992
-5.7e-05 0.000204 -0.00299
-8.1e-05 0.000207 -0.002982
-0.000105 0.000219 -0.002957
-0.00013 0.000236 -0.002921
-0.000154 0.000253 -0.002883
-0.000417 0.000473 -0.002408
-0.000442 0.000473 -0.002409
-0.000467 0.00047 -0.002413
-0.000491 0.000466 -0.002423
-0.000516 0.000458 -0.002439
-0.000541 0.000444 -0.002469
-0.000567 0.000421 -0.002517
-0.000592 0.0004 -0.002562
-0.000617 0.000383 -0.002597
-0.000642 0.000369 -0.002628
-0.000668 0.000354 -0.002659
0.000615 0.000389 -0.002543
0.000591 0.000403 -0.002513
0.000567 0.000419 -0.002477
0.000543 0.000435 -0.002442
0.000519 0.000445 -0.002422
0.000494 0.00045 -0.00241
0.00047 0.000452 -0.002405
0.000445 0.000453 -0.002404
0.00042 0.000451 -0.002407
0.000872 0.00065 -0.002836
0.000872 0.000622 -0.002838
0.000808 0.000625 -0.002788
0.000275 0.000686 -0.002619
0.001829 0.000369 -0.002376
0.000172 0.000608 -0.002883
0.000185 0.000621 -0.002849
0.000165 0.000219 -0.002902
0.000141 0.000197 -0.002949
0.000116 0.000183 -0.00298
9.1e-05 0.000179 -0.002988
6.7e-05 0.000177 -0.00299
4.2e-05 0.000177 -0.002991
1.7e-05 0.000176 -0.002992
-7e-06 0.000176 -0.002991
-3.2e-05 0.000177 -0.002991
-5.7e-05 0.000177 -0.002989
-8.1e-05 0.000181 -0.002982
-0.000105 0.000192 -0.002957
-0.00013 0.000209 -0.00292
-0.000154 0.000226 -0.002883
-0.000178 0.000247 -0.002838
-0.000417 0.000446 -0.002408
-0.000442 0.000446 -0.002409
-0.000467 0.000443 -0.002413
-0.000491 0.000439 -0.002422
-0.000516 0.000431 -0.002439
-0.000542 0.000417 -0.002468
-0.000567 0.000395 -0.002515
-0.000592 0.000373 -0.002562
-0.000617 0.000356 -0.002598
-0.000643 0.000341 -0.00263
-0.000668 0.000327 -0.002659
0.000612 0.000362 -0.002546
0.000589 0.000376 -0.002514
0.000567 0.000392 -0.002476
0.000543 0.000408 -0.002442
0.000518 0.000417 -0.002422
0.000494 0.000423 -0.00241
0.00047 0.000425 -0.002405
0.000445 0.000425 -0.002404
0.00104 0.000673 -0.002796
0.00084 0.000637 -0.002814
0.00084 0.000609 -0.002814
0.000659 0.000719 -0.00262
0.000262 0.000668 -0.002662
0.000926 0.000557 -0.002847
0.00095 0.000557 -0.00284
0.000774 0.000533 -0.002759
0.000164 0.000192 -0.002901
0.000141 0.00017 -0.002949
0.000116 0.000156 -0.002978
9.1e-05 0.000152 -0.002986
6.7e-05 0.000151 -0.002989
4.2e-05 0.00015 -0.00299
1.7e-05 0.00015 -0.002991
-7e-06 0.000149 -0.002991
-3.2e-05 0.00015 -0.00299
-5.7e-05 0.000151 -0.002987
-8.1e-05 0.000154 -0.00298
-0.000105 0.000165 -0.002956
-0.00013 0.000181 -0.002921
-0.000154 0.000199 -0.002883
-0.000178 0.000218 -0.00284
-0.000417 0.000419 -0.002408
-0.000442 0.000418 -0.002409
-0.000467 0.000416 -0.002413
-0.000491 0.000412 -0.002422
-0.000516 0.000404 -0.002439
-0.000542 0.000389 -0.002469
-0.000567 0.000368 -0.002515
-0.000592 0.000346 -0.002561
-0.000617 0.000329 -0.002597
-0.000643 0.000314 -0.002629
-0.000663 0.0003 -0.002664
0.000591 0.000349 -0.002512
0.000567 0.000365 -0.002477
0.000543 0.000381 -0.002443
0.000518 0.00039 -0.002423
0.000494 0.000396 -0.002411
0.00047 0.000398 -0.002405
0.000445 0.000398 -0.002405
0.001063 0.000646 -0.00279
0.000996 0.000613 -0.002823
0.000901 0.000586 -0.002849
0.000808 0.000543 -0.002788
6e-06 -3e-05 -0.002092
0.000973 0.000557 -0.002832
0.000738 0.000555 -0.002721
0.00084 0.000501 -0.002812
0.000141 0.000144 -0.002947
0.000116 0.000131 -0.002975
9.1e-05 0.000127 -0.002983
6.7e-05 0.000125 -0.002986
4.2e-05 0.000124 -0.002988
1.7e-05 0.000123 -0.002989
-7e-06 0.000123 -0.002988
-3.2e-05 0.000124 -0.002986
-5.7e-05 0.000126 -0.002983
-8.1e-05 0.000129 -0.002976
-0.000105 0.000138 -0.002955
-0.00013 0.000154 -0.002921
-0.000154 0.000172 -0.002882
-0.000178 0.000191 -0.002841
-0.000418 0.000392 -0.002408
-0.000442 0.000391 -0.002409
-0.000467 0.000389 -0.002413
-0.000491 0.000384 -0.002422
-0.000516 0.000377 -0.002438
-0.000542 0.000362 -0.002469
-0.000567 0.00034 -0.002516
-0.000592 0.000319 -0.002561
-0.000617 0.000302 -0.002598
-0.000643 0.000287 -0.002628
0.000615 0.000307 -0.002543
0.000591 0.000322 -0.002512
0.000567 0.000338 -0.002476
0.000543 0.000354 -0.002443
0.000518 0.000363 -0.002423
0.000494 0.000368 -0.002411
0.000469 0.000371 -0.002405
0.000445 0.000371 -0.002405
0.001212 0.000647 -0.002127
0.000808 0.000652 -0.002788
0.000207 0.000717 -0.002816
0.000738 0.000664 -0.00272
0.000185 0.000594 -0.002849
3e-05 -3e-05 -0.002092
0.001848 0.000398 -0.002361
0.001268 0.000634 -0.002124
0.000472 0.000729 -0.002407
0.000141 0.000117 -0.002947
0.000116 0.000106 -0.00297
9.1e-05 0.000102 -0.002977
6.7e-05 0.0001 -0.00298
4.2e-05 9.9e-05 -0.002983
1.7e-05 9.9e-05 -0.002984
-7e-06 9.9e-05 -0.002983
-3.2e-05 0.0001 -0.002981
-5.7e-05 0.000101 -0.002978
-8.1e-05 0.000104 -0.002972
-0.000105 0.000112 -0.002954
-0.00013 0.000127 -0.00292
-0.000154 0.000145 -0.002882
-0.000178 0.000165 -0.002839
5.5e-05 -2.9e-05 -0.002092
-0.000418 0.000365 -0.002408
-0.000442 0.000364 -0.002408
-0.000467 0.000362 -0.002413
-0.000492 0.000357 -0.002422
-0.000517 0.000349 -0.002439
-0.000542 0.000335 -0.002469
-0.000567 0.000313 -0.002516
-0.000592 0.000292 -0.002561
-0.000617 0.000274 -0.002599
-0.000641 0.00026 -0.002629
0.000612 0.00028 -0.002545
0.000591 0.000294 -0.002512
0.000567 0.000312 -0.002475
0.000543 0.000326 -0.002443
0.000518 0.000336 -0.002422
0.000494 0.000341 -0.002411
0.000469 0.000344 -0.002406
0.000445 0.000344 -0.002405
0.001649 0.000662 -0.002365
0.001083 0.000624 -0.002773
0.002266 0.000582 -0.001694
0.000699 0.00069 -0.002673
0.001147 0.000726 -0.002166
0.001759 0.000485 -0.002403
0.000901 0.000477 -0.00285
0.000141 9.1e-05 -0.002944
0.000116 8.2e-05 -0.002963
9.1e-05 7.9e-05 -0.002969
6.7e-05 7.7e-05 -0.002972
4.2e-05 7.6e-05 -0.002974
1.7e-05 7.5e-05 -0.002975
-7e-06 7.5e-05 -0.002975
-3.2e-05 7.6e-05 -0.002973
-5.6e-05 7.8e-05 -0.00297
-8.1e-05 8e-05 -0.002964
-0.000105 8.6e-05 -0.002951
-0.00013 0.0001 -0.00292
-0.000154 0.000118 -0.002882
-0.000178 0.000138 -0.002839
-0.000418 0.000337 -0.002408
-0.000442 0.000337 -0.002409
-0.000467 0.000335 -0.002413
-0.000492 0.00033 -0.002422
-0.000517 0.000322 -0.002438
-0.000542 0.000307 -0.00247
-0.000567 0.000286 -0.002515
-0.000592 0.000265 -0.002561
-0.000617 0.000247 -0.002598
-0.000643 0.000233 -0.002629
0.000615 0.000253 -0.002544
0.000591 0.000267 -0.002512
0.000567 0.000284 -0.002475
0.000543 0.0003 -0.002442
0.000518 0.000309 -0.002423
0.000494 0.000314 -0.002411
0.000469 0.000316 -0.002406
0.000445 0.000316 -0.002405
0.001019 0.000641 -0.002814
0.001096 0.000674 -0.002267
0.000872 0.000595 -0.002837
0.000808 0.00057 -0.002788
0.001093 0.000493 -0.002728
8e-05 -2.9e-05 -0.002092
0.000217 0.000621 -0.002779
0.000232 0.000637 -0.002741
0.000141 6.6e-05 -0.002938
0.000116 6e-05 -0.002952
9.2e-05 5.7e-05 -0.002957
6.7e-05 5.5e-05 -0.002961
4.2e-05 5.4e-05 -0.002963
1.8e-05 5.3e-05 -0.002964
-7e-06 5.4e-05 -0.002963
-3.2e-05 5.4e-05 -0.002962
-5.6e-05 5.6e-05 -0.002958
-8.1e-05 5.8e-05 -0.002954
-0.000105 6.2e-05 -0.002944
-0.00013 7.4e-05 -0.002919
-0.000154 9e-05 -0.002882
-0.000178 0.00011 -0.002839
-0.000393 0.000309 -0.002411
-0.000418 0.00031 -0.002408
-0.000442 0.00031 -0.002408
-0.000467 0.000307 -0.002413
-0.000492 0.000303 -0.002422
-0.000517 0.000295 -0.002439
-0.000542 0.00028 -0.002471
-0.000567 0.000258 -0.002518
-0.000592 0.000237 -0.002562
-0.000618 0.00022 -0.002598
-0.000643 0.000205 -0.00263
0.000615 0.000225 -0.002544
0.000591 0.00024 -0.002512
0.000567 0.000257 -0.002475
0.000543 0.000273 -0.002442
0.000518 0.000282 -0.002422
0.000494 0.000287 -0.002411
0.000469 0.000289 -0.002406
0.000445 0.000289 -0.002404
0.000948 0.000669 -0.002832
0.001019 0.000614 -0.002815
0.000926 0.000584 -0.002846
0.000618 0.000723 -0.002563
0.000104 -2.9e-05 -0.002092
0.000247 0.000625 -0.002703
0.000164 5.8e-05 -0.002897
0.000141 4.4e-05 -0.002927
0.000116 3.9e-05 -0.002938
9.2e-05 3.6e-05 -0.002943
6.7e-05 3.5e-05 -0.002946
4.2e-05 3.4e-05 -0.002948
1.8e-05 3.3e-05 -0.002949
-7e-06 3.4e-05 -0.002948
-3.2e-05 3.4e-05 -0.002947
-5.6e-05 3.5e-05 -0.002944
-8.1e-05 3.7e-05 -0.00294
-0.000105 4.1e-05 -0.002932
-0.00013 4.8e-05 -0.002915
-0.000154 6.3e-05 -0.002882
-0.000178 8.4e-05 -0.002837
-0.000393 0.000282 -0.002411
-0.000418 0.000283 -0.002408
-0.000442 0.000282 -0.002408
-0.000467 0.00028 -0.002413
-0.000492 0.000276 -0.002422
-0.000517 0.000268 -0.002439
-0.000542 0.000252 -0.002471
-0.000567 0.000231 -0.002518
-0.000592 0.00021 -0.002562
-0.000618 0.000193 -0.002598
-0.000643 0.000178 -0.002629
-0.000663 0.000164 -0.002664
0.000615 0.000199 -0.002542
0.000591 0.000213 -0.002512
0.000567 0.00023 -0.002474
0.000543 0.000246 -0.002441
0.000518 0.000255 -0.002422
0.000494 0.00026 -0.00241
0.000469 0.000262 -0.002406
0.000445 0.000262 -0.002404
0.00042 0.00026 -0.002407
0.001116 0.000728 -0.002393
0.000925 0.000612 -0.002845
0.000774 0.000641 -0.00276
0.00033 0.000729 -0.002447
0.000996 0.000477 -0.002823
0.000311 0.000748 -0.00247
0.00084 0.000528 -0.002813
0.000173 0.000636 -0.002884
0.000165 3.4e-05 -0.002891
0.000141 2.5e-05 -0.00291
0.000117 2.1e-05 -0.002919
9.2e-05 1.8e-05 -0.002924
6.7e-05 1.7e-05 -0.002926
4.3e-05 1.6e-05 -0.002928
1.8e-05 1.6e-05 -0.002928
-7e-06 1.6e-05 -0.002928
-3.1e-05 1.6e-05 -0.002927
-5.6e-05 1.7e-05 -0.002924
-8e-05 1.9e-05 -0.00292
-0.000105 2.2e-05 -0.002914
-0.000129 2.7e-05 -0.002902
-0.000154 3.8e-05 -0.002879
-0.000178 5.9e-05 -0.002833
-0.000393 0.000255 -0.002411
-0.000418 0.000255 -0.002408
-0.000442 0.000255 -0.002408
-0.000467 0.000253 -0.002413
-0.000492 0.000248 -0.002422
-0.000517 0.00024 -0.002439
-0.000542 0.000225 -0.002471
-0.000567 0.000203 -0.002519
-0.000592 0.000183 -0.002561
-0.000618 0.000166 -0.002598
-0.000643 0.000151 -0.00263
-0.000662 0.000137 -0.002664
0.000615 0.000172 -0.002541
0.000591 0.000186 -0.002511
0.000567 0.000203 -0.002476
0.000543 0.000218 -0.002442
0.000518 0.000227 -0.002422
0.000494 0.000233 -0.00241
0.000469 0.000235 -0.002405
0.000445 0.000235 -0.002404
0.00042 0.000233 -0.002407
0.000995 0.00067 -0.002818
0.001608 0.000435 -0.002347
0.001065 0.000589 -0.002795
0.000324 0.000739 -0.002608
0.000973 0.000476 -0.002832
0.000295 0.000734 -0.002506
0.001847 0.000697 -0.001615
0.001723 0.000634 -0.002391
0.000166 1.5e-05 -0.002873
0.000142 9e-06 -0.002886
0.000117 6e-06 -0.002892
9.2e-05 4e-06 -0.002896
6.8e-05 3e-06 -0.002898
4.3e-05 3e-06 -0.002899
1.8e-05 2e-06 -0.002899
-6e-06 2e-06 -0.002898
-3.1e-05 3e-06 -0.002897
-5.5e-05 4e-06 -0.002895
-8e-05 5e-06 -0.002892
-0.000105 7e-06 -0.002888
-0.000129 1e-05 -0.002879
-0.000154 1.8e-05 -0.002863
0.000129 -2.9e-05 -0.002091
-0.000393 0.000227 -0.002411
-0.000418 0.000228 -0.002408
-0.000442 0.000228 -0.002409
-0.000467 0.000226 -0.002413
-0.000492 0.000221 -0.002422
-0.000517 0.000213 -0.002439
-0.000542 0.000199 -0.00247
-0.000567 0.000176 -0.002519
-0.000592 0.000156 -0.002561
-0.000618 0.000138 -0.002598
-0.000643 0.000124 -0.00263
0.000615 0.000145 -0.002542
0.000591 0.000159 -0.002511
0.000567 0.000176 -0.002475
0.000543 0.000191 -0.002441
0.000518 0.0002 -0.002421
0.000494 0.000206 -0.00241
0.000469 0.000208 -0.002405
0.000445 0.000208 -0.002404
0.00042 0.000206 -0.002407
0.000895 0.000705 -0.002827
0.0009 0.000643 -0.002844
0.001758 0.000621 -0.002402
0.001043 0.000533 -0.002807
0.000201 0.000581 -0.002813
0.001848 0.000507 -0.002359
0.000868 0.000711 -0.002822
0.000167 4e-06 -0.00284
0.000142 2e-06 -0.002844
0.000118 1e-06 -0.002845
9.3e-05 0.0 -0.002846
1.9e-05 1e-06 -0.002843
-5e-06 1e-06 -0.002843
-3e-05 1e-06 -0.002843
-5.5e-05 0.0 -0.002844
-7.9e-05 0.0 -0.002843
-0.000104 1e-06 -0.002842
-0.000129 1e-06 -0.00284
-0.000153 4e-06 -0.002834
-0.000177 1.3e-05 -0.002815
-0.000393 0.0002 -0.002411
-0.000418 0.000201 -0.002408
-0.000442 0.000201 -0.002409
-0.000467 0.000199 -0.002413
-0.000492 0.000194 -0.002422
-0.000517 0.000186 -0.002439
-0.000542 0.000171 -0.002471
-0.000567 0.000149 -0.002518
-0.000592 0.000129 -0.002561
-0.000618 0.000111 -0.0026
-0.000642 9.7e-05 -0.00263
0.000615 0.000119 -0.002539
0.000591 0.000132 -0.002511
0.000567 0.000149 -0.002474
0.000543 0.000164 -0.002441
0.000518 0.000173 -0.002422
0.000494 0.000178 -0.00241
0.000469 0.000181 -0.002405
0.000445 0.000181 -0.002404
0.00042 0.000179 -0.002407
0.00084 0.000691 -0.002813
0.000973 0.00064 -0.00283
0.000171 0.00069 -0.002883
0.001303 0.000622 -0.002134
0.000153 -2.8e-05 -0.00209
0.001192 0.000757 -0.002144
0.000996 0.00064 -0.002822
0.000168 -2e-06 -0.002792
0.000143 -1e-06 -0.002791
0.000119 -1e-06 -0.002791
9.4e-05 -1e-06 -0.00279
0.000178 -2.7e-05 -0.002089
0.000203 -2.7e-05 -0.002089
2e-05 -2e-06 -0.002791
-5e-06 -2e-06 -0.002791
-2.9e-05 -2e-06 -0.00279
-5.4e-05 -2e-06 -0.002789
-7.9e-05 -2e-06 -0.002789
-0.000103 -2e-06 -0.002789
-0.000128 -2e-06 -0.00279
-0.000152 -2e-06 -0.002789
-0.000177 0.0 -0.002784
0.000227 -2.7e-05 -0.002088
-0.000393 0.000173 -0.00241
-0.000418 0.000174 -0.002408
-0.000442 0.000174 -0.002409
-0.000467 0.000171 -0.002413
-0.000492 0.000167 -0.002422
-0.000517 0.000159 -0.002439
-0.000542 0.000144 -0.002471
-0.000567 0.000121 -0.002519
-0.000592 0.000101 -0.002563
-0.000618 8.4e-05 -0.002598
-0.000641 6.9e-05 -0.002632
0.000615 9.1e-05 -0.002541
0.000591 0.000105 -0.002511
0.000567 0.000122 -0.002474
0.000543 0.000137 -0.00244
0.000518 0.000146 -0.002421
0.000494 0.000151 -0.00241
0.000469 0.000153 -0.002405
0.000445 0.000154 -0.002404
0.00042 0.000152 -0.002407
0.001042 0.000643 -0.002803
0.000973 0.000612 -0.002831
0.000247 0.000652 -0.002702
0.000901 0.000531 -0.00285
0.000276 0.000739 -0.002621
0.001019 0.000559 -0.002815
0.000168 -7e-06 -0.002746
0.000144 -7e-06 -0.002745
0.000119 -8e-06 -0.002747
2.1e-05 -7e-06 -0.002744
-4e-06 -7e-06 -0.002743
-2.9e-05 -6e-06 -0.002741
-5.3e-05 -6e-06 -0.002741
-0.000102 -5e-06 -0.002738
-0.000127 -6e-06 -0.002739
-0.000152 -6e-06 -0.00274
-0.000418 0.000147 -0.002408
-0.000442 0.000147 -0.002408
-0.000467 0.000144 -0.002413
-0.000492 0.00014 -0.002423
-0.000517 0.000131 -0.002439
-0.000542 0.000116 -0.002472
-0.000567 9.5e-05 -0.002518
-0.000592 7.4e-05 -0.002562
-0.000618 5.7e-05 -0.002599
-0.000643 4.1e-05 -0.002631
0.000612 6.4e-05 -0.002543
0.000591 7.8e-05 -0.002511
0.000567 9.5e-05 -0.002474
0.000543 0.000111 -0.00244
0.000518 0.000119 -0.002422
0.000494 0.000124 -0.002411
0.000469 0.000126 -0.002405
0.000445 0.000127 -0.002404
0.00042 0.000125 -0.002407
0.001082 0.000652 -0.00277
0.000949 0.000612 -0.002839
0.00033 0.000756 -0.002446
0.001113 0.000641 -0.002202
0.000926 0.000529 -0.002847
0.000872 0.00054 -0.002837
0.001043 0.00056 -0.002806
0.001065 0.000562 -0.002796
7.1e-05 -4e-06 -0.002679
4.6e-05 -3e-06 -0.002677
-3e-06 -4e-06 -0.002678
-2.8e-05 -4e-06 -0.002677
-5.2e-05 -4e-06 -0.002677
-0.000418 0.00012 -0.002408
-0.000442 0.00012 -0.002408
-0.000467 0.000117 -0.002413
-0.000492 0.000112 -0.002423
-0.000517 0.000104 -0.002439
-0.000542 9e-05 -0.00247
-0.000567 6.7e-05 -0.00252
-0.000593 4.7e-05 -0.002562
-0.000618 2.9e-05 -0.002601
-0.000643 1.5e-05 -0.002629
-0.000668 5e-06 -0.002651
0.000612 3.6e-05 -0.002544
0.000591 5.1e-05 -0.00251
0.000567 6.8e-05 -0.002473
0.000543 8.4e-05 -0.002437
0.000518 9.2e-05 -0.002421
0.000494 9.7e-05 -0.00241
0.000469 9.9e-05 -0.002404
0.000445 9.9e-05 -0.002404
0.000808 0.000706 -0.002788
0.000231 0.000747 -0.002738
0.000472 0.000756 -0.002407
0.000252 -2.6e-05 -0.002087
0.000659 0.000611 -0.002619
4.7e-05 0.0 -0.002611
2.3e-05 1e-06 -0.00261
-5.1e-05 -0.0 -0.002611
-7.6e-05 1e-06 -0.002608
-0.0001 1e-06 -0.002608
-0.000125 0.0 -0.00261
-0.000418 9.3e-05 -0.002407
-0.000442 9.3e-05 -0.002408
-0.000467 9e-05 -0.002413
-0.000492 8.5e-05 -0.002422
-0.000517 7.7e-05 -0.002439
-0.000542 6.4e-05 -0.002468
-0.000567 4e-05 -0.002518
-0.000593 2e-05 -0.002562
-0.000618 5e-06 -0.002594
0.000615 1.1e-05 -0.002538
0.000591 2.4e-05 -0.002509
0.000567 4.2e-05 -0.00247
0.000543 5.7e-05 -0.002437
0.000518 6.5e-05 -0.00242
0.000494 7e-05 -0.002409
0.000469 7.2e-05 -0.002404
0.000445 7.3e-05 -0.002403
0.001189 0.000649 -0.002137
0.000699 0.000718 -0.002672
0.000973 0.00053 -0.002832
0.00027 -0.0 -0.002557
0.000245 0.0 -0.002556
0.000221 -0.0 -0.002557
0.000196 -1e-06 -0.002558
0.000171 -1e-06 -0.002557
0.000147 -1e-06 -0.002558
0.001147 0.000751 -0.002169
0.000262 0.000696 -0.002662
4.8e-05 -1e-06 -0.002556
2.3e-05 -2e-06 -0.002557
-1e-06 -1e-06 -0.002556
-2.6e-05 -1e-06 -0.002555
-5e-05 -1e-06 -0.002555
-7.5e-05 -1e-06 -0.002554
-0.0001 -1e-06 -0.002553
-0.000124 -1e-06 -0.002554
-0.000418 6.6e-05 -0.002407
-0.000442 6.5e-05 -0.002408
-0.000467 6.3e-05 -0.002412
-0.000492 5.9e-05 -0.002421
-0.000517 5e-05 -0.002439
-0.000542 3.7e-05 -0.002467
-0.000567 1.4e-05 -0.002516
-0.000592 0.0 -0.002546
-0.000617 -3e-06 -0.002553
0.000616 -0.0 -0.002503
0.000591 2e-06 -0.002498
0.000567 1.5e-05 -0.002469
0.000543 3e-05 -0.002437
0.000518 3.8e-05 -0.00242
0.000493 4.3e-05 -0.002409
0.000469 4.6e-05 -0.002404
0.000445 4.6e-05 -0.002403
0.00042 4.4e-05 -0.002406
0.001042 0.000615 -0.002805
0.000311 0.000721 -0.00247
0.000201 0.000662 -0.002814
0.000295 -8e-06 -0.002516
0.00027 -9e-06 -0.002516
0.000246 -7e-06 -0.002514
0.000221 -8e-06 -0.002514
0.000197 -8e-06 -0.002515
0.000172 -9e-06 -0.002516
0.000147 -1e-05 -0.002517
0.00117 0.000755 -0.002156
0.000275 0.000713 -0.002619
0.000286 0.000736 -0.002564
0.00084 0.000582 -0.002814
2.4e-05 -1e-05 -0.002517
-1e-06 -1e-05 -0.002517
-2.5e-05 -1e-05 -0.002517
-5e-05 -1e-05 -0.002517
-7.4e-05 -1e-05 -0.002515
-9.9e-05 -1e-05 -0.002516
-0.000124 -1e-05 -0.002516
-0.000148 -1e-05 -0.002514
-0.000173 -1e-05 -0.002514
-0.000198 -1e-05 -0.002513
-0.000222 -1e-05 -0.002512
-0.000247 -9e-06 -0.002511
-0.000344 3.2e-05 -0.002422
-0.000369 3.6e-05 -0.002413
-0.000393 3.8e-05 -0.002409
-0.000418 3.9e-05 -0.002406
-0.000442 3.9e-05 -0.002407
-0.000467 3.6e-05 -0.002411
-0.000492 3.1e-05 -0.002421
-0.000517 2.3e-05 -0.002438
-0.000542 8e-06 -0.00247
-0.000567 -5e-06 -0.002498
-0.000592 -2e-06 -0.002491
-0.000616 0.0 -0.002487
-0.000641 -0.0 -0.002487
0.001043 0.000478 -0.002807
0.000592 -8e-06 -0.002461
0.000567 -7e-06 -0.002459
0.000543 1e-06 -0.002441
0.000517 1.1e-05 -0.002421
0.000493 1.6e-05 -0.00241
0.000469 1.9e-05 -0.002403
0.000445 1.9e-05 -0.002402
0.00042 1.7e-05 -0.002405
0.000949 0.00064 -0.002837
0.001809 0.000755 -0.001647
0.000217 0.000676 -0.002778
0.000872 0.000486 -0.002837
0.000271 -1.8e-05 -0.002481
0.000246 -1.9e-05 -0.002481
0.000222 -2e-05 -0.002482
0.000774 0.000561 -0.002759
0.000172 -1.8e-05 -0.00248
0.000148 -1.8e-05 -0.002478
0.000123 -1.9e-05 -0.002479
9.9e-05 -1.8e-05 -0.002477
0.000991 0.000703 -0.002806
2.5e-05 -1.9e-05 -0.002477
-0.0 -1.9e-05 -0.002478
-2.5e-05 -2e-05 -0.002479
-4.9e-05 -2e-05 -0.002478
-7.4e-05 -2e-05 -0.002478
-9.9e-05 -1.9e-05 -0.002476
-0.000123 -1.9e-05 -0.002475
-0.000148 -1.9e-05 -0.002475
-0.000172 -1.9e-05 -0.002476
-0.000197 -1.9e-05 -0.002476
-0.000222 -1.8e-05 -0.002474
-0.000246 -1.7e-05 -0.002473
-0.000344 4e-06 -0.002423
-0.000369 9e-06 -0.002413
-0.000393 1.1e-05 -0.002409
-0.000418 1.2e-05 -0.002406
-0.000467 1e-05 -0.002411
-0.000492 4e-06 -0.002423
-0.000517 -5e-06 -0.002441
-0.000542 -1.3e-05 -0.002457
-0.000566 -1.2e-05 -0.002455
-0.000591 -9e-06 -0.002449
-0.000615 -8e-06 -0.002446
-0.00064 -8e-06 -0.002444
-0.000665 -7e-06 -0.002441
0.001043 0.000451 -0.002807
0.001036 0.000707 -0.002784
0.000567 -1.8e-05 -0.002424
0.000543 -1.7e-05 -0.002421
0.000518 -1.5e-05 -0.002417
0.000494 -1.1e-05 -0.002409
0.000469 -9e-06 -0.002404
0.000445 -9e-06 -0.002404
0.00042 -1e-05 -0.002406
0.001065 0.000507 -0.002797
0.001084 0.000514 -0.002776
0.000901 0.000504 -0.00285
0.000926 0.000502 -0.002847
0.000272 -1.7e-05 -0.002418
0.000247 -1.7e-05 -0.002418
0.000738 0.000582 -0.002721
0.001099 0.00074 -0.002647
0.000149 -1.7e-05 -0.002416
0.000124 -1.7e-05 -0.002416
9.9e-05 -1.7e-05 -0.002416
7.5e-05 -1.7e-05 -0.002415
0.000618 0.000695 -0.002564
2.6e-05 -1.6e-05 -0.002412
1e-06 -1.8e-05 -0.002418
-2.4e-05 -1.6e-05 -0.002413
-4.8e-05 -1.6e-05 -0.002411
-7.3e-05 -1.7e-05 -0.002413
-9.8e-05 -1.7e-05 -0.002413
-0.000122 -1.6e-05 -0.00241
-0.000147 -1.7e-05 -0.002413
-0.000245 -1.7e-05 -0.002412
-0.00027 -1.6e-05 -0.00241
-0.000319 -1.6e-05 -0.002408
-0.000344 -1.7e-05 -0.00241
-0.000369 -1.6e-05 -0.002407
-0.000393 -1.4e-05 -0.002404
-0.000418 -1.3e-05 -0.0024
-0.000467 -1.4e-05 -0.002404
-0.000492 -1.6e-05 -0.002409
-0.000516 -1.9e-05 -0.002413
-0.000541 -2e-05 -0.002414
-0.000566 -2e-05 -0.002414
-0.00064 -1.7e-05 -0.00241
-0.000664 -1.7e-05 -0.002407
0.00102 0.000532 -0.002815
0.000774 0.000588 -0.002759
0.000217 0.000704 -0.002777
0.00047 -1.5e-05 -0.002359
0.000445 -1.6e-05 -0.00236
0.000421 -1.5e-05 -0.002358
0.000396 -1.4e-05 -0.002356
0.00095 0.000502 -0.00284
0.000262 0.000723 -0.002662
0.000273 -1.4e-05 -0.002354
0.000248 -1.3e-05 -0.002351
0.000807 0.000598 -0.002787
0.00066 0.00069 -0.002623
0.000125 -1.3e-05 -0.002349
0.0001 -1.3e-05 -0.002348
7.6e-05 -1.2e-05 -0.002348
0.001413 0.000724 -0.002218
-2.3e-05 -1.3e-05 -0.002348
-4.7e-05 -1.3e-05 -0.002348
-9.7e-05 -1.3e-05 -0.002346
-0.000121 -1.3e-05 -0.002347
-0.000146 -1.4e-05 -0.002348
-0.000171 -1.3e-05 -0.002346
-0.000318 -1.4e-05 -0.002345
-0.000343 -1.4e-05 -0.002346
-0.000368 -1.6e-05 -0.002349
-0.000417 -1.5e-05 -0.002347
-0.000442 -1.5e-05 -0.002347
-0.000491 -1.6e-05 -0.002348
-0.000516 -1.7e-05 -0.002351
-0.00054 -1.7e-05 -0.002349
-0.000565 -1.6e-05 -0.002347
-0.000589 -1.7e-05 -0.002348
0.001649 0.000689 -0.002366
0.000944 0.000703 -0.002819
0.000968 0.000702 -0.002813
0.000247 0.000734 -0.002702
0.000203 0.000689 -0.002814
0.000232 0.000718 -0.00274
0.000699 0.000582 -0.002672
0.000422 -1e-05 -0.002289
0.000397 -1e-05 -0.002289
0.000372 -1e-05 -0.002289
0.000172 0.000554 -0.002883
0.001917 0.000651 -0.002209
0.000101 -8e-06 -0.002281
7.7e-05 -8e-06 -0.00228
0.001828 0.000479 -0.002375
-7.1e-05 -8e-06 -0.002278
-9.6e-05 -9e-06 -0.00228
-0.000145 -9e-06 -0.002279
-0.00017 -8e-06 -0.002276
-0.000194 -9e-06 -0.002279
0.000201 0.000608 -0.002813
0.001043 0.000505 -0.002807
-0.000317 -9e-06 -0.002277
-0.000342 -1.1e-05 -0.00228
-0.000416 -1.1e-05 -0.002279
-0.000441 -1.1e-05 -0.00228
-0.000465 -1.1e-05 -0.00228
0.000659 0.000664 -0.002621
-0.000539 -1.2e-05 -0.002281
-0.000564 -1.3e-05 -0.002282
-0.000588 -1.2e-05 -0.00228
0.00062 -1e-05 -0.002232
0.000595 -1e-05 -0.002232
0.000622 0.000742 -0.00258
0.000247 0.000707 -0.0027
0.000472 -7e-06 -0.002223
0.000447 -7e-06 -0.002223
0.000423 -6e-06 -0.00222
0.000398 -7e-06 -0.002224
0.000373 -7e-06 -0.002225
0.000774 0.000615 -0.00276
0.000299 -7e-06 -0.002221
0.000275 -7e-06 -0.002221
0.001083 0.000568 -0.002775
0.001083 0.000459 -0.002776
0.000172 0.000581 -0.002883
0.000295 0.000707 -0.002506
0.000285 0.000682 -0.002563
0.001168 0.00073 -0.002151
0.000102 -6e-06 -0.002217
7.8e-05 -6e-06 -0.002217
0.001058 0.000711 -0.00277
0.00102 0.000505 -0.002816
0.000901 0.000558 -0.00285
-7e-05 -7e-06 -0.002216
-9.5e-05 -7e-06 -0.002216
-0.000144 -7e-06 -0.002216
-0.000169 -6e-06 -0.002214
-0.000193 -6e-06 -0.002214
-0.000218 -6e-06 -0.002212
-0.000242 -6e-06 -0.002213
-0.000267 -6e-06 -0.002214
0.000232 0.00061 -0.00274
-0.00044 -6e-06 -0.002211
-0.000464 -6e-06 -0.002211
-0.000514 -8e-06 -0.002213
-0.000538 -9e-06 -0.002216
0.00062 -7e-06 -0.002168
0.000926 0.000475 -0.002847
0.001773 0.000708 -0.002379
0.000522 -6e-06 -0.002164
0.000497 -6e-06 -0.002163
0.001014 0.000705 -0.002795
0.000448 -6e-06 -0.002163
0.000423 -6e-06 -0.002163
0.000399 -6e-06 -0.002162
0.000374 -8e-06 -0.002165
0.000872 0.000568 -0.002837
0.000325 -8e-06 -0.002165
0.0003 -8e-06 -0.002166
0.000276 -8e-06 -0.002166
0.000251 -8e-06 -0.002166
0.000226 -8e-06 -0.002165
0.000202 -9e-06 -0.002166
0.000177 -1e-05 -0.002167
0.000152 -1e-05 -0.002166
0.000128 -1e-05 -0.002167
0.000103 -1e-05 -0.002167
7.8e-05 -1e-05 -0.002168
5.4e-05 -1e-05 -0.002167
2.9e-05 -1e-05 -0.002167
5e-06 -1e-05 -0.002167
-2e-05 -1.1e-05 -0.002167
-4.5e-05 -1e-05 -0.002166
-6.9e-05 -1e-05 -0.002166
-9.4e-05 -1e-05 -0.002166
-0.000119 -1e-05 -0.002164
-0.000143 -9e-06 -0.002163
-0.000168 -9e-06 -0.002163
-0.000192 -9e-06 -0.002162
-0.000217 -9e-06 -0.002161
-0.000242 -9e-06 -0.002161
-0.000266 -8e-06 -0.002159
-0.000316 -8e-06 -0.002158
-0.00034 -8e-06 -0.002157
-0.000365 -7e-06 -0.002156
-0.000439 -6e-06 -0.002153
-0.000463 -6e-06 -0.002152
-0.000488 -6e-06 -0.002152
-0.000513 -6e-06 -0.002151
-0.000537 -5e-06 -0.002148
0.00177 0.000738 -0.001744
0.001086 0.000426 -0.002764
0.000232 0.000691 -0.002741
0.001515 0.000698 -0.002289
0.00084 0.000664 -0.002814
0.000498 -9e-06 -0.002113
0.00092 0.000702 -0.002826
0.000449 -1.1e-05 -0.002117
0.000424 -1.2e-05 -0.002118
0.000399 -1.2e-05 -0.002118
0.000375 -1.3e-05 -0.002119
0.00035 -1.4e-05 -0.00212
0.000326 -1.5e-05 -0.002122
0.000301 -1.5e-05 -0.002122
0.000276 -1.5e-05 -0.002123
0.000252 -1.6e-05 -0.002124
0.000227 -1.6e-05 -0.002124
0.000202 -1.7e-05 -0.002125
0.000178 -1.7e-05 -0.002125
0.000153 -1.7e-05 -0.002125
0.000128 -1.8e-05 -0.002126
0.000104 -1.8e-05 -0.002127
7.9e-05 -1.8e-05 -0.002126
5.4e-05 -1.8e-05 -0.002127
3e-05 -1.8e-05 -0.002126
5e-06 -1.8e-05 -0.002126
-1.9e-05 -1.8e-05 -0.002126
-4.4e-05 -1.8e-05 -0.002125
-6.9e-05 -1.8e-05 -0.002125
-9.3e-05 -1.8e-05 -0.002125
-0.000118 -1.9e-05 -0.002125
-0.000143 -1.8e-05 -0.002124
-0.000167 -1.8e-05 -0.002123
-0.000192 -1.7e-05 -0.002121
-0.000217 -1.7e-05 -0.002121
-0.000241 -1.7e-05 -0.00212
-0.000266 -1.7e-05 -0.002118
-0.00034 -1.5e-05 -0.002114
-0.000364 -1.4e-05 -0.002112
-0.000413 -1.3e-05 -0.002109
-0.000438 -1.2e-05 -0.002107
-0.000463 -1.2e-05 -0.002106
-0.000487 -1.1e-05 -0.002104
-0.000512 -1e-05 -0.002102
0.000217 0.000594 -0.002779
0.001019 0.00045 -0.002815
0.000996 0.00045 -0.002823
0.000973 0.000449 -0.002832
0.000949 0.000448 -0.002839
0.000926 0.000448 -0.002847
0.000901 0.000449 -0.00285
0.000872 0.000458 -0.002838
0.00084 0.000474 -0.002812
0.000807 0.00049 -0.002787
0.000774 0.000506 -0.002759
0.000738 0.000528 -0.00272
0.000699 0.000554 -0.002673
0.000658 0.000584 -0.002618
0.0005 0.000695 -0.002414
0.000472 0.000702 -0.002406
0.000352 0.000706 -0.002431
0.00033 0.000702 -0.002447
0.000311 0.000694 -0.00247
0.000295 0.00068 -0.002505
0.000275 0.000632 -0.002618
0.000261 0.000614 -0.002661
0.000247 0.000598 -0.002702
0.000232 0.000582 -0.00274
0.000217 0.000567 -0.002778
0.000201 0.000554 -0.002813
0.000185 0.00054 -0.002849
0.000172 0.000527 -0.002883
0.001238 0.000642 -0.002122
0.001686 0.00062 -0.002379
0.001686 0.000648 -0.002379
0.00119 0.000706 -0.002136
0.001168 0.000703 -0.00215
0.001146 0.000699 -0.002165
0.001514 0.000672 -0.002287
0.001114 0.000566 -0.002391
0.001115 0.000593 -0.002392
0.001095 0.000648 -0.002266
0.001741 0.000804 -0.001652
0.00187 0.000732 -0.002
0.001083 0.000432 -0.002776
0.001065 0.000425 -0.002797
0.001043 0.000424 -0.002807
0.001019 0.000423 -0.002815
0.000996 0.000422 -0.002824
0.000973 0.000422 -0.002832
0.000949 0.000421 -0.00284
0.000926 0.00042 -0.002847
0.000901 0.000422 -0.00285
0.000872 0.000432 -0.002837
0.00084 0.000447 -0.002813
0.000807 0.000462 -0.002788
0.000774 0.000479 -0.002759
0.000737 0.000501 -0.00272
0.000698 0.000528 -0.002671
0.000658 0.000557 -0.002617
0.000617 0.000587 -0.002562
0.000472 0.000675 -0.002406
0.000352 0.000679 -0.002431
0.00033 0.000675 -0.002447
0.000311 0.000667 -0.00247
0.000296 0.000652 -0.002507
0.000275 0.000604 -0.002619
0.000261 0.000587 -0.002662
0.000247 0.00057 -0.002703
0.000232 0.000555 -0.002741
0.000217 0.00054 -0.002779
0.000201 0.000527 -0.002813
0.000185 0.000512 -0.002849
0.000172 0.0005 -0.002883
0.001101 0.000634 -0.002228
0.001113 0.000675 -0.00253
0.001917 0.00057 -0.002208
0.00119 0.000679 -0.002136
0.001168 0.000676 -0.002149
0.002494 0.000511 -0.001667
0.001609 0.000625 -0.002348
0.001114 0.00062 -0.002531
0.001101 0.000661 -0.002228
0.001787 0.000369 -0.002402
0.001648 0.000608 -0.002365
0.001083 0.000405 -0.002776
0.001065 0.000398 -0.002797
0.001043 0.000396 -0.002808
0.00102 0.000396 -0.002816
0.000996 0.000395 -0.002825
0.000973 0.000394 -0.002833
0.00095 0.000393 -0.002841
0.000926 0.000393 -0.002848
0.000901 0.000395 -0.002851
0.000872 0.000404 -0.002837
0.00084 0.000419 -0.002813
0.000807 0.000435 -0.002787
0.000774 0.000452 -0.002759
0.000737 0.000474 -0.00272
0.000698 0.000501 -0.00267
0.000617 0.000561 -0.002561
0.000374 0.000655 -0.00242
0.000352 0.000652 -0.002431
0.00033 0.000648 -0.002447
0.000311 0.00064 -0.00247
0.000296 0.000624 -0.002508
0.000286 0.0006 -0.002565
0.000275 0.000577 -0.002619
0.000261 0.00056 -0.002661
0.000247 0.000543 -0.002702
0.000232 0.000527 -0.002742
0.000217 0.000513 -0.002779
0.000201 0.000499 -0.002813
0.000186 0.000485 -0.002849
0.000172 0.000472 -0.002883
0.001113 0.000669 -0.002202
0.001117 0.000746 -0.002348
0.001089 0.000713 -0.002724
0.001824 0.000673 -0.002367
0.00178 0.000675 -0.00239
0.001687 0.000675 -0.002379
0.001808 0.000532 -0.002389
0.001868 0.000706 -0.001999
0.001848 0.000453 -0.002359
0.001609 0.000543 -0.002348
0.001104 0.000656 -0.002652
0.001083 0.000378 -0.002776
0.001065 0.000371 -0.002797
0.001043 0.00037 -0.002807
0.001019 0.000369 -0.002816
0.000996 0.000368 -0.002824
0.000973 0.000367 -0.002832
0.000949 0.000367 -0.00284
0.000926 0.000366 -0.002847
0.000901 0.000368 -0.00285
0.000872 0.000377 -0.002837
0.00084 0.000392 -0.002813
0.000807 0.000408 -0.002787
0.000774 0.000425 -0.002759
0.000738 0.000446 -0.002721
0.000397 0.000628 -0.002412
0.000374 0.000627 -0.00242
0.000351 0.000625 -0.002431
0.00033 0.00062 -0.002447
0.000311 0.000612 -0.00247
0.000296 0.000597 -0.002508
0.000286 0.000573 -0.002565
0.000275 0.000549 -0.00262
0.000262 0.000532 -0.002662
0.000247 0.000516 -0.002703
0.000232 0.000501 -0.002741
0.000217 0.000486 -0.002778
0.000201 0.000472 -0.002814
0.000186 0.000459 -0.002848
0.000172 0.000445 -0.002883
0.001097 0.000619 -0.002269
0.001848 0.000561 -0.002359
0.001803 0.000673 -0.00238
0.001844 0.000673 -0.002353
0.001103 0.000683 -0.002652
0.001114 0.000647 -0.002531
0.00187 0.000693 -0.001603
0.001808 0.000478 -0.00239
0.001723 0.000525 -0.002391
0.001562 0.000702 -0.002319
0.001082 0.00035 -0.002776
0.001065 0.000344 -0.002797
0.001043 0.000342 -0.002807
0.00102 0.000341 -0.002816
0.000996 0.000341 -0.002824
0.000973 0.00034 -0.002832
0.00095 0.000339 -0.002841
0.000926 0.000339 -0.002847
0.000901 0.000341 -0.00285
0.000872 0.00035 -0.002837
0.00084 0.000365 -0.002813
0.000807 0.000381 -0.002787
0.000773 0.000398 -0.002758
0.000738 0.000418 -0.002724
0.000397 0.000601 -0.002412
0.000374 0.0006 -0.002419
0.000351 0.000598 -0.002431
0.00033 0.000593 -0.002447
0.000311 0.000585 -0.00247
0.000296 0.00057 -0.002508
0.000285 0.000546 -0.002564
0.000275 0.000523 -0.002619
0.000261 0.000505 -0.002662
0.000247 0.000488 -0.002704
0.000232 0.000473 -0.002741
0.000217 0.000459 -0.002777
0.000201 0.000444 -0.002814
0.000185 0.000431 -0.002848
0.00017 0.000418 -0.002883
0.002349 0.000631 -0.001703
0.001723 0.000607 -0.002391
0.001213 0.000599 -0.002127
0.00119 0.000598 -0.002137
0.001116 0.000746 -0.002486
0.001411 0.000698 -0.002216
0.001101 0.000688 -0.002228
0.001147 0.000649 -0.002163
0.001848 0.000534 -0.002359
0.001901 0.000685 -0.002294
0.001609 0.000707 -0.002347
0.001065 0.000317 -0.002796
0.001043 0.000315 -0.002807
0.001019 0.000314 -0.002816
0.000996 0.000313 -0.002824
0.000973 0.000313 -0.002832
0.000949 0.000312 -0.00284
0.000926 0.000312 -0.002847
0.000901 0.000314 -0.00285
0.000872 0.000324 -0.002836
0.00084 0.000338 -0.002813
0.000807 0.000354 -0.002787
0.000773 0.000371 -0.002758
0.000738 0.000392 -0.002722
0.000698 0.000419 -0.002671
0.000658 0.000449 -0.002617
0.000397 0.000573 -0.002412
0.000374 0.000573 -0.00242
0.000351 0.000571 -0.002431
0.00033 0.000566 -0.002447
0.000311 0.000558 -0.002471
0.000295 0.000543 -0.002507
0.000286 0.000519 -0.002564
0.000275 0.000495 -0.002619
0.000262 0.000478 -0.002662
0.000247 0.000461 -0.002703
0.000232 0.000446 -0.002741
0.000217 0.000431 -0.002778
0.000201 0.000418 -0.002813
0.000185 0.000404 -0.002848
0.000169 0.000391 -0.002881
0.001114 0.000511 -0.002531
0.001758 0.000594 -0.002403
0.001213 0.000572 -0.002127
