-0.000315 0.000699 -0.002408
-0.000338 0.0007 -0.002399
-0.000363 0.000698 -0.002395
-0.000388 0.000696 -0.002392
-3.1e-05 0.000644 -0.002978
-8e-05 0.000638 -0.002933
-0.000665 0.000667 -0.002691
-0.000667 0.000524 -0.002688
-0.0007 0.000501 -0.002735
-0.000737 0.000479 -0.002773
-0.000774 0.000458 -0.002809
-0.000811 0.000438 -0.002843
-0.000842 0.000425 -0.002862
-0.000868 0.000422 -0.002861
-0.000891 0.000422 -0.002854
-0.000915 0.000422 -0.002846
-0.000938 0.000422 -0.002839
-0.000962 0.000422 -0.002831
-0.000985 0.000423 -0.002823
-0.001006 0.000426 -0.002809
-0.001023 0.000438 -0.002778
-0.001034 0.000455 -0.002735
-0.001071 0.000693 -0.002188
-0.001092 0.0007 -0.002167
-0.001207 0.000704 -0.002125
-0.001234 0.000699 -0.002127
-0.001263 0.00069 -0.002138
-0.001297 0.000674 -0.002163
-0.001334 0.000652 -0.002201
-0.000163 0.000541 -0.002748
-0.000178 0.000554 -0.002715
-0.000191 0.00057 -0.002674
-0.000205 0.000586 -0.002634
-0.000218 0.000603 -0.002593
-0.00023 0.000621 -0.002549
-0.000242 0.000639 -0.002505
-0.000255 0.000655 -0.002464
-0.000273 0.000664 -0.002438
-0.000293 0.00067 -0.002419
-0.000315 0.000672 -0.002407
-0.000338 0.000673 -0.002399
-0.000363 0.000671 -0.002394
6.7e-05 0.000671 -0.00298
0.000257 0.00058 -0.002738
0.001763 0.000662 -0.002365
0.000166 0.000526 -0.002944
-0.000618 0.000695 -0.002628
-0.000667 0.000498 -0.002688
-0.0007 0.000474 -0.002734
-0.000738 0.000452 -0.002773
-0.000775 0.00043 -0.00281
-0.000811 0.00041 -0.002843
-0.000842 0.000398 -0.002862
-0.000868 0.000395 -0.002861
-0.000891 0.000395 -0.002854
-0.000915 0.000395 -0.002846
-0.000938 0.000395 -0.002839
-0.000962 0.000395 -0.002831
-0.000985 0.000396 -0.002823
-0.001007 0.000399 -0.002809
-0.001023 0.00041 -0.002779
-0.001035 0.000428 -0.002736
-0.001092 0.000673 -0.002167
-0.001182 0.00068 -0.002127
-0.001207 0.000677 -0.002125
-0.001234 0.000672 -0.002127
-0.001263 0.000663 -0.002138
-0.001297 0.000647 -0.002163
-0.001334 0.000625 -0.002201
-0.000163 0.000513 -0.002749
-0.000178 0.000527 -0.002714
-0.000191 0.000543 -0.002674
-0.000205 0.000559 -0.002634
-0.000218 0.000576 -0.002592
-0.000229 0.000595 -0.002547
-0.000242 0.000612 -0.002504
-0.000255 0.000628 -0.002463
-0.000273 0.000637 -0.002437
-0.000293 0.000643 -0.002419
-0.000315 0.000645 -0.002407
-0.000338 0.000646 -0.002399
-0.000363 0.000644 -0.002394
0.000226 0.000551 -0.002811
0.000141 0.000564 -0.002978
1.8e-05 0.000558 -0.002989
-0.000294 0.000772 -0.00241
-0.000643 0.00068 -0.00266
-0.000592 0.00071 -0.002596
0.000371 0.000746 -0.002415
-0.000738 0.000423 -0.002776
-0.000775 0.000403 -0.002809
-0.000811 0.000383 -0.002844
-0.000842 0.000371 -0.002862
-0.000868 0.000368 -0.00286
-0.000891 0.000368 -0.002854
-0.000915 0.000368 -0.002846
-0.000938 0.000368 -0.002839
-0.000962 0.000368 -0.002831
-0.000985 0.000369 -0.002822
-0.001006 0.000372 -0.002809
-0.001023 0.000383 -0.002779
-0.001035 0.000401 -0.002735
-0.001158 0.000653 -0.002131
-0.001182 0.000653 -0.002126
-0.001207 0.00065 -0.002124
-0.001234 0.000645 -0.002127
-0.001263 0.000636 -0.002138
-0.001297 0.00062 -0.002163
-0.001334 0.000598 -0.002201
-0.000163 0.000486 -0.002749
-0.000178 0.0005 -0.002714
-0.000191 0.000516 -0.002674
-0.000204 0.000532 -0.002633
-0.000217 0.000549 -0.002591
-0.000229 0.000567 -0.002547
-0.000242 0.000585 -0.002504
-0.000255 0.000602 -0.002462
-0.000273 0.00061 -0.002437
-0.000293 0.000616 -0.002419
-0.000315 0.000618 -0.002407
-0.000338 0.000619 -0.002399
-8e-05 0.000693 -0.002932
-0.000668 0.000721 -0.002688
-0.000104 0.000601 -0.002896
-0.000104 0.000573 -0.002896
6.7e-05 0.00045 -0.002988
-0.000294 0.000739 -0.002422
-0.0007 0.00042 -0.002734
-0.000738 0.000396 -0.002775
-0.000774 0.000376 -0.002809
-0.000811 0.000356 -0.002844
-0.000842 0.000343 -0.002862
-0.000868 0.000341 -0.00286
-0.000891 0.00034 -0.002854
-0.000915 0.00034 -0.002847
-0.000938 0.000341 -0.002839
-0.000962 0.000341 -0.002831
-0.000985 0.000342 -0.002823
-0.001006 0.000345 -0.002809
-0.001023 0.000356 -0.002778
-0.001035 0.000373 -0.002737
-0.00093 -2.4e-05 -0.001891
-0.001135 0.000625 -0.00214
-0.001158 0.000626 -0.002131
-0.001182 0.000625 -0.002126
-0.001207 0.000623 -0.002124
-0.001234 0.000617 -0.002127
-0.001263 0.000609 -0.002138
-0.001297 0.000592 -0.002164
-0.001334 0.000571 -0.002201
-0.000163 0.00046 -0.002748
-0.000178 0.000473 -0.002714
-0.000191 0.000489 -0.002673
-0.000204 0.000505 -0.002633
-0.000217 0.000522 -0.002591
-0.000229 0.00054 -0.002546
-0.000242 0.000558 -0.002503
-0.000255 0.000574 -0.002463
-0.000273 0.000584 -0.002436
-0.000293 0.000589 -0.002419
-0.000315 0.000591 -0.002407
-0.000338 0.000591 -0.002399
-7e-06 0.000672 -0.002977
-8e-05 0.000611 -0.002932
-0.000592 0.000736 -0.0026
-0.000271 0.000738 -0.002541
-0.00029 -2.6e-05 -0.00208
-5.6e-05 0.000714 -0.002945
-0.0007 0.000392 -0.002735
-0.000738 0.000369 -0.002775
-0.000775 0.000349 -0.00281
-0.000811 0.000328 -0.002844
-0.000842 0.000316 -0.002862
-0.000868 0.000314 -0.00286
-0.000891 0.000313 -0.002854
-0.000915 0.000313 -0.002846
-0.000938 0.000314 -0.002839
-0.000962 0.000314 -0.002831
-0.000985 0.000314 -0.002823
-0.001007 0.000317 -0.002809
-0.001023 0.000329 -0.002778
-0.001035 0.000346 -0.002736
-0.001135 0.000598 -0.00214
-0.001158 0.000599 -0.002131
-0.001182 0.000598 -0.002125
-0.001207 0.000595 -0.002124
-0.001234 0.00059 -0.002127
-0.001264 0.000581 -0.002139
-0.001297 0.000566 -0.002162
-0.001334 0.000544 -0.0022
-0.000163 0.000432 -0.002749
-0.000178 0.000446 -0.002713
-0.000192 0.000461 -0.002675
-0.000204 0.000478 -0.002633
-0.000217 0.000495 -0.002591
-0.00023 0.000513 -0.002547
-0.000242 0.00053 -0.002504
-0.000255 0.000547 -0.002463
-0.000273 0.000556 -0.002436
-0.000293 0.000562 -0.002418
-0.000315 0.000564 -0.002407
-0.000338 0.000564 -0.002398
-0.000363 0.000563 -0.002394
0.000116 0.000615 -0.002984
0.00031 0.000736 -0.002558
0.000591 0.000742 -0.002467
-0.000542 0.000744 -0.002524
-3.2e-05 0.000451 -0.002985
0.00112 0.000504 -0.002682
-0.000662 0.000389 -0.002694
-0.0007 0.000365 -0.002735
-0.000738 0.000342 -0.002775
-0.000775 0.000321 -0.002811
-0.000811 0.000301 -0.002844
-0.000842 0.000289 -0.002862
-0.000868 0.000287 -0.00286
-0.000891 0.000286 -0.002853
-0.000915 0.000286 -0.002846
-0.000938 0.000287 -0.002838
-0.000962 0.000287 -0.00283
-0.000985 0.000287 -0.002822
-0.001007 0.00029 -0.002809
-0.001023 0.000302 -0.002778
-0.001035 0.000319 -0.002735
-0.000907 -2.5e-05 -0.001899
-0.001135 0.000571 -0.00214
-0.001158 0.000572 -0.002131
-0.001182 0.000571 -0.002126
-0.001207 0.000568 -0.002124
-0.001234 0.000563 -0.002127
-0.001264 0.000554 -0.002139
-0.001297 0.000538 -0.002164
-0.001334 0.000517 -0.0022
-0.000163 0.000405 -0.002749
-0.000178 0.000419 -0.002714
-0.000191 0.000434 -0.002674
-0.000204 0.000451 -0.002632
-0.000217 0.000468 -0.002591
-0.00023 0.000485 -0.002547
-0.000242 0.000504 -0.002503
-0.000255 0.00052 -0.002462
-0.000273 0.000529 -0.002436
-0.000293 0.000534 -0.002419
-0.000315 0.000537 -0.002407
-0.000338 0.000537 -0.002398
-0.000363 0.000536 -0.002394
0.00021 0.000538 -0.002846
6.7e-05 0.000585 -0.002989
6.7e-05 0.000558 -0.002989
0.000141 0.000455 -0.002978
-0.000661 0.000362 -0.002693
-0.0007 0.000338 -0.002735
-0.000738 0.000315 -0.002775
-0.000775 0.000294 -0.00281
-0.000811 0.000275 -0.002843
-0.000842 0.000262 -0.002862
-0.000868 0.000259 -0.00286
-0.000892 0.000258 -0.002855
-0.000915 0.000259 -0.002847
-0.000939 0.000259 -0.00284
-0.000962 0.000259 -0.002832
-0.000985 0.00026 -0.002823
-0.001007 0.000263 -0.002809
-0.001023 0.000275 -0.002777
-0.001035 0.000292 -0.002735
-0.001135 0.000544 -0.00214
-0.001158 0.000545 -0.002131
-0.001182 0.000544 -0.002126
-0.001207 0.000541 -0.002124
-0.001234 0.000536 -0.002128
-0.001264 0.000527 -0.002139
-0.001297 0.000511 -0.002164
-0.001334 0.00049 -0.0022
-0.000167 0.000378 -0.002749
-0.000178 0.000391 -0.002714
-0.000191 0.000408 -0.002673
-0.000204 0.000424 -0.002632
-0.000217 0.000441 -0.002591
-0.00023 0.000458 -0.002548
-0.000242 0.000477 -0.002503
-0.000255 0.000493 -0.002462
-0.000273 0.000502 -0.002436
-0.000293 0.000507 -0.002418
-0.000315 0.00051 -0.002406
-0.000338 0.00051 -0.002399
-0.000363 0.000508 -0.002394
4.2e-05 0.000671 -0.002981
-5.6e-05 0.000623 -0.002965
-7e-06 0.000558 -0.002989
-0.000128 0.000591 -0.002858
-0.000661 0.000335 -0.002693
-0.000701 0.00031 -0.002737
-0.000739 0.000287 -0.002776
-0.000775 0.000267 -0.002811
-0.000811 0.000248 -0.002843
-0.000842 0.000235 -0.002861
-0.000868 0.000232 -0.00286
-0.000892 0.000231 -0.002855
-0.000915 0.000231 -0.002848
-0.000939 0.000231 -0.00284
-0.000962 0.000232 -0.002832
-0.000985 0.000233 -0.002823
-0.001006 0.000236 -0.002809
-0.001023 0.000248 -0.002778
-0.001035 0.000265 -0.002735
-0.001135 0.000517 -0.00214
-0.001158 0.000518 -0.002131
-0.001182 0.000517 -0.002126
-0.001207 0.000514 -0.002124
-0.001234 0.000509 -0.002127
-0.001263 0.0005 -0.002138
-0.001297 0.000484 -0.002163
-0.001334 0.000462 -0.002201
-0.000163 0.000351 -0.002747
-0.000178 0.000364 -0.002714
-0.000191 0.000381 -0.002673
-0.000204 0.000397 -0.002632
-0.000217 0.000414 -0.002591
-0.00023 0.000431 -0.002548
-0.000242 0.000449 -0.002504
-0.000255 0.000466 -0.002462
-0.000273 0.000475 -0.002436
-0.000293 0.00048 -0.002418
-0.000315 0.000482 -0.002407
-0.000338 0.000483 -0.002399
-0.000363 0.000481 -0.002394
-8e-05 0.000665 -0.002933
-3.2e-05 0.000588 -0.002983
-5.6e-05 0.000569 -0.002966
0.001106 0.000515 -0.002765
-0.000667 0.000307 -0.002689
-0.000701 0.000283 -0.002736
-0.000739 0.00026 -0.002776
-0.000775 0.00024 -0.00281
-0.000811 0.00022 -0.002843
-0.000842 0.000208 -0.002861
-0.000868 0.000205 -0.00286
-0.000892 0.000204 -0.002854
-0.000915 0.000204 -0.002847
-0.000939 0.000204 -0.00284
-0.000962 0.000205 -0.002831
-0.000985 0.000206 -0.002822
-0.001006 0.000209 -0.002808
-0.001023 0.00022 -0.002778
-0.001035 0.000238 -0.002735
-0.001135 0.000489 -0.00214
-0.001158 0.00049 -0.002131
-0.001182 0.000489 -0.002126
-0.001207 0.000487 -0.002124
-0.001234 0.000482 -0.002127
-0.001264 0.000473 -0.002138
-0.001297 0.000456 -0.002164
-0.001335 0.000435 -0.002201
-0.000163 0.000324 -0.002748
-0.000178 0.000338 -0.002713
-0.000191 0.000353 -0.002674
-0.000204 0.00037 -0.002631
-0.000217 0.000387 -0.00259
-0.00023 0.000404 -0.002547
-0.000242 0.000422 -0.002503
-0.000255 0.000439 -0.002462
-0.000273 0.000448 -0.002436
-0.000293 0.000453 -0.002418
-0.000315 0.000455 -0.002406
-0.000338 0.000456 -0.002398
-0.000363 0.000454 -0.002394
-0.000104 0.000709 -0.002897
-7e-06 0.000586 -0.002988
-8e-05 0.000584 -0.002933
-7e-06 0.000476 -0.002989
-0.000667 0.00028 -0.002689
-0.0007 0.000257 -0.002735
-0.000739 0.000233 -0.002776
-0.000775 0.000213 -0.002809
-0.000811 0.000194 -0.002842
-0.000842 0.000181 -0.00286
-0.000867 0.000178 -0.002859
-0.000891 0.000177 -0.002854
-0.000915 0.000177 -0.002847
-0.000939 0.000177 -0.002839
-0.000962 0.000178 -0.002831
-0.000985 0.000179 -0.002821
-0.001006 0.000183 -0.002807
-0.001023 0.000193 -0.002778
-0.001035 0.00021 -0.002735
-0.001135 0.000462 -0.00214
-0.001158 0.000463 -0.002131
-0.001182 0.000462 -0.002126
-0.001207 0.00046 -0.002123
-0.001234 0.000454 -0.002127
-0.001263 0.000446 -0.002138
-0.001298 0.000429 -0.002165
-0.001335 0.000407 -0.002201
-0.000171 0.000297 -0.002751
-0.000178 0.00031 -0.002712
-0.000191 0.000326 -0.002672
-0.000204 0.000343 -0.002632
-0.000217 0.000359 -0.002591
-0.00023 0.000377 -0.002547
-0.000242 0.000395 -0.002503
-0.000255 0.000411 -0.002462
-0.000273 0.000421 -0.002436
-0.000293 0.000426 -0.002418
-0.000315 0.000428 -0.002406
-0.000339 0.000428 -0.002398
-0.000363 0.000427 -0.002394
-5.6e-05 0.000651 -0.002963
1.8e-05 0.000585 -0.002989
-0.000643 0.000707 -0.00266
-0.000643 0.000653 -0.00266
1.8e-05 0.000503 -0.002989
-0.000152 0.000535 -0.002804
-0.000392 0.000725 -0.002392
-0.000739 0.000205 -0.002776
-0.000775 0.000185 -0.00281
-0.000811 0.000166 -0.002843
-0.000841 0.000155 -0.002858
-0.000867 0.000152 -0.002857
-0.000891 0.000151 -0.002852
-0.000915 0.00015 -0.002846
-0.000938 0.000151 -0.002838
-0.000962 0.000151 -0.00283
-0.000984 0.000153 -0.002819
-0.001006 0.000156 -0.002806
-0.001023 0.000166 -0.002778
-0.001035 0.000184 -0.002735
-0.001044 0.000202 -0.002688
-0.001135 0.000435 -0.00214
-0.001158 0.000436 -0.002131
-0.001182 0.000435 -0.002125
-0.001207 0.000433 -0.002123
-0.001234 0.000428 -0.002126
-0.001264 0.000418 -0.002138
-0.001297 0.000402 -0.002164
-0.001334 0.000381 -0.0022
-0.000167 0.00027 -0.002749
-0.000178 0.000283 -0.002713
-0.000191 0.000299 -0.002672
-0.000204 0.000316 -0.002632
-0.000217 0.000332 -0.00259
-0.00023 0.00035 -0.002547
-0.000242 0.000368 -0.002503
-0.000255 0.000384 -0.002462
-0.000273 0.000393 -0.002436
-0.000293 0.000399 -0.002418
-0.000315 0.000401 -0.002406
-0.000339 0.000401 -0.002398
-0.000363 0.0004 -0.002394
-0.000128 0.000699 -0.00286
-5.6e-05 0.000596 -0.002965
0.000257 0.000608 -0.002738
-5.6e-05 0.000514 -0.002966
-7e-06 0.000504 -0.002989
4.2e-05 0.000504 -0.00299
0.000564 0.000745 -0.002421
-0.000884 -2.5e-05 -0.001908
-0.000738 0.000179 -0.002775
-0.000775 0.000158 -0.00281
-0.00081 0.00014 -0.00284
-0.000841 0.000129 -0.002855
-0.000866 0.000126 -0.002854
-0.00089 0.000125 -0.00285
-0.000914 0.000125 -0.002843
-0.000938 0.000125 -0.002836
-0.000961 0.000125 -0.002827
-0.000983 0.000127 -0.002816
-0.001005 0.00013 -0.002803
-0.001022 0.00014 -0.002776
-0.001035 0.000157 -0.002734
-0.001135 0.000408 -0.00214
-0.001158 0.000409 -0.002131
-0.001182 0.000408 -0.002125
-0.001207 0.000405 -0.002123
-0.001234 0.0004 -0.002126
-0.001263 0.000391 -0.002138
-0.001297 0.000375 -0.002163
-0.001334 0.000354 -0.002199
-0.000163 0.000242 -0.002748
-0.000178 0.000256 -0.002713
-0.000191 0.000273 -0.002671
-0.000204 0.000289 -0.002631
-0.000217 0.000305 -0.00259
-0.00023 0.000323 -0.002547
-0.000242 0.000341 -0.002502
-0.000255 0.000357 -0.002462
-0.000273 0.000366 -0.002436
-0.000293 0.000371 -0.002418
-0.000315 0.000374 -0.002406
-0.000339 0.000374 -0.002399
-0.000363 0.000372 -0.002394
-0.000104 0.000682 -0.002897
4.2e-05 0.000585 -0.002989
0.000242 0.000647 -0.002776
-0.000668 0.000612 -0.002689
0.000285 0.000641 -0.002656
0.00059 0.000729 -0.002456
-0.000738 0.000152 -0.002774
-0.000775 0.000131 -0.00281
-0.00081 0.000113 -0.002839
-0.000839 0.000104 -0.002851
-0.000864 0.000102 -0.002849
-0.000889 0.000101 -0.002844
-0.000913 0.0001 -0.002838
-0.000936 0.0001 -0.002831
-0.000959 0.000101 -0.002822
-0.000982 0.000103 -0.002811
-0.001003 0.000105 -0.002798
-0.001022 0.000113 -0.002775
-0.001034 0.00013 -0.002734
-0.000861 -2.6e-05 -0.001916
-0.001135 0.000381 -0.002139
-0.001158 0.000382 -0.002131
-0.001182 0.000381 -0.002125
-0.001207 0.000378 -0.002124
-0.001234 0.000373 -0.002126
-0.001263 0.000364 -0.002137
-0.001297 0.000348 -0.002163
-0.001334 0.000326 -0.0022
-0.000163 0.000215 -0.002748
-0.000178 0.000229 -0.002712
-0.000191 0.000245 -0.002672
-0.000204 0.000261 -0.002632
-0.000217 0.000278 -0.00259
-0.00023 0.000296 -0.002547
-0.000242 0.000314 -0.002502
-0.000255 0.00033 -0.002462
-0.000273 0.000339 -0.002436
-0.000293 0.000344 -0.002418
-0.000315 0.000346 -0.002407
-0.000339 0.000347 -0.002399
-0.000363 0.000345 -0.002394
-7e-06 0.000642 -0.002984
9.2e-05 0.000586 -0.002988
-0.000585 -1.6e-05 -0.002054
-0.000417 0.00075 -0.002395
-0.000491 0.000707 -0.002428
-0.0007 0.000149 -0.002733
-0.000738 0.000125 -0.002775
-0.000775 0.000104 -0.002809
-0.000809 8.7e-05 -0.002837
-0.000837 8.1e-05 -0.002843
-0.000862 7.9e-05 -0.002841
-0.000886 7.7e-05 -0.002836
-0.00091 7.7e-05 -0.00283
-0.000934 7.7e-05 -0.002823
-0.000957 7.7e-05 -0.002814
-0.000979 7.9e-05 -0.002803
-0.001001 8.2e-05 -0.002791
-0.001021 8.8e-05 -0.002771
-0.001034 0.000103 -0.002733
-0.001135 0.000354 -0.00214
-0.001158 0.000355 -0.002131
-0.001182 0.000354 -0.002125
-0.001207 0.000351 -0.002123
-0.001234 0.000346 -0.002126
-0.001264 0.000337 -0.002138
-0.001297 0.000321 -0.002163
-0.001335 0.000299 -0.002201
-0.000162 0.000189 -0.002746
-0.000177 0.000202 -0.002711
-0.000191 0.000218 -0.002671
-0.000204 0.000234 -0.002632
-0.000217 0.000252 -0.002589
-0.00023 0.000268 -0.002547
-0.000242 0.000287 -0.002502
-0.000255 0.000303 -0.002462
-0.000273 0.000312 -0.002435
-0.000293 0.000317 -0.002418
-0.000315 0.000319 -0.002407
-0.000339 0.00032 -0.002399
-0.000363 0.000318 -0.002394
0.000393 0.000717 -0.002397
0.000141 0.000592 -0.002977
-0.000511 -1.9e-05 -0.002062
1.8e-05 0.000449 -0.002989
0.000166 0.000471 -0.002944
-3.1e-05 0.000708 -0.002958
-0.000699 0.000122 -0.002732
-0.000739 9.7e-05 -0.002775
-0.000774 7.8e-05 -0.002808
-0.000807 6.4e-05 -0.00283
-0.000834 5.9e-05 -0.002833
-0.000858 5.7e-05 -0.00283
-0.000883 5.6e-05 -0.002825
-0.000907 5.5e-05 -0.002819
-0.00093 5.5e-05 -0.002812
-0.000953 5.5e-05 -0.002803
-0.000976 5.7e-05 -0.002793
-0.000998 5.9e-05 -0.002781
-0.001019 6.4e-05 -0.002764
-0.001034 7.6e-05 -0.002732
-0.001135 0.000326 -0.00214
-0.001158 0.000327 -0.002131
-0.001182 0.000327 -0.002125
-0.001207 0.000324 -0.002123
-0.001234 0.000319 -0.002126
-0.001264 0.000309 -0.002139
-0.001297 0.000294 -0.002163
-0.001334 0.000272 -0.0022
-0.000162 0.000162 -0.002745
-0.000178 0.000175 -0.002712
-0.000191 0.000191 -0.002672
-0.000204 0.000208 -0.00263
-0.000217 0.000224 -0.00259
-0.00023 0.000242 -0.002546
-0.000241 0.00026 -0.002501
-0.000255 0.000276 -0.002461
-0.000273 0.000285 -0.002435
-0.000293 0.00029 -0.002418
-0.000315 0.000292 -0.002406
-0.000339 0.000293 -0.002398
-0.000363 0.000291 -0.002394
4.2e-05 0.000641 -0.002987
0.000116 0.000587 -0.002985
-0.000668 0.000694 -0.002688
-0.000152 0.000616 -0.002803
-0.000666 0.000118 -0.002688
-0.000701 9.3e-05 -0.002736
-0.000738 7.1e-05 -0.002774
-0.000774 5.1e-05 -0.002807
-0.000803 4.2e-05 -0.002818
-0.00083 3.8e-05 -0.002819
-0.000854 3.6e-05 -0.002816
-0.000878 3.5e-05 -0.002811
-0.000902 3.5e-05 -0.002805
-0.000926 3.5e-05 -0.002797
-0.000949 3.5e-05 -0.002789
-0.000972 3.7e-05 -0.002779
-0.000994 3.9e-05 -0.002768
-0.001015 4.3e-05 -0.002752
-0.001033 5.1e-05 -0.002728
-0.001044 6.7e-05 -0.002688
-0.000837 -2.6e-05 -0.001925
-0.001135 0.000299 -0.00214
-0.001158 0.0003 -0.002131
-0.001182 0.0003 -0.002125
-0.001207 0.000297 -0.002123
-0.001234 0.000291 -0.002127
-0.001264 0.000282 -0.002138
-0.001297 0.000266 -0.002164
-0.001335 0.000245 -0.002201
-0.000162 0.000135 -0.002745
-0.000178 0.000147 -0.002712
-0.000191 0.000164 -0.002671
-0.000203 0.000181 -0.002628
-0.000217 0.000196 -0.002591
-0.00023 0.000214 -0.002546
-0.000242 0.000232 -0.002502
-0.000255 0.000249 -0.002461
-0.000272 0.000258 -0.002434
-0.000293 0.000263 -0.002418
-0.000315 0.000265 -0.002406
-0.000339 0.000265 -0.002398
-0.000363 0.000264 -0.002394
-5.6e-05 0.000681 -0.002957
0.001512 0.000665 -0.002238
-0.000618 0.000722 -0.002629
-0.000517 0.000719 -0.002462
-0.000814 -2.7e-05 -0.001933
-0.000666 9.1e-05 -0.002688
-0.0007 6.7e-05 -0.002734
-0.000738 4.4e-05 -0.002773
-0.000771 2.9e-05 -0.002796
-0.000798 2.3e-05 -0.002802
-0.000824 2e-05 -0.002802
-0.000849 1.8e-05 -0.002798
-0.000873 1.7e-05 -0.002793
-0.000897 1.7e-05 -0.002786
-0.00092 1.7e-05 -0.002779
-0.000943 1.7e-05 -0.00277
-0.000966 1.8e-05 -0.002761
-0.000989 2e-05 -0.00275
-0.00101 2.3e-05 -0.002736
-0.001029 3e-05 -0.002716
-0.001043 4.2e-05 -0.002684
-0.001135 0.000272 -0.00214
-0.001158 0.000273 -0.002131
-0.001182 0.000272 -0.002125
-0.001207 0.00027 -0.002123
-0.001235 0.000264 -0.002127
-0.001264 0.000255 -0.002138
-0.001298 0.000239 -0.002164
-0.001334 0.000218 -0.0022
-0.000162 0.000108 -0.002745
-0.000177 0.000121 -0.002711
-0.00019 0.000137 -0.00267
-0.000204 0.000154 -0.002629
-0.000217 0.00017 -0.00259
-0.000229 0.000187 -0.002546
-0.000242 0.000205 -0.002501
-0.000255 0.000222 -0.00246
-0.000272 0.000231 -0.002434
-0.000293 0.000236 -0.002418
-0.000315 0.000238 -0.002406
-0.000339 0.000238 -0.002398
-0.000363 0.000237 -0.002394
1.8e-05 0.000671 -0.00298
0.000242 0.000566 -0.002775
-0.00061 -1.5e-05 -0.002052
1.8e-05 0.000531 -0.002989
-0.000791 -2.8e-05 -0.001941
0.000592 0.000703 -0.002451
-0.0007 4e-05 -0.002733
-0.000735 2.1e-05 -0.002764
-0.000765 1.2e-05 -0.002776
-0.000791 7e-06 -0.002779
-0.000816 4e-06 -0.002777
-0.000841 3e-06 -0.002772
-0.000865 3e-06 -0.002765
-0.000888 2e-06 -0.002759
-0.000912 2e-06 -0.002752
-0.000935 3e-06 -0.002743
-0.000958 4e-06 -0.002735
-0.000981 4e-06 -0.002726
-0.001004 6e-06 -0.002716
-0.001135 0.000245 -0.00214
-0.001158 0.000246 -0.002131
-0.001182 0.000245 -0.002125
-0.001208 0.000242 -0.002123
-0.001235 0.000237 -0.002127
-0.001264 0.000228 -0.002139
-0.001297 0.000212 -0.002163
-0.001335 0.00019 -0.002201
-0.000163 8e-05 -0.002747
-0.000177 9.4e-05 -0.002711
-0.00019 0.00011 -0.00267
-0.000204 0.000127 -0.002629
-0.000217 0.000143 -0.002589
-0.000229 0.000161 -0.002545
-0.000242 0.000178 -0.002502
-0.000255 0.000195 -0.00246
-0.000272 0.000204 -0.002434
-0.000293 0.000209 -0.002417
-0.000315 0.000211 -0.002406
-0.000339 0.000211 -0.002398
-0.000363 0.000209 -0.002394
-3.1e-05 0.000675 -0.002971
-0.000152 0.000698 -0.002803
-0.000152 0.000644 -0.002803
9.1e-05 0.000478 -0.002988
0.000166 0.000498 -0.002945
-0.000698 1.6e-05 -0.002726
-0.000728 5e-06 -0.002742
-0.000755 0.0 -0.002744
-0.000779 -1e-06 -0.00274
-0.000768 -2.8e-05 -0.00195
-0.000874 -3e-06 -0.002714
-0.000898 -3e-06 -0.002707
-0.000922 -3e-06 -0.0027
-0.001135 0.000218 -0.002139
-0.001158 0.000219 -0.00213
-0.001182 0.000218 -0.002125
-0.001208 0.000215 -0.002123
-0.001235 0.00021 -0.002127
-0.001264 0.000201 -0.002138
-0.001297 0.000185 -0.002163
-0.001335 0.000163 -0.0022
-0.000163 5.2e-05 -0.002747
-0.000177 6.7e-05 -0.00271
-0.000191 8.3e-05 -0.00267
-0.000204 9.9e-05 -0.00263
-0.000217 0.000115 -0.00259
-0.000229 0.000133 -0.002546
-0.000242 0.000151 -0.002501
-0.000255 0.000167 -0.002461
-0.000273 0.000177 -0.002435
-0.000293 0.000181 -0.002418
-0.000315 0.000184 -0.002406
-0.000339 0.000184 -0.002398
-0.000363 0.000182 -0.002394
0.000116 0.000644 -0.00298
0.001019 0.000506 -0.002812
-0.000128 0.000619 -0.002857
9.2e-05 0.000532 -0.002988
4.3e-05 0.000704 -0.002967
-0.00069 1e-06 -0.0027
-0.000715 -2e-06 -0.002699
-0.000739 -2e-06 -0.002693
-0.000763 -2e-06 -0.002686
-0.000787 -3e-06 -0.00268
-0.000833 -2e-06 -0.002664
-0.000857 -2e-06 -0.002656
-0.00088 -2e-06 -0.00265
-0.000903 -1e-06 -0.002641
-0.000928 -3e-06 -0.002636
-0.000744 -2.8e-05 -0.001957
-0.001135 0.000191 -0.002139
-0.001158 0.000192 -0.00213
-0.001182 0.000191 -0.002125
-0.001207 0.000188 -0.002123
-0.001234 0.000183 -0.002126
-0.001263 0.000174 -0.002137
-0.001297 0.000159 -0.002162
-0.001335 0.000136 -0.002201
-7e-06 0.000706 -0.002964
-0.000178 3.9e-05 -0.002711
-0.00019 5.6e-05 -0.002669
-0.000204 7.2e-05 -0.002629
-0.000217 8.8e-05 -0.002589
-0.000229 0.000106 -0.002545
-0.000241 0.000124 -0.002501
-0.000255 0.00014 -0.002461
-0.000273 0.000149 -0.002435
-0.000293 0.000154 -0.002417
-0.000315 0.000157 -0.002406
-0.000339 0.000157 -0.002398
-0.000363 0.000155 -0.002394
9.2e-05 0.000642 -0.002984
0.000166 0.000608 -0.002943
-3.2e-05 0.00056 -0.002984
0.000617 0.000689 -0.002481
-0.000128 0.000564 -0.002858
6.7e-05 0.000705 -0.002967
-0.000677 -6e-06 -0.00266
-0.000701 -7e-06 -0.002654
-0.000725 -7e-06 -0.002648
-0.000749 -7e-06 -0.00264
-0.000772 -7e-06 -0.002632
-0.000721 -2.9e-05 -0.001965
-0.000819 -7e-06 -0.002618
-0.000843 -7e-06 -0.002611
-0.000866 -7e-06 -0.002603
-0.00089 -7e-06 -0.002596
-0.000913 -7e-06 -0.002589
-0.001113 0.000162 -0.00215
-0.001135 0.000164 -0.002139
-0.001158 0.000165 -0.00213
-0.001182 0.000164 -0.002124
-0.001207 0.000161 -0.002122
-0.001234 0.000156 -0.002126
-0.001264 0.000147 -0.002137
-0.001297 0.000131 -0.002162
-0.001335 0.000109 -0.002201
-0.00027 0.000749 -0.002459
-0.000177 1.3e-05 -0.002708
-0.00019 2.9e-05 -0.002669
-0.000204 4.5e-05 -0.00263
-0.000217 6.1e-05 -0.002589
-0.00023 7.9e-05 -0.002546
-0.000242 9.7e-05 -0.002502
-0.000255 0.000113 -0.002461
-0.000273 0.000122 -0.002435
-0.000293 0.000127 -0.002418
-0.000315 0.000129 -0.002406
-0.000339 0.00013 -0.002398
-0.000363 0.000128 -0.002394
0.000141 0.00062 -0.002974
0.000226 0.000634 -0.00281
0.000166 0.000553 -0.002943
-0.000618 0.00064 -0.00263
-0.000104 0.000546 -0.002897
-0.000697 -2.9e-05 -0.001973
-0.000674 -2.9e-05 -0.00198
-0.000799 -2e-06 -0.002552
-0.000822 -2e-06 -0.002545
-0.000846 -2e-06 -0.002539
-0.00087 -2e-06 -0.002531
-0.000894 -3e-06 -0.002525
-0.000651 -2.9e-05 -0.001988
-0.001034 -2e-06 -0.00248
-0.001052 7e-06 -0.002455
-0.001113 0.000135 -0.00215
-0.001135 0.000137 -0.002139
-0.001158 0.000138 -0.00213
-0.001182 0.000137 -0.002124
-0.001207 0.000134 -0.002122
-0.001235 0.000128 -0.002126
-0.001263 0.00012 -0.002136
-0.001297 0.000104 -0.002163
-0.001335 8.2e-05 -0.002201
-0.000169 -1e-06 -0.002683
-0.000188 6e-06 -0.00266
-0.000203 1.8e-05 -0.002628
-0.000217 3.4e-05 -0.002589
-0.000229 5.2e-05 -0.002544
-0.000241 7e-05 -0.002501
-0.000255 8.6e-05 -0.002461
-0.000273 9.5e-05 -0.002435
-0.000293 0.0001 -0.002418
-0.000315 0.000102 -0.002406
-0.000339 0.000103 -0.002398
0.000117 0.000675 -0.002972
-0.000104 0.000655 -0.002897
4.2e-05 0.000558 -0.002989
-0.000592 0.000656 -0.002597
-0.000441 0.000722 -0.0024
-0.000637 3e-06 -0.00253
-0.000661 2e-06 -0.002523
-0.000685 3e-06 -0.002516
-0.000708 2e-06 -0.00251
-0.000732 3e-06 -0.002502
-0.000779 2e-06 -0.002489
-0.000802 2e-06 -0.00248
-0.000826 3e-06 -0.002473
-0.00085 2e-06 -0.002467
-0.000896 3e-06 -0.00245
-0.00092 2e-06 -0.002444
-0.000944 2e-06 -0.002438
-0.000968 1e-06 -0.002432
-0.001038 2e-06 -0.002409
-0.001052 1.6e-05 -0.002383
-0.001135 0.000109 -0.002139
-0.001158 0.000111 -0.00213
-0.001182 0.00011 -0.002124
-0.001207 0.000107 -0.002123
-0.001234 0.000101 -0.002126
-0.001263 9.3e-05 -0.002136
-0.000627 -2.9e-05 -0.001995
-0.00015 1e-06 -0.002621
-0.000173 1e-06 -0.002614
-0.000196 2e-06 -0.002605
-0.000215 9e-06 -0.002583
-0.000229 2.5e-05 -0.002545
-0.000242 4.3e-05 -0.002501
-0.000255 5.9e-05 -0.00246
-0.000273 6.8e-05 -0.002435
-0.000293 7.3e-05 -0.002417
-0.000315 7.5e-05 -0.002406
-0.000339 7.6e-05 -0.002397
9.2e-05 0.000673 -0.002977
-7e-06 0.000613 -0.002987
9.2e-05 0.000559 -0.002988
-8e-05 0.00053 -0.002932
-0.000417 0.000724 -0.002394
0.001939 0.000648 -0.002195
-0.000542 0.000695 -0.002512
-0.000622 0.0 -0.002479
-0.000645 0.0 -0.002473
-0.000669 -0.0 -0.002466
-0.000693 0.0 -0.002458
-0.000716 1e-06 -0.00245
-0.000739 1e-06 -0.002443
-0.000763 1e-06 -0.002435
-0.000787 0.0 -0.002429
-0.00081 0.0 -0.002422
-0.00088 1e-06 -0.002398
-0.000904 0.0 -0.002393
-0.000928 0.0 -0.002386
-0.001022 1e-06 -0.002355
-0.001045 2e-06 -0.002347
-0.001135 8.2e-05 -0.002139
-0.001158 8.3e-05 -0.00213
-0.001182 8.3e-05 -0.002124
-0.001208 8e-05 -0.002123
-0.001234 7.4e-05 -0.002127
-0.001263 6.6e-05 -0.002135
-0.000604 -2.9e-05 -0.002003
-0.00058 -2.9e-05 -0.002009
-8e-05 0.000502 -0.002932
-0.000158 0.0 -0.002563
-0.000181 -0.0 -0.002555
-0.000205 -0.0 -0.002548
-0.000227 2e-06 -0.002536
-0.000241 1.6e-05 -0.0025
-0.000254 3.2e-05 -0.002459
-0.000273 4.1e-05 -0.002434
-0.000293 4.6e-05 -0.002417
-0.000315 4.8e-05 -0.002405
1.8e-05 0.000641 -0.002986
6.7e-05 0.000641 -0.002986
-3.1e-05 0.000616 -0.002981
0.000166 0.00058 -0.002944
6.7e-05 0.000477 -0.002988
-0.000668 0.000639 -0.002689
0.000116 0.00056 -0.002986
0.000141 0.00068 -0.002962
-0.000585 -6e-06 -0.002443
-0.000608 -6e-06 -0.002436
-0.000632 -6e-06 -0.002429
-0.000655 -6e-06 -0.002422
-0.000679 -6e-06 -0.002415
-0.000703 -6e-06 -0.002408
-0.000726 -6e-06 -0.002401
-0.00075 -6e-06 -0.002394
-0.000773 -6e-06 -0.002387
-0.000797 -7e-06 -0.002379
-0.000914 -5e-06 -0.00234
-0.000938 -6e-06 -0.002335
-0.000961 -5e-06 -0.002326
-0.000985 -5e-06 -0.002319
-0.001008 -4e-06 -0.002311
-0.001158 5.6e-05 -0.00213
-0.001182 5.5e-05 -0.002124
-0.001208 5.2e-05 -0.002122
-0.001234 4.7e-05 -0.002126
-0.001263 3.9e-05 -0.002135
-0.001298 2.1e-05 -0.002164
-0.001333 3e-06 -0.002194
-0.000104 0.000519 -0.002896
-0.000128 0.000672 -0.002859
-0.000167 -6e-06 -0.00251
-0.000191 -7e-06 -0.002505
-0.000216 -8e-06 -0.002501
-0.000238 -7e-06 -0.00249
-0.000255 4e-06 -0.002461
-0.000273 1.4e-05 -0.002434
-0.000293 2e-05 -0.002416
9.2e-05 0.000614 -0.002987
6.7e-05 0.000613 -0.002988
0.000947 0.000506 -0.002832
-0.000128 0.000645 -0.002858
-0.000643 0.000734 -0.002661
-3.2e-05 0.000533 -0.002984
-5.6e-05 0.000541 -0.002966
0.000993 0.000673 -0.00281
-0.000104 0.000627 -0.002897
-0.00055 -1.6e-05 -0.002416
-0.000574 -1.6e-05 -0.002409
-0.000598 -1.6e-05 -0.002403
-0.000622 -1.6e-05 -0.002396
-0.000645 -1.7e-05 -0.002389
-0.000669 -1.7e-05 -0.002382
-0.000693 -1.7e-05 -0.002375
-0.000716 -1.7e-05 -0.002368
-0.00074 -1.7e-05 -0.002361
-0.000763 -1.7e-05 -0.002353
-0.000787 -1.7e-05 -0.002346
-0.00081 -1.6e-05 -0.002338
-0.000834 -1.6e-05 -0.002331
-0.000857 -1.6e-05 -0.002322
-0.00088 -1.6e-05 -0.002315
-0.000904 -1.6e-05 -0.002307
-0.000927 -1.5e-05 -0.002299
-0.00095 -1.5e-05 -0.002291
-0.000973 -1.4e-05 -0.002283
-0.000997 -1.4e-05 -0.002275
-0.001182 2.8e-05 -0.002125
-0.001208 2.5e-05 -0.002122
-0.001234 2e-05 -0.002126
-0.001263 1.1e-05 -0.002136
-0.001297 -4e-06 -0.002161
-8e-05 0.000475 -0.002932
-5.6e-05 0.00046 -0.002966
-0.000132 -1.5e-05 -0.00248
-0.000156 -1.6e-05 -0.002475
-0.000181 -1.7e-05 -0.00247
-0.000205 -1.8e-05 -0.002465
-0.000229 -1.8e-05 -0.002458
-0.000251 -1.7e-05 -0.002448
-0.000273 -1.3e-05 -0.002434
-0.000293 -9e-06 -0.002417
-5.6e-05 0.000487 -0.002966
0.000568 0.000719 -0.002418
4.2e-05 0.000477 -0.002989
0.000141 0.000482 -0.002978
0.00092 0.000513 -0.002824
-0.00044 -1.2e-05 -0.00239
-0.000465 -1.7e-05 -0.002388
-0.000489 -1.9e-05 -0.002382
-0.000511 -1.8e-05 -0.002373
-0.000535 -1.9e-05 -0.002366
-0.000558 -1.8e-05 -0.002358
-0.000581 -1.8e-05 -0.002349
-0.000605 -1.7e-05 -0.002341
-0.000628 -1.7e-05 -0.002334
-0.000652 -1.8e-05 -0.002328
-0.000676 -1.7e-05 -0.00232
-0.000699 -1.7e-05 -0.002312
-0.000723 -1.8e-05 -0.002307
-0.000746 -1.8e-05 -0.002299
-0.00077 -1.8e-05 -0.002292
-0.000794 -1.8e-05 -0.002285
-0.000817 -1.8e-05 -0.002278
-0.000841 -1.9e-05 -0.002272
-0.000864 -1.8e-05 -0.002263
-0.000888 -1.8e-05 -0.002256
-0.000912 -1.9e-05 -0.00225
-0.000935 -1.8e-05 -0.002243
-0.000959 -1.8e-05 -0.002235
-0.000982 -1.8e-05 -0.002227
-0.001208 -4e-06 -0.002124
-0.001234 -1e-05 -0.002128
-0.001262 -1.4e-05 -0.002133
-7e-05 -1.9e-05 -0.002447
-9.4e-05 -1.9e-05 -0.002441
0.000371 0.000714 -0.002408
4.2e-05 0.00045 -0.002989
-8e-05 0.000722 -0.002928
-0.000188 -1.9e-05 -0.002411
-0.000211 -1.8e-05 -0.002402
-0.000235 -1.8e-05 -0.002395
-0.000258 -1.8e-05 -0.002388
-0.000281 -1.7e-05 -0.002379
-0.000305 -1.7e-05 -0.002372
-0.000375 -1.6e-05 -0.002348
-0.000399 -1.7e-05 -0.002342
-0.000422 -1.6e-05 -0.002334
-0.000445 -1.6e-05 -0.002326
-0.000469 -1.6e-05 -0.002318
-0.000492 -1.5e-05 -0.00231
-0.000516 -1.6e-05 -0.002305
-0.000539 -1.5e-05 -0.002296
-0.000562 -1.4e-05 -0.002286
-0.000587 -1.6e-05 -0.002282
-0.000609 -1.4e-05 -0.002272
-0.000633 -1.5e-05 -0.002266
-0.000657 -1.5e-05 -0.002259
-0.00068 -1.5e-05 -0.002251
-0.000704 -1.4e-05 -0.002244
-0.000727 -1.4e-05 -0.002236
-0.000751 -1.5e-05 -0.002229
-0.000774 -1.5e-05 -0.002222
-0.000797 -1.4e-05 -0.002213
-0.000821 -1.4e-05 -0.002207
-0.000892 -1.5e-05 -0.002187
-0.000916 -1.5e-05 -0.00218
-0.001058 -1.6e-05 -0.002138
-0.001081 -1.5e-05 -0.00213
-0.000556 -2.9e-05 -0.002017
-5.2e-05 -1.7e-05 -0.002388
-7.6e-05 -1.7e-05 -0.00238
-9.9e-05 -1.6e-05 -0.002372
-0.000122 -1.6e-05 -0.002363
-0.000167 -1.3e-05 -0.002344
-0.000191 -1.3e-05 -0.002337
-0.000216 -1.5e-05 -0.002333
-0.000238 -1.3e-05 -0.002323
-0.000262 -1.4e-05 -0.002316
-0.000285 -1.3e-05 -0.002308
-0.000308 -1.2e-05 -0.002298
-0.000332 -1.3e-05 -0.002292
-0.000355 -1.2e-05 -0.002284
-0.000378 -1.1e-05 -0.002274
-0.000401 -1e-05 -0.002266
-0.000425 -1e-05 -0.002258
-0.000448 -1e-05 -0.002251
-0.000532 -2.9e-05 -0.002023
-0.000509 -2.8e-05 -0.00203
-0.000485 -2.8e-05 -0.002036
-0.000707 -1e-05 -0.002172
-0.000731 -1.1e-05 -0.002166
-0.000754 -1e-05 -0.002157
-0.000778 -1e-05 -0.00215
-0.001038 -1.2e-05 -0.002075
-0.001062 -1.3e-05 -0.002069
-0.001086 -1.3e-05 -0.002062
-0.000461 -2.8e-05 -0.002043
-0.000437 -2.7e-05 -0.002049
0.00063 -1.4e-05 0.002072
-0.000414 -2.7e-05 -0.002055
-7.8e-05 -1.1e-05 -0.002305
-0.000101 -1.1e-05 -0.002297
-0.000124 -1e-05 -0.002288
-0.000148 -9e-06 -0.00228
-0.000172 -1e-05 -0.002274
-0.000219 -1.1e-05 -0.002261
-0.000243 -1e-05 -0.002253
-0.000266 -9e-06 -0.002244
-0.000289 -9e-06 -0.002237
-0.000312 -9e-06 -0.002229
-0.000359 -8e-06 -0.002213
-0.000383 -9e-06 -0.002207
-0.000406 -7e-06 -0.002197
-0.00043 -8e-06 -0.002191
-0.000453 -7e-06 -0.002182
-0.000476 -6e-06 -0.002173
-0.0005 -7e-06 -0.002167
-0.000523 -7e-06 -0.002159
-0.00039 -2.7e-05 -0.002062
-0.000618 0.000668 -0.002629
-0.000592 0.000683 -0.002596
-0.000366 -2.6e-05 -0.002068
-0.000712 -7e-06 -0.002103
-0.000735 -7e-06 -0.002095
-0.000759 -7e-06 -0.002088
-0.000996 -9e-06 -0.00202
-0.001019 -9e-06 -0.002013
-0.001043 -1e-05 -0.002007
0.000606 -1.4e-05 0.002079
0.000583 -1.4e-05 0.002087
-1.3e-05 -9e-06 -0.00226
-3.6e-05 -9e-06 -0.002252
-5.9e-05 -8e-06 -0.002243
-8.3e-05 -8e-06 -0.002236
-0.000106 -8e-06 -0.002229
-0.00013 -8e-06 -0.002222
-0.000128 0.000537 -0.002857
-0.000247 -7e-06 -0.002184
-0.000271 -7e-06 -0.002177
-0.000295 -8e-06 -0.002172
-0.000319 -9e-06 -0.002166
-0.000342 -9e-06 -0.002158
-0.000366 -9e-06 -0.002151
-0.00039 -9e-06 -0.002145
-0.000413 -9e-06 -0.002138
-0.000437 -9e-06 -0.00213
-0.000461 -1e-05 -0.002124
-0.000485 -1e-05 -0.002119
0.000117 0.00071 -0.002955
-0.000555 -1e-05 -0.002096
-0.000442 0.000748 -0.0024
0.000142 0.000713 -0.00295
-0.000649 -1e-05 -0.002067
-0.000673 -1.1e-05 -0.002061
-0.000696 -1e-05 -0.002053
-0.00072 -1e-05 -0.002045
-0.000743 -1e-05 -0.002038
-0.000767 -1e-05 -0.002031
-0.000954 -8e-06 -0.00197
-0.000978 -8e-06 -0.001962
-0.001001 -8e-06 -0.001953
0.000559 -1.4e-05 0.002094
-0.000314 -2.5e-05 -0.002078
-1.9e-05 -9e-06 -0.002196
-4.2e-05 -8e-06 -0.002188
-6.6e-05 -9e-06 -0.002183
-9e-05 -1e-05 -0.002178
-0.000114 -1e-05 -0.002169
0.000141 0.000649 -0.00297
0.000751 0.000574 -0.002676
0.000317 0.00071 -0.002492
0.000272 0.00065 -0.002699
-0.000104 0.000492 -0.002895
-0.000258 -1.4e-05 -0.002134
-0.000281 -1.4e-05 -0.002128
-0.000305 -1.5e-05 -0.002122
-0.000329 -1.5e-05 -0.002116
-0.000353 -1.5e-05 -0.002109
-0.000377 -1.6e-05 -0.002103
-0.000401 -1.6e-05 -0.002096
-0.000425 -1.7e-05 -0.002091
-0.000448 -1.7e-05 -0.002084
-0.000472 -1.7e-05 -0.002077
0.000613 0.000717 -0.002484
-0.000519 -1.8e-05 -0.002064
-0.000543 -1.7e-05 -0.002055
-0.000566 -1.8e-05 -0.002049
-0.00059 -1.8e-05 -0.002042
-0.000614 -1.8e-05 -0.002035
-0.000637 -1.8e-05 -0.002028
-0.000661 -1.8e-05 -0.00202
-0.000684 -1.8e-05 -0.002014
-0.000708 -1.8e-05 -0.002006
-0.000731 -1.8e-05 -0.001999
-0.000755 -1.8e-05 -0.001991
-0.000778 -1.7e-05 -0.001982
-0.000801 -1.7e-05 -0.001974
-0.000825 -1.7e-05 -0.001967
-0.000848 -1.6e-05 -0.001959
-0.000871 -1.6e-05 -0.001952
-0.000894 -1.5e-05 -0.001943
-0.000918 -1.5e-05 -0.001934
-0.00094 -1.3e-05 -0.001924
-0.000964 -1.4e-05 -0.001918
0.000309 0.000656 -0.002555
0.000116 0.000505 -0.002987
0.000141 0.000509 -0.002978
-0.000466 0.000743 -0.00241
1.8e-05 0.000705 -0.002964
-0.000491 0.000734 -0.002429
-7e-06 0.000449 -0.002989
0.000518 0.000732 -0.002388
0.000317 0.000737 -0.002493
0.000193 0.000552 -0.002878
-0.000128 0.00051 -0.002858
4.2e-05 0.000531 -0.002989
6.7e-05 0.000531 -0.002989
-3.2e-05 0.000478 -0.002985
0.000116 0.000478 -0.002987
-0.000342 -2.6e-05 -0.002074
-0.000567 0.000646 -0.002559
-0.000592 0.000628 -0.002597
-0.000618 0.000614 -0.002628
-0.000643 0.000598 -0.00266
-0.000663 0.000585 -0.002694
0.000592 0.000676 -0.00245
0.000568 0.000691 -0.002419
0.000543 0.000701 -0.002398
0.000856 0.000677 -0.00278
0.000789 0.000685 -0.002721
0.000194 0.000688 -0.002878
0.00021 0.000701 -0.002845
0.000241 0.000729 -0.002773
0.000256 0.000745 -0.002735
0.000856 0.000542 -0.002778
-0.000265 -2.6e-05 -0.002081
0.000194 0.000607 -0.002879
0.000257 0.000662 -0.002738
0.000299 0.000713 -0.002612
0.00063 0.000716 -0.002514
0.000166 0.000444 -0.002944
0.000141 0.000428 -0.002978
0.000116 0.000424 -0.002987
9.1e-05 0.000423 -0.002988
6.7e-05 0.000423 -0.002989
4.2e-05 0.000422 -0.002989
1.7e-05 0.000422 -0.002989
-7e-06 0.000422 -0.002989
-3.2e-05 0.000424 -0.002985
-5.6e-05 0.000433 -0.002965
-8e-05 0.000448 -0.002933
-0.000104 0.000465 -0.002896
-0.000128 0.000483 -0.002857
-0.000392 0.000698 -0.002392
-0.000417 0.000697 -0.002394
-0.000441 0.000695 -0.0024
-0.000466 0.000689 -0.00241
-0.000491 0.00068 -0.002429
-0.000517 0.000665 -0.002462
-0.000542 0.00064 -0.002514
-0.000567 0.000618 -0.002561
-0.000592 0.000601 -0.002596
-0.000618 0.000586 -0.002629
-0.000643 0.000571 -0.00266
-0.000663 0.000558 -0.002694
0.000592 0.000649 -0.00245
0.000568 0.000664 -0.002419
0.000544 0.000674 -0.002398
0.000519 0.000679 -0.002386
0.000495 0.000682 -0.00238
0.000888 0.00069 -0.002801
0.000177 0.000703 -0.00291
0.000888 0.000635 -0.002803
0.001824 0.000482 -0.002368
0.001207 0.000745 -0.002106
0.000536 -1.4e-05 0.002102
0.001727 0.000404 -0.002353
0.000194 0.000634 -0.002878
0.00165 0.000734 -0.00232
0.000166 0.000417 -0.002945
0.000141 0.000401 -0.002978
0.000116 0.000397 -0.002987
9.1e-05 0.000396 -0.002989
6.7e-05 0.000395 -0.002989
4.2e-05 0.000395 -0.002989
1.7e-05 0.000395 -0.002989
-7e-06 0.000395 -0.002989
-3.2e-05 0.000397 -0.002985
-5.6e-05 0.000406 -0.002965
-8e-05 0.000421 -0.002932
-0.000104 0.000437 -0.002896
-0.000128 0.000455 -0.002857
-0.000152 0.000481 -0.002801
-0.000241 -2.7e-05 -0.002083
-0.000368 0.00067 -0.002394
-0.000392 0.000671 -0.002392
-0.000417 0.00067 -0.002394
-0.000441 0.000668 -0.002399
-0.000466 0.000662 -0.002409
-0.000491 0.000653 -0.002428
-0.000517 0.000637 -0.002462
-0.000542 0.000613 -0.002514
-0.000593 0.000574 -0.002597
-0.000618 0.000558 -0.002631
-0.000643 0.000544 -0.00266
0.000616 0.000607 -0.002482
0.000592 0.000622 -0.00245
0.000568 0.000637 -0.002418
0.000544 0.000646 -0.002398
0.000519 0.000652 -0.002386
0.000495 0.000655 -0.00238
0.00047 0.000655 -0.002378
0.001888 0.000656 -0.002315
0.000919 0.000622 -0.002823
0.001042 0.000562 -0.002803
0.00035 0.000709 -0.002426
0.000178 0.00054 -0.002911
0.000177 0.000622 -0.002911
0.000188 0.000412 -0.002895
0.000166 0.000389 -0.002945
0.000141 0.000373 -0.002979
0.000116 0.00037 -0.002987
9.1e-05 0.000369 -0.002988
6.7e-05 0.000368 -0.002988
4.2e-05 0.000368 -0.002989
1.7e-05 0.000368 -0.002989
-7e-06 0.000368 -0.002989
-3.2e-05 0.00037 -0.002985
-5.6e-05 0.000379 -0.002965
-8e-05 0.000394 -0.002931
-0.000104 0.000411 -0.002896
-0.000128 0.000429 -0.002857
-0.000152 0.000453 -0.002803
-0.000368 0.000643 -0.002394
-0.000392 0.000644 -0.002391
-0.000417 0.000643 -0.002393
-0.000442 0.00064 -0.002399
-0.000466 0.000634 -0.002412
-0.000491 0.000625 -0.002429
-0.000517 0.00061 -0.002462
-0.000542 0.000586 -0.002514
-0.000216 -2.7e-05 -0.002084
-0.000593 0.000547 -0.002597
-0.000618 0.000531 -0.002631
-0.000643 0.000517 -0.00266
0.000616 0.000581 -0.002481
0.000592 0.000595 -0.002449
0.000568 0.00061 -0.002418
0.000543 0.000619 -0.002398
0.000519 0.000625 -0.002386
0.000495 0.000628 -0.00238
0.00047 0.000628 -0.002378
0.001179 0.000685 -0.00212
0.001042 0.000616 -0.002803
0.000751 0.00071 -0.002675
0.000947 0.000588 -0.002831
0.000193 0.000526 -0.002878
-0.000191 -2.8e-05 -0.002085
-0.000167 -2.8e-05 -0.002086
0.001254 0.000747 -0.002089
0.000226 0.000606 -0.00281
0.000189 0.000385 -0.002896
0.000166 0.000362 -0.002944
0.000141 0.000346 -0.002979
0.000116 0.000342 -0.002987
9.1e-05 0.000341 -0.002989
6.7e-05 0.000341 -0.002989
4.2e-05 0.00034 -0.00299
1.7e-05 0.00034 -0.00299
-7e-06 0.00034 -0.002989
-3.2e-05 0.000342 -0.002985
-5.6e-05 0.000351 -0.002965
-8e-05 0.000367 -0.002932
-0.000104 0.000383 -0.002896
-0.000128 0.000401 -0.002857
-0.000142 -2.9e-05 -0.002088
-0.000343 0.000614 -0.002397
-0.000368 0.000616 -0.002393
-0.000392 0.000617 -0.002391
-0.000417 0.000616 -0.002393
-0.000442 0.000613 -0.002398
-0.000467 0.000608 -0.00241
-0.000491 0.000598 -0.002429
-0.000517 0.000583 -0.002463
-0.000542 0.000559 -0.002514
-0.000593 0.00052 -0.002596
-0.000618 0.000504 -0.002629
-0.000643 0.00049 -0.00266
-0.000668 0.000476 -0.002689
0.000613 0.000554 -0.002483
0.000592 0.000569 -0.002449
0.000568 0.000583 -0.002418
0.000544 0.000593 -0.002397
0.000519 0.000597 -0.002386
0.000495 0.0006 -0.00238
0.00047 0.000601 -0.002378
0.000445 0.000599 -0.002381
0.000823 0.00072 -0.002752
0.001199 0.000686 -0.002106
0.002199 0.000569 -0.001634
0.001065 0.000535 -0.002795
0.001019 0.000533 -0.002812
0.000188 0.000357 -0.002896
0.000166 0.000335 -0.002944
0.000141 0.000319 -0.002978
0.000116 0.000315 -0.002987
9.1e-05 0.000314 -0.002989
6.7e-05 0.000314 -0.002989
4.2e-05 0.000313 -0.00299
1.7e-05 0.000313 -0.00299
-7e-06 0.000313 -0.00299
-3.2e-05 0.000315 -0.002985
-5.6e-05 0.000324 -0.002965
-8e-05 0.000339 -0.002932
-0.000104 0.000357 -0.002895
-0.000128 0.000374 -0.002858
-0.000152 0.000399 -0.002803
-0.000343 0.000587 -0.002398
-0.000368 0.000589 -0.002393
-0.000392 0.00059 -0.002391
-0.000417 0.000589 -0.002393
-0.000442 0.000586 -0.002399
-0.000467 0.00058 -0.00241
-0.000492 0.000571 -0.002429
-0.000517 0.000555 -0.002463
-0.000542 0.000531 -0.002514
-0.000567 0.000509 -0.002561
-0.000593 0.000493 -0.002597
-0.000618 0.000478 -0.002628
-0.000643 0.000463 -0.00266
-0.000668 0.000449 -0.002689
0.000616 0.000527 -0.00248
0.000592 0.000541 -0.002449
0.000568 0.000556 -0.002417
0.000544 0.000565 -0.002397
0.000519 0.000571 -0.002385
0.000495 0.000573 -0.002379
0.00047 0.000573 -0.002378
0.000445 0.000572 -0.002381
0.000917 0.000681 -0.002815
0.001109 0.000588 -0.002754
0.001086 0.00062 -0.00278
0.00021 0.00062 -0.002845
0.001042 0.00048 -0.002803
0.001042 0.000534 -0.002804
0.000189 0.00033 -0.002895
0.000166 0.000308 -0.002945
0.000141 0.000292 -0.002978
0.000116 0.000288 -0.002987
9.1e-05 0.000287 -0.002988
6.7e-05 0.000287 -0.002989
4.2e-05 0.000286 -0.002989
1.7e-05 0.000286 -0.00299
-7e-06 0.000286 -0.002989
-3.2e-05 0.000288 -0.002985
-5.6e-05 0.000297 -0.002964
-8e-05 0.000312 -0.002932
-0.000104 0.000329 -0.002896
-0.000128 0.000347 -0.002858
-0.000152 0.000373 -0.002801
-0.000117 -2.9e-05 -0.002088
-0.000368 0.000562 -0.002394
-0.000392 0.000562 -0.002391
-0.000417 0.000562 -0.002393
-0.000442 0.000559 -0.002398
-0.000467 0.000554 -0.002409
-0.000492 0.000544 -0.002429
-0.000517 0.000528 -0.002463
-0.000542 0.000505 -0.002513
-0.000567 0.000482 -0.002561
-0.000593 0.000465 -0.002597
-0.000618 0.000451 -0.002628
-0.000643 0.000435 -0.00266
-0.000663 0.000422 -0.002694
0.000616 0.000499 -0.002481
0.000592 0.000514 -0.002449
0.000568 0.000529 -0.002416
0.000544 0.000538 -0.002397
0.000519 0.000543 -0.002385
0.000495 0.000546 -0.002379
0.00047 0.000546 -0.002378
0.000445 0.000545 -0.002381
0.00156 0.000723 -0.002268
0.001064 0.000618 -0.002793
0.000947 0.000616 -0.002829
0.000491 0.000739 -0.00238
-9.3e-05 -2.9e-05 -0.002089
-6.8e-05 -2.9e-05 -0.00209
0.001065 0.000481 -0.002794
0.00021 0.000647 -0.002845
0.000189 0.000303 -0.002896
0.000166 0.000281 -0.002944
0.000141 0.000265 -0.002978
0.000116 0.000261 -0.002987
9.1e-05 0.00026 -0.002989
6.7e-05 0.000259 -0.002989
4.2e-05 0.000259 -0.00299
1.7e-05 0.000259 -0.00299
-7e-06 0.000259 -0.002989
-3.2e-05 0.000261 -0.002985
-5.6e-05 0.00027 -0.002965
-8e-05 0.000285 -0.002932
-0.000104 0.000302 -0.002895
-0.000129 0.000319 -0.002858
-4.4e-05 -2.9e-05 -0.00209
-0.000368 0.000535 -0.002393
-0.000392 0.000535 -0.002391
-0.000417 0.000534 -0.002393
-0.000442 0.000532 -0.002398
-0.000467 0.000526 -0.00241
-0.000492 0.000517 -0.002428
-0.000517 0.000501 -0.002463
-0.000542 0.000477 -0.002515
-0.000567 0.000455 -0.002561
-0.000593 0.000438 -0.002598
-0.000618 0.000423 -0.002628
-0.000642 0.000408 -0.002661
0.000616 0.000472 -0.002481
0.000592 0.000487 -0.002449
0.000568 0.000502 -0.002416
0.000544 0.000511 -0.002396
0.000519 0.000516 -0.002385
0.000495 0.000519 -0.002379
0.00047 0.000519 -0.002378
0.000445 0.000517 -0.002381
0.00248 0.000628 -0.001655
0.000711 0.000711 -0.002624
0.000163 0.000637 -0.002945
0.000972 0.000451 -0.002828
0.001018 0.000452 -0.002812
0.001087 0.000565 -0.002783
0.000189 0.000276 -0.002895
0.000166 0.000255 -0.002942
0.000141 0.000238 -0.002978
0.000116 0.000234 -0.002986
9.1e-05 0.000233 -0.002989
6.7e-05 0.000232 -0.002989
4.2e-05 0.000232 -0.00299
1.7e-05 0.000232 -0.00299
-7e-06 0.000232 -0.002989
-3.2e-05 0.000234 -0.002984
-5.6e-05 0.000243 -0.002965
-8e-05 0.000258 -0.002932
-0.000104 0.000275 -0.002896
-0.000129 0.000292 -0.002858
-1.9e-05 -2.9e-05 -0.00209
6e-06 -2.9e-05 -0.002091
3e-05 -2.9e-05 -0.002091
-0.000368 0.000507 -0.002394
-0.000392 0.000508 -0.002392
-0.000417 0.000507 -0.002393
-0.000442 0.000505 -0.002398
-0.000467 0.000499 -0.00241
-0.000492 0.00049 -0.002429
-0.000517 0.000472 -0.002466
-0.000542 0.00045 -0.002514
-0.000567 0.000428 -0.002561
-0.000593 0.000411 -0.002598
-0.000618 0.000388 -0.002647
-0.000643 0.000378 -0.002667
0.000616 0.000445 -0.002481
0.000592 0.00046 -0.002448
0.000568 0.000475 -0.002416
0.000544 0.000484 -0.002396
0.000519 0.000489 -0.002385
0.000495 0.000492 -0.00238
0.00047 0.000492 -0.002378
0.001041 0.000644 -0.0028
0.001042 0.000589 -0.002803
0.00092 0.000568 -0.002824
0.001185 0.000742 -0.002118
0.000947 0.000452 -0.002832
5.5e-05 -2.9e-05 -0.002091
0.000272 0.000678 -0.002699
0.001018 0.000561 -0.002812
0.000188 0.000249 -0.002895
0.000166 0.000227 -0.002943
0.000141 0.000211 -0.002977
0.000116 0.000207 -0.002986
9.1e-05 0.000206 -0.002988
6.7e-05 0.000205 -0.002989
4.2e-05 0.000205 -0.00299
1.7e-05 0.000204 -0.00299
-7e-06 0.000205 -0.002989
-3.2e-05 0.000207 -0.002984
-5.6e-05 0.000216 -0.002964
-8e-05 0.000231 -0.002931
-0.000104 0.000248 -0.002895
-0.000129 0.000265 -0.002857
-0.000152 0.000291 -0.002801
8e-05 -2.9e-05 -0.00209
-0.000368 0.00048 -0.002393
-0.000392 0.000481 -0.002392
-0.000417 0.00048 -0.002393
-0.000442 0.000477 -0.002398
-0.000467 0.000472 -0.00241
-0.000492 0.000463 -0.002428
-0.000517 0.000446 -0.002464
-0.000542 0.000423 -0.002514
-0.000568 0.0004 -0.002563
-0.000593 0.000384 -0.002597
0.000104 -2.9e-05 -0.002091
0.000616 0.000418 -0.002481
0.000592 0.000433 -0.002449
0.000568 0.000448 -0.002416
0.000544 0.000457 -0.002396
0.000519 0.000462 -0.002385
0.000495 0.000465 -0.00238
0.00047 0.000465 -0.002378
0.000946 0.000645 -0.002826
0.001019 0.000588 -0.002812
0.000888 0.000581 -0.002803
0.002573 0.000587 -0.001528
0.000242 0.00062 -0.002775
0.000285 0.000695 -0.002656
0.000226 0.000661 -0.00281
0.001105 0.00057 -0.002764
0.000166 0.000199 -0.002944
0.000141 0.000184 -0.002976
0.000116 0.00018 -0.002985
9.1e-05 0.000179 -0.002987
6.7e-05 0.000178 -0.002989
4.2e-05 0.000178 -0.002989
1.7e-05 0.000177 -0.002989
-7e-06 0.000178 -0.002988
-3.2e-05 0.00018 -0.002983
-5.6e-05 0.000189 -0.002964
-8e-05 0.000204 -0.002931
-0.000105 0.000221 -0.002895
-0.000129 0.000238 -0.002857
-0.000152 0.000264 -0.002802
-0.000368 0.000453 -0.002393
-0.000392 0.000454 -0.002391
-0.000417 0.000453 -0.002393
-0.000442 0.00045 -0.002398
-0.000467 0.000445 -0.00241
-0.000492 0.000436 -0.002428
-0.000517 0.000419 -0.002465
-0.000542 0.000396 -0.002514
-0.000568 0.000374 -0.00256
-0.000593 0.000357 -0.002597
-0.000618 0.000341 -0.002631
-0.000643 0.000325 -0.002664
0.000616 0.000391 -0.002481
0.000592 0.000405 -0.00245
0.000568 0.00042 -0.002416
0.000544 0.00043 -0.002396
0.000519 0.000435 -0.002386
0.000494 0.000437 -0.002379
0.00047 0.000438 -0.002378
0.000919 0.000651 -0.002821
0.001065 0.00059 -0.002794
0.000226 0.000687 -0.002811
0.000856 0.000596 -0.002779
0.001136 0.000537 -0.002521
0.000257 0.000635 -0.002738
0.001139 0.000599 -0.002431
0.000285 0.000668 -0.002656
0.000823 0.000557 -0.002753
0.000166 0.000173 -0.002943
0.000141 0.000158 -0.002975
0.000116 0.000154 -0.002983
9.1e-05 0.000152 -0.002986
6.7e-05 0.000151 -0.002988
4.2e-05 0.000151 -0.002988
1.7e-05 0.000151 -0.002988
-7e-06 0.000152 -0.002986
-3.2e-05 0.000154 -0.002981
-5.6e-05 0.000162 -0.002962
