-0.002393 0.000688 0.001281
-0.002349 0.000597 0.001274
-0.002221 0.000696 0.001719
-0.001468 0.000698 0.002042
-0.001095 -1e-06 0.00191
-0.001074 -1e-06 0.001922
-0.001053 -0.0 0.001935
-0.001032 -0.0 0.001948
-0.000906 1e-06 0.002026
-0.000885 1e-06 0.002039
-0.000864 1e-06 0.002052
-0.000823 0.0 0.002079
-0.000802 1e-06 0.002092
-0.000781 2e-06 0.002104
-0.000759 2e-06 0.002116
-0.000739 2e-06 0.00213
-0.000862 -1.6e-05 0.001957
-0.002258 0.000684 0.00198
-0.002282 0.00069 0.001936
-0.002291 0.000585 0.001911
-0.002262 0.000515 0.001821
-0.002143 0.000478 0.002076
-0.002179 0.000466 0.002075
-0.002061 0.000739 0.001318
-0.002157 0.000724 0.002055
-0.001542 -3e-06 0.001558
-0.001523 -4e-06 0.001573
-0.001503 -4e-06 0.001587
-0.001483 -5e-06 0.001601
-0.001462 -5e-06 0.001615
-0.001442 -6e-06 0.001629
-0.002348 0.000706 0.001274
-0.001478 0.000737 0.002084
-0.001467 0.000753 0.002042
-0.002282 0.000489 0.001969
-0.002262 0.000569 0.001821
-0.002266 0.000598 0.001988
-0.002244 0.000672 0.001772
-0.00267 0.000546 0.000931
-0.002499 0.000693 0.000458
-0.002178 0.000721 0.002041
-0.002262 0.000719 0.001951
-0.001198 -1e-05 0.001796
-0.002209 0.000685 0.002036
-0.001156 -1e-05 0.001823
-0.001115 -1e-05 0.001849
-0.001094 -9e-06 0.001862
-0.001073 -9e-06 0.001875
-0.001052 -9e-06 0.001888
-0.000883 -6e-06 0.001989
-0.000861 -5e-06 0.002001
-0.00084 -5e-06 0.002014
-0.000818 -4e-06 0.002025
-0.000776 -3e-06 0.00205
-0.000754 -2e-06 0.002062
-0.000732 -1e-06 0.002073
-0.000711 -1e-06 0.002086
-0.002143 0.000451 0.002077
-0.002279 0.000603 0.001868
-0.002293 0.000574 0.001946
-0.002279 0.000494 0.001868
-0.002291 0.000477 0.001911
-0.0022 0.000463 0.002061
-0.002466 0.000718 0.001278
-0.002094 0.000635 0.002066
-0.00229 0.000667 0.00191
-0.002167 0.000691 0.002064
-0.002136 0.0007 0.00207
-0.001461 -1.3e-05 0.001568
-0.001442 -1.4e-05 0.001583
-0.001422 -1.5e-05 0.001597
-0.002179 0.000575 0.002075
-0.001382 -1.6e-05 0.001626
-0.001362 -1.7e-05 0.001641
-0.001342 -1.8e-05 0.001655
-0.001322 -1.8e-05 0.001669
-0.001301 -1.9e-05 0.001684
-0.001281 -1.9e-05 0.001698
-0.001261 -1.9e-05 0.001711
-0.001241 -2e-05 0.001726
-0.00122 -2e-05 0.001739
-0.001199 -2e-05 0.001752
-0.001179 -2e-05 0.001766
-0.001158 -2e-05 0.00178
-0.001137 -2e-05 0.001793
-0.001116 -2e-05 0.001805
-0.001096 -2e-05 0.001819
-0.001075 -2e-05 0.001832
-0.001054 -2e-05 0.001845
-0.001033 -1.9e-05 0.001858
-0.001012 -1.9e-05 0.001871
-0.000991 -1.9e-05 0.001883
-0.00097 -1.9e-05 0.001896
-0.000948 -1.8e-05 0.001909
-0.000927 -1.8e-05 0.001921
-0.000905 -1.7e-05 0.001933
-0.000884 -1.6e-05 0.001945
-0.002291 0.000423 0.001911
-0.002295 0.00041 0.001947
-0.002282 0.000408 0.001969
-0.002266 0.000408 0.001988
-0.00225 0.000408 0.002006
-0.002234 0.000408 0.002025
-0.002217 0.000408 0.002043
-0.0022 0.000409 0.002061
-0.00218 0.000411 0.002076
-0.002144 0.000423 0.002077
-0.002095 0.000444 0.002067
-0.001501 0.000691 0.001941
-0.001487 0.00069 0.001961
-0.001476 0.000687 0.001983
-0.001469 0.000681 0.002011
-0.001469 0.000671 0.002043
-0.001477 0.000656 0.002083
-0.001494 0.000635 0.002131
-0.002737 0.000513 0.001004
-0.002432 0.000538 0.001283
-0.002394 0.000552 0.001281
-0.002349 0.00057 0.001275
-0.002299 0.00059 0.001264
-0.002249 0.000611 0.001253
-0.0022 0.000631 0.001243
-0.002161 0.000646 0.001241
-0.002133 0.000653 0.00125
-0.00211 0.000657 0.001263
-0.002091 0.000659 0.001278
-0.002075 0.000659 0.001297
-0.00279 0.000666 0.001081
-0.00238 0.000759 0.000564
-0.002797 0.000548 0.001112
-0.002376 0.000736 0.000646
-0.002122 0.000692 0.001559
-0.002222 0.000478 0.00172
-0.002243 0.000455 0.001771
-0.002263 0.000433 0.001821
-0.002279 0.000412 0.001868
-0.00229 0.000396 0.00191
-0.002295 0.000383 0.001947
-0.002282 0.00038 0.001969
-0.002266 0.00038 0.001988
-0.00225 0.000381 0.002006
-0.002233 0.000381 0.002025
-0.002217 0.000381 0.002043
-0.0022 0.000381 0.002061
-0.00218 0.000384 0.002076
-0.002143 0.000396 0.002077
-0.002095 0.000417 0.002067
-0.002044 0.000439 0.00205
-0.001518 0.000664 0.001923
-0.001501 0.000664 0.00194
-0.001487 0.000663 0.00196
-0.001475 0.00066 0.001983
-0.001469 0.000654 0.00201
-0.001468 0.000644 0.002043
-0.001479 0.000627 0.002085
-0.001495 0.000608 0.002131
-0.002059 0.000735 0.001476
-0.002432 0.000511 0.001283
-0.002393 0.000525 0.001281
-0.002349 0.000542 0.001275
-0.0023 0.000563 0.001264
-0.002248 0.000585 0.001252
-0.0022 0.000605 0.001242
-0.002161 0.000618 0.001241
-0.002133 0.000626 0.00125
-0.00211 0.00063 0.001262
-0.002091 0.000632 0.001278
-0.002075 0.000632 0.001297
-0.002576 0.000718 0.001281
-0.003003 0.000473 0.00016
-0.00277 0.000546 0.001181
-0.00237 0.000734 0.000612
-0.002222 0.000451 0.00172
-0.002243 0.000428 0.001771
-0.00228 0.000385 0.001869
-0.00229 0.000368 0.001911
-0.002294 0.000356 0.001947
-0.002282 0.000353 0.001969
-0.002266 0.000353 0.001988
-0.00225 0.000354 0.002006
-0.002233 0.000354 0.002024
-0.002217 0.000354 0.002043
-0.0022 0.000354 0.002061
-0.00218 0.000357 0.002076
-0.002142 0.00037 0.002076
-0.002094 0.00039 0.002066
-0.002043 0.000412 0.002051
-0.001518 0.000637 0.001922
-0.001501 0.000637 0.00194
-0.001486 0.000636 0.00196
-0.001475 0.000633 0.001983
-0.001469 0.000626 0.00201
-0.001468 0.000617 0.002043
-0.00148 0.0006 0.002086
-0.001496 0.00058 0.002132
-0.002416 0.000663 -0.001365
-0.002432 0.000484 0.001283
-0.002394 0.000497 0.001281
-0.002349 0.000515 0.001275
-0.0023 0.000535 0.001265
-0.002247 0.000558 0.001251
-0.002199 0.000578 0.001242
-0.002161 0.000591 0.001241
-0.002133 0.000599 0.00125
-0.00211 0.000603 0.001262
-0.002091 0.000605 0.001278
-0.002074 0.000605 0.001297
-0.002673 0.000651 0.001271
-0.002773 0.000599 0.001046
-0.002789 0.000547 0.001135
-0.002789 0.000465 0.001136
-0.00209 0.000741 0.001517
-0.002672 0.000516 0.001271
-0.002222 0.000424 0.00172
-0.002243 0.000401 0.001771
-0.002263 0.000378 0.001822
-0.002279 0.000358 0.001868
-0.002291 0.000341 0.001911
-0.002294 0.000329 0.001947
-0.002282 0.000326 0.001969
-0.002266 0.000326 0.001988
-0.00225 0.000326 0.002006
-0.002233 0.000327 0.002024
-0.002217 0.000327 0.002043
-0.0022 0.000327 0.002061
-0.002179 0.00033 0.002076
-0.002142 0.000343 0.002076
-0.002094 0.000363 0.002066
-0.002044 0.000384 0.002052
-0.001517 0.00061 0.001922
-0.0015 0.00061 0.00194
-0.001486 0.000609 0.00196
-0.001474 0.000606 0.001982
-0.001468 0.0006 0.00201
-0.001468 0.000589 0.002043
-0.001479 0.000573 0.002085
-0.001495 0.000553 0.002132
-0.002767 0.00071 0.001043
-0.002432 0.000457 0.001283
-0.002394 0.00047 0.001281
-0.002347 0.000489 0.001274
-0.002301 0.000508 0.001266
-0.002247 0.000531 0.001251
-0.002198 0.000551 0.001241
-0.002161 0.000564 0.001241
-0.002133 0.000572 0.001249
-0.00211 0.000576 0.001262
-0.002091 0.000578 0.001278
-0.002074 0.000578 0.001297
-0.002672 0.0006 0.000931
-0.003 0.000498 0.000209
-0.00278 0.000547 0.001158
-0.002381 0.000761 0.000647
-0.00278 0.000465 0.001158
-0.002122 0.00072 0.001559
-0.00247 0.000626 0.001286
-0.00222 0.000397 0.001719
-0.002243 0.000373 0.001771
-0.002263 0.000351 0.001821
-0.002279 0.000331 0.001868
-0.002291 0.000314 0.001912
-0.002295 0.000301 0.001947
-0.002282 0.000299 0.001969
-0.002266 0.000299 0.001988
-0.00225 0.000299 0.002006
-0.002234 0.000299 0.002025
-0.002217 0.000299 0.002043
-0.0022 0.0003 0.002061
-0.00218 0.000302 0.002076
-0.002142 0.000315 0.002076
-0.002094 0.000335 0.002067
-0.002044 0.000357 0.002053
-0.001517 0.000582 0.001922
-0.0015 0.000583 0.001939
-0.001486 0.000582 0.00196
-0.001474 0.000579 0.001982
-0.001468 0.000572 0.00201
-0.001469 0.000562 0.002043
-0.001479 0.000546 0.002085
-0.001495 0.000526 0.002131
-0.002672 0.000543 0.001271
-0.002431 0.00043 0.001282
-0.002394 0.000443 0.001282
-0.002349 0.000461 0.001275
-0.0023 0.000481 0.001265
-0.002248 0.000503 0.001252
-0.002197 0.000525 0.00124
-0.002161 0.000537 0.001241
-0.002133 0.000545 0.00125
-0.00211 0.000549 0.001262
-0.002091 0.000551 0.001278
-0.002074 0.000551 0.001297
-0.002525 0.000739 0.001284
-0.002722 0.000547 0.000987
-0.002795 0.000554 0.001084
-0.002999 0.000585 0.000135
-0.002222 0.000369 0.00172
-0.002244 0.000346 0.001772
-0.002263 0.000324 0.001822
-0.002279 0.000304 0.001868
-0.002292 0.000286 0.001912
-0.002295 0.000274 0.001947
-0.002282 0.000272 0.001969
-0.002267 0.000272 0.001988
-0.00225 0.000272 0.002007
-0.002234 0.000272 0.002025
-0.002217 0.000272 0.002043
-0.0022 0.000273 0.002061
-0.002179 0.000276 0.002075
-0.002143 0.000288 0.002077
-0.002094 0.000308 0.002066
-0.002043 0.00033 0.002053
-0.001934 0.000378 0.00202
-0.001878 0.000402 0.002008
-0.001517 0.000555 0.001922
-0.0015 0.000556 0.001939
-0.001485 0.000555 0.001959
-0.001474 0.000552 0.001982
-0.001468 0.000545 0.00201
-0.001469 0.000535 0.002043
-0.00148 0.000518 0.002086
-0.001495 0.000499 0.002131
-0.002738 0.000721 0.001193
-0.002432 0.000403 0.001283
-0.002394 0.000416 0.001281
-0.002349 0.000433 0.001275
-0.002301 0.000454 0.001265
-0.002248 0.000476 0.001252
-0.002199 0.000496 0.001242
-0.00216 0.00051 0.001241
-0.002133 0.000517 0.00125
-0.00211 0.000522 0.001262
-0.00209 0.000524 0.001278
-0.002074 0.000523 0.001296
-0.00276 0.000628 0.001203
-0.00278 0.000574 0.001158
-0.002715 0.000553 0.001264
-0.002524 0.000603 0.001284
-0.002222 0.000342 0.00172
-0.002244 0.000318 0.001772
-0.00228 0.000276 0.001869
-0.002292 0.000259 0.001912
-0.002294 0.000247 0.001947
-0.002282 0.000245 0.001969
-0.002266 0.000245 0.001988
-0.00225 0.000245 0.002007
-0.002233 0.000245 0.002025
-0.002217 0.000245 0.002043
-0.0022 0.000246 0.002061
-0.002179 0.000248 0.002076
-0.002143 0.000261 0.002076
-0.002093 0.000281 0.002066
-0.002044 0.000302 0.002053
-0.001933 0.000351 0.00202
-0.001878 0.000375 0.002008
-0.001517 0.000528 0.001922
-0.0015 0.000529 0.001939
-0.001485 0.000528 0.001959
-0.001474 0.000524 0.001982
-0.001469 0.000518 0.00201
-0.001469 0.000507 0.002044
-0.001481 0.00049 0.002086
-0.001494 0.000472 0.002131
-0.002448 0.000718 -0.000326
-0.002432 0.000375 0.001283
-0.002394 0.000389 0.001281
-0.002348 0.000407 0.001274
-0.0023 0.000427 0.001265
-0.002245 0.00045 0.00125
-0.002199 0.000469 0.001242
-0.00216 0.000483 0.001241
-0.002132 0.00049 0.00125
-0.00211 0.000495 0.001262
-0.00209 0.000497 0.001278
-0.002074 0.000496 0.001296
-0.002735 0.00063 0.001246
-0.002715 0.000581 0.001264
-0.002576 0.000609 0.001281
-0.002796 0.000527 0.001084
-0.002222 0.000315 0.00172
-0.002245 0.000291 0.001773
-0.002262 0.00027 0.001821
-0.00228 0.000249 0.001869
-0.002292 0.000231 0.001913
-0.002294 0.00022 0.001947
-0.002282 0.000218 0.001969
-0.002266 0.000217 0.001988
-0.00225 0.000218 0.002006
-0.002233 0.000218 0.002024
-0.002217 0.000218 0.002043
-0.002199 0.000219 0.00206
-0.002179 0.000221 0.002075
-0.002143 0.000233 0.002077
-0.002092 0.000255 0.002065
-0.002043 0.000276 0.002051
-0.001933 0.000324 0.002019
-0.001876 0.000349 0.002006
-0.001517 0.000501 0.001922
-0.001499 0.000502 0.001939
-0.001485 0.000501 0.001959
-0.001475 0.000497 0.001983
-0.001469 0.000491 0.00201
-0.001469 0.00048 0.002044
-0.00148 0.000464 0.002086
-0.001495 0.000445 0.002131
-0.003002 0.00058 0.000184
-0.002431 0.000349 0.001282
-0.002394 0.000361 0.001282
-0.002348 0.00038 0.001274
-0.002299 0.0004 0.001264
-0.002199 0.000442 0.001242
-0.00216 0.000456 0.001241
-0.002132 0.000463 0.00125
-0.00211 0.000468 0.001262
-0.00209 0.000469 0.001278
-0.002074 0.000469 0.001296
-0.002672 0.000679 0.001271
-0.002714 0.000608 0.001263
-0.002952 0.000539 0.000326
-0.002553 0.000736 0.000537
-0.002789 0.000493 0.001135
-0.002222 0.000288 0.00172
-0.002246 0.000263 0.001774
-0.002263 0.000242 0.001821
-0.00228 0.000222 0.001869
-0.002292 0.000204 0.001913
-0.002293 0.000193 0.001946
-0.002281 0.000191 0.001968
-0.002266 0.00019 0.001988
-0.00225 0.00019 0.002006
-0.002233 0.000191 0.002025
-0.002217 0.000191 0.002043
-0.002199 0.000192 0.00206
-0.002178 0.000195 0.002075
-0.002143 0.000206 0.002077
-0.002093 0.000228 0.002065
-0.001517 0.000474 0.001922
-0.0015 0.000475 0.001939
-0.001485 0.000473 0.001959
-0.001475 0.00047 0.001983
-0.001469 0.000463 0.002011
-0.001469 0.000453 0.002043
-0.001481 0.000436 0.002086
-0.001495 0.000417 0.002132
-0.002771 0.000687 0.001154
-0.002431 0.000321 0.001282
-0.002395 0.000334 0.001282
-0.002348 0.000352 0.001274
-0.002298 0.000374 0.001263
-0.002247 0.000395 0.001251
-0.002198 0.000415 0.001241
-0.00216 0.000429 0.001241
-0.002133 0.000436 0.00125
-0.00211 0.00044 0.001262
-0.00209 0.000442 0.001278
-0.002074 0.000442 0.001296
-0.002479 0.000534 -0.001474
-0.002795 0.000609 0.001084
-0.00215 0.000754 0.001599
-0.002738 0.000547 0.001247
-0.00247 0.000571 0.001286
-0.002222 0.00026 0.00172
-0.002244 0.000237 0.001772
-0.002262 0.000216 0.001821
-0.002279 0.000195 0.001868
-0.002292 0.000177 0.001912
-0.002292 0.000167 0.001945
-0.00228 0.000164 0.001967
-0.002265 0.000164 0.001987
-0.002249 0.000163 0.002006
-0.002233 0.000164 0.002024
-0.002216 0.000164 0.002042
-0.002198 0.000165 0.002059
-0.002177 0.000168 0.002074
-0.002143 0.000179 0.002076
-0.002092 0.000201 0.002065
-0.001517 0.000447 0.001922
-0.0015 0.000448 0.001939
-0.001486 0.000446 0.00196
-0.001475 0.000443 0.001983
-0.001469 0.000436 0.00201
-0.001469 0.000426 0.002043
-0.001481 0.000409 0.002087
-0.001494 0.00039 0.002131
-0.002798 0.000466 0.001112
-0.002431 0.000294 0.001282
-0.002394 0.000307 0.001281
-0.002348 0.000325 0.001274
-0.002299 0.000346 0.001264
-0.002249 0.000367 0.001253
-0.002198 0.000388 0.001241
-0.002161 0.000401 0.001241
-0.002132 0.000409 0.00125
-0.00211 0.000413 0.001262
-0.00209 0.000415 0.001278
-0.002074 0.000415 0.001296
-0.002745 0.000657 0.001224
-0.00276 0.0006 0.001203
-0.002387 0.000758 0.00054
-0.002743 0.000589 0.001015
-0.002672 0.000488 0.001271
-0.002263 0.000188 0.001821
-0.00228 0.000168 0.001869
-0.002292 0.00015 0.001913
-0.00229 0.000141 0.001943
-0.002278 0.000139 0.001966
-0.002264 0.000137 0.001986
-0.002248 0.000137 0.002005
-0.002232 0.000137 0.002023
-0.002214 0.000138 0.002041
-0.002196 0.000139 0.002057
-0.002175 0.000142 0.002072
-0.002142 0.000152 0.002076
-0.002093 0.000173 0.002065
-0.001517 0.000419 0.001922
-0.0015 0.00042 0.00194
-0.001486 0.000419 0.00196
-0.001475 0.000415 0.001983
-0.001469 0.000409 0.002011
-0.001468 0.000399 0.002043
-0.00148 0.000382 0.002085
-0.001497 0.000364 0.002129
-0.002464 0.000257 0.001277
-0.002431 0.000267 0.001281
-0.002394 0.00028 0.001282
-0.002348 0.000298 0.001274
-0.0023 0.000318 0.001265
-0.002249 0.00034 0.001253
-0.002198 0.000361 0.001241
-0.00216 0.000374 0.001241
-0.002132 0.000382 0.001249
-0.00211 0.000386 0.001262
-0.00209 0.000388 0.001278
-0.002074 0.000388 0.001296
-0.002617 0.000602 0.000873
-0.002761 0.000573 0.001204
-0.002469 0.000653 0.001286
-0.002715 0.000472 0.001264
-0.002223 0.000206 0.001721
-0.002246 0.000181 0.001774
-0.002263 0.000161 0.001821
-0.002279 0.000141 0.001869
-0.00229 0.000124 0.001911
-0.002286 0.000116 0.00194
-0.002274 0.000114 0.001962
-0.00226 0.000112 0.001983
-0.002245 0.000112 0.002002
-0.002228 0.000112 0.00202
-0.002211 0.000113 0.002038
-0.002192 0.000115 0.002054
-0.002171 0.000117 0.002069
-0.002141 0.000126 0.002075
-0.002094 0.000145 0.002067
-0.001517 0.000392 0.001922
-0.0015 0.000393 0.00194
-0.001486 0.000392 0.00196
-0.001475 0.000388 0.001983
-0.001468 0.000382 0.00201
-0.001469 0.000372 0.002043
-0.001479 0.000355 0.002085
-0.001498 0.000336 0.00213
-0.002464 0.000229 0.001278
-0.002431 0.00024 0.001281
-0.002394 0.000253 0.001281
-0.002347 0.000272 0.001273
-0.002298 0.000292 0.001263
-0.002249 0.000312 0.001253
-0.002198 0.000334 0.001241
-0.00216 0.000347 0.001241
-0.002133 0.000354 0.00125
-0.002109 0.000359 0.001262
-0.00209 0.000361 0.001278
-0.002074 0.000361 0.001296
-0.002788 0.000629 0.001135
-0.002738 0.000574 0.001247
-0.002148 0.000728 0.001598
-0.002737 0.000567 0.001005
-0.002223 0.000178 0.001721
-0.002246 0.000154 0.001774
-0.002262 0.000134 0.001821
-0.002279 0.000114 0.001868
-0.002287 9.8e-05 0.001909
-0.002281 9.2e-05 0.001936
-0.002268 9e-05 0.001957
-0.002254 8.9e-05 0.001978
-0.002239 8.8e-05 0.001997
-0.002223 8.8e-05 0.002016
-0.002205 8.9e-05 0.002033
-0.002186 9.1e-05 0.002049
-0.002166 9.4e-05 0.002064
-0.002139 0.0001 0.002073
-0.002095 0.000118 0.002067
-0.001517 0.000365 0.001922
-0.0015 0.000366 0.00194
-0.001486 0.000365 0.00196
-0.001475 0.000361 0.001983
-0.001468 0.000355 0.00201
-0.001469 0.000345 0.002043
-0.001479 0.000328 0.002085
-0.001495 0.000308 0.002132
-0.002464 0.000202 0.001277
-0.002431 0.000213 0.001281
-0.002393 0.000226 0.001281
-0.002347 0.000244 0.001274
-0.002299 0.000264 0.001264
-0.002248 0.000285 0.001253
-0.002197 0.000307 0.001241
-0.00216 0.00032 0.001241
-0.002132 0.000327 0.00125
-0.002109 0.000332 0.001262
-0.00209 0.000334 0.001278
-0.002074 0.000333 0.001296
-0.002779 0.000628 0.001158
-0.00275 0.000573 0.001226
-0.002171 0.000711 0.001636
-0.002194 0.00064 0.001672
-0.002223 0.000151 0.001721
-0.002245 0.000128 0.001773
-0.002262 0.000107 0.001821
-0.002278 8.7e-05 0.001867
-0.002282 7.4e-05 0.001904
-0.002273 7e-05 0.001929
-0.002261 6.8e-05 0.00195
-0.002246 6.7e-05 0.001971
-0.002231 6.6e-05 0.00199
-0.002215 6.6e-05 0.002009
-0.002197 6.7e-05 0.002026
-0.002179 6.8e-05 0.002042
-0.002158 7.1e-05 0.002057
-0.002133 7.6e-05 0.002068
-0.001517 0.000338 0.001922
-0.0015 0.000339 0.00194
-0.001486 0.000337 0.00196
-0.001475 0.000334 0.001983
-0.001468 0.000328 0.00201
-0.001469 0.000318 0.002043
-0.00148 0.0003 0.002086
-0.001495 0.000281 0.002132
-0.002748 0.000721 0.001171
-0.00243 0.000186 0.001281
-0.002393 0.000199 0.001281
-0.002348 0.000217 0.001274
-0.0023 0.000237 0.001265
-0.002248 0.000259 0.001252
-0.002198 0.000279 0.001242
-0.00216 0.000293 0.001241
-0.002133 0.0003 0.00125
-0.002109 0.000305 0.001262
-0.00209 0.000306 0.001278
-0.002074 0.000306 0.001296
-0.002771 0.000654 0.001046
-0.002577 0.000636 0.001281
-0.002192 0.000695 0.001673
-0.003003 0.000582 0.000159
-0.002246 0.0001 0.001774
-0.002263 7.9e-05 0.001821
-0.002275 6.2e-05 0.001865
-0.002273 5.3e-05 0.001896
-0.002263 4.9e-05 0.00192
-0.00225 4.7e-05 0.001941
-0.002236 4.6e-05 0.001962
-0.00222 4.5e-05 0.001981
-0.002204 4.6e-05 0.001999
-0.002186 4.6e-05 0.002017
-0.002168 4.8e-05 0.002033
-0.002148 5e-05 0.002049
-0.002125 5.4e-05 0.002061
-0.001517 0.000311 0.001922
-0.0015 0.000311 0.00194
-0.001486 0.00031 0.00196
-0.001475 0.000307 0.001983
-0.001468 0.000301 0.00201
-0.001469 0.00029 0.002043
-0.001479 0.000274 0.002085
-0.001495 0.000254 0.002132
-0.002997 0.000469 0.000258
-0.002431 0.000158 0.001281
-0.002393 0.000171 0.001281
-0.002347 0.00019 0.001274
-0.002299 0.00021 0.001264
-0.002197 0.000253 0.001241
-0.00216 0.000266 0.001241
-0.002132 0.000273 0.00125
-0.002109 0.000277 0.001262
-0.00209 0.000279 0.001278
-0.002074 0.000279 0.001297
-0.002713 0.000636 0.001263
-0.00247 0.00068 0.001286
-0.002538 0.000749 0.000503
-0.002796 0.000445 0.001084
-0.002798 0.000439 0.001112
-0.00277 0.000492 0.001181
-0.00278 0.000492 0.001158
-0.002223 9.7e-05 0.001721
-0.002246 7.3e-05 0.001774
-0.00226 5.4e-05 0.00182
-0.002267 3.9e-05 0.001858
-0.002261 3.3e-05 0.001886
-0.00225 3e-05 0.001909
-0.002236 2.8e-05 0.001929
-0.002221 2.8e-05 0.001949
-0.002206 2.7e-05 0.001968
-0.00219 2.7e-05 0.001987
-0.002172 2.8e-05 0.002004
-0.002154 2.9e-05 0.002021
-0.002135 3.1e-05 0.002037
-0.002113 3.5e-05 0.00205
-0.001517 0.000284 0.001922
-0.0015 0.000284 0.00194
-0.001486 0.000283 0.00196
-0.001476 0.000279 0.001984
-0.001469 0.000273 0.00201
-0.001468 0.000263 0.002043
-0.001478 0.000247 0.002084
-0.001495 0.000227 0.002132
-0.002464 0.000121 0.001277
-0.00243 0.000132 0.001281
-0.002393 0.000145 0.001281
-0.002348 0.000163 0.001274
-0.002299 0.000183 0.001264
-0.002248 0.000204 0.001253
-0.002197 0.000226 0.00124
-0.002159 0.000239 0.00124
-0.002132 0.000246 0.00125
-0.00211 0.00025 0.001262
-0.00209 0.000252 0.001278
-0.002074 0.000252 0.001297
-0.002793 0.000637 0.001083
-0.002625 0.000616 0.001276
-0.002209 0.000681 0.001708
-0.002458 0.000709 0.000466
-0.002042 0.000739 0.001359
-0.002982 0.000527 0.000306
-0.002222 7e-05 0.00172
-0.002242 4.7e-05 0.001771
-0.002254 3e-05 0.001814
-0.002253 2.1e-05 0.001846
-0.002243 1.7e-05 0.00187
-0.002231 1.5e-05 0.001892
-0.002217 1.3e-05 0.001912
-0.002201 1.3e-05 0.001931
-0.002185 1.3e-05 0.00195
-0.002169 1.3e-05 0.001969
-0.002152 1.3e-05 0.001987
-0.002135 1.4e-05 0.002004
-0.002117 1.5e-05 0.002021
-0.002096 1.8e-05 0.002035
-0.002071 2.5e-05 0.002045
-0.001517 0.000256 0.001922
-0.0015 0.000257 0.00194
-0.001487 0.000256 0.001961
-0.001477 0.000252 0.001984
-0.001472 0.000246 0.002011
-0.001469 0.000236 0.002043
-0.001477 0.000221 0.002084
-0.001494 0.0002 0.002131
-0.002463 9.4e-05 0.001277
-0.002431 0.000104 0.001281
-0.002393 0.000117 0.001281
-0.002348 0.000135 0.001274
-0.0023 0.000155 0.001265
-0.002248 0.000177 0.001252
-0.002197 0.000198 0.001241
-0.002159 0.000212 0.00124
-0.002132 0.000219 0.00125
-0.00211 0.000223 0.001262
-0.002091 0.000225 0.001278
-0.002074 0.000224 0.001297
-0.002793 0.000632 0.00111
-0.002673 0.000597 0.001271
-0.002122 0.000747 0.001559
-0.002739 0.000465 0.001248
-0.002149 0.000646 0.001599
-0.002192 0.000722 0.001673
-0.00222 4.4e-05 0.001719
-0.002234 2.5e-05 0.001764
-0.002237 1.4e-05 0.001799
-0.002228 9e-06 0.001824
-0.002213 8e-06 0.001844
-0.002198 8e-06 0.001863
-0.002183 7e-06 0.001883
-0.002167 7e-06 0.001902
-0.002151 7e-06 0.00192
-0.002134 7e-06 0.001939
-0.002118 7e-06 0.001957
-0.002101 7e-06 0.001975
-0.002085 8e-06 0.001993
-0.002067 9e-06 0.002011
-0.002048 1.1e-05 0.002027
-0.001517 0.000229 0.001922
-0.0015 0.00023 0.00194
-0.001487 0.000228 0.001961
-0.001477 0.000225 0.001984
-0.001471 0.000219 0.00201
-0.001478 0.000193 0.002084
-0.001495 0.000172 0.002132
-0.002463 6.7e-05 0.001277
-0.002431 7.7e-05 0.001281
-0.002394 9e-05 0.001282
-0.002348 0.000108 0.001274
-0.002298 0.000129 0.001264
-0.002248 0.00015 0.001253
-0.002197 0.000171 0.001241
-0.002159 0.000185 0.00124
-0.002132 0.000192 0.001249
-0.002109 0.000196 0.001262
-0.00209 0.000198 0.001278
-0.002074 0.000197 0.001297
-0.00277 0.000628 0.001181
-0.002524 0.000658 0.001284
-0.002524 0.00063 0.001284
-0.002469 0.000599 0.001286
-0.002434 0.000743 0.000482
-0.002213 2.1e-05 0.001713
-0.002216 1e-05 0.001748
-0.002204 7e-06 0.00177
-0.002189 6e-06 0.00179
-0.002173 6e-06 0.001808
-0.002158 5e-06 0.001828
-0.002125 6e-06 0.001865
-0.002109 6e-06 0.001883
-0.002076 6e-06 0.00192
-0.002061 6e-06 0.001939
-0.002044 6e-06 0.001958
-0.002028 6e-06 0.001976
-0.002011 6e-06 0.001995
-0.001387 -2.8e-05 0.001579
-0.001517 0.000202 0.001922
-0.0015 0.000203 0.00194
-0.001486 0.000201 0.00196
-0.001476 0.000198 0.001984
-0.001469 0.000192 0.002011
-0.001473 0.000181 0.002043
-0.001404 -2.9e-05 0.001562
-0.002463 4e-05 0.001277
-0.002431 5e-05 0.001281
-0.002395 6.2e-05 0.001283
-0.002349 8e-05 0.001275
-0.002299 0.000101 0.001264
-0.002248 0.000123 0.001252
-0.002197 0.000144 0.001241
-0.00216 0.000157 0.00124
-0.002132 0.000165 0.001249
-0.002109 0.000169 0.001262
-0.00209 0.000171 0.001278
-0.002074 0.00017 0.001297
-0.002749 0.000628 0.001225
-0.002771 0.000573 0.001181
-0.002626 0.000589 0.001277
-0.00276 0.000519 0.001203
-0.002052 0.000765 0.001337
-0.00209 0.000687 0.001517
-0.00277 0.000465 0.001181
-0.00218 4e-06 0.001717
-0.002164 4e-06 0.001735
-0.002148 4e-06 0.001754
-0.002132 4e-06 0.001773
-0.002116 4e-06 0.001792
-0.002085 3e-06 0.00183
-0.002068 4e-06 0.001848
-0.002051 4e-06 0.001866
-0.002034 5e-06 0.001883
-0.002018 5e-06 0.001902
-0.002002 5e-06 0.001921
-0.001987 4e-06 0.00194
-0.001969 5e-06 0.001957
-0.001869 2.7e-05 0.002001
-0.001517 0.000175 0.001922
-0.0015 0.000175 0.00194
-0.001486 0.000174 0.00196
-0.001476 0.000171 0.001984
-0.001469 0.000164 0.002011
-0.001468 0.000155 0.002043
-0.001479 0.000138 0.002085
-0.001495 0.000118 0.002132
-0.002457 1.4e-05 0.001272
-0.002428 2.4e-05 0.001279
-0.002393 3.5e-05 0.001281
-0.002349 5.3e-05 0.001275
-0.0023 7.3e-05 0.001265
-0.002248 9.6e-05 0.001252
-0.002198 0.000116 0.001241
-0.00216 0.00013 0.001241
-0.002132 0.000137 0.00125
-0.002109 0.000142 0.001262
-0.00209 0.000143 0.001278
-0.002074 0.000143 0.001297
-0.002625 0.000698 0.001276
-0.002403 0.000752 0.000517
-0.00276 0.000546 0.001203
-0.00275 0.000519 0.001226
-0.002035 0.000764 0.001383
-0.002999 0.000443 0.000234
-0.00212 4e-06 0.001697
-0.002104 5e-06 0.001715
-0.002086 5e-06 0.001733
-0.002069 6e-06 0.00175
-0.002055 5e-06 0.001771
-0.002022 5e-06 0.001807
-0.002005 6e-06 0.001825
-0.001421 -2.9e-05 0.001544
-0.001438 -3e-05 0.001526
-0.001895 3e-06 0.001958
-0.001877 4e-06 0.001976
-0.001851 1.1e-05 0.001985
-0.001517 0.000148 0.001922
-0.0015 0.000148 0.00194
-0.001486 0.000147 0.00196
-0.001475 0.000144 0.001983
-0.001468 0.000138 0.00201
-0.001468 0.000128 0.002043
-0.001479 0.000111 0.002085
-0.001495 9.1e-05 0.002132
-0.002433 4e-06 0.001251
-0.002412 7e-06 0.001265
-0.002385 1.3e-05 0.001274
-0.002347 2.7e-05 0.001274
-0.0023 4.6e-05 0.001265
-0.002196 9e-05 0.00124
-0.00216 0.000103 0.001241
-0.002132 0.00011 0.001249
-0.002109 0.000115 0.001262
-0.00209 0.000116 0.001278
-0.002074 0.000116 0.001297
-0.002784 0.000658 0.001133
-0.00239 0.000692 0.00069
-0.002982 0.000554 0.000306
-0.002751 0.000491 0.001226
-0.002036 0.000758 0.001411
-0.002043 0.000764 0.00136
-0.002619 0.000684 0.00045
-0.001455 -3e-05 0.001508
-0.002079 3e-06 0.001661
-0.002065 2e-06 0.001681
-0.002048 2e-06 0.001699
-0.002032 1e-06 0.001718
-0.002015 2e-06 0.001736
-0.002 2e-06 0.001755
-0.001984 2e-06 0.001774
-0.001967 2e-06 0.001792
-0.00195 2e-06 0.00181
-0.001934 2e-06 0.001829
-0.001851 3e-06 0.00192
-0.001836 3e-06 0.001939
-0.001818 4e-06 0.001957
-0.001788 1.2e-05 0.001963
-0.001536 0.000118 0.001906
-0.001517 0.00012 0.001922
-0.0015 0.000121 0.00194
-0.001486 0.00012 0.00196
-0.001475 0.000117 0.001983
-0.001469 0.00011 0.002011
-0.001468 0.0001 0.002043
-0.001481 8.2e-05 0.002087
-0.001495 6.4e-05 0.002132
-0.002388 4e-06 0.001212
-0.002373 4e-06 0.001231
-0.002358 3e-06 0.001251
-0.002335 7e-06 0.001263
-0.00225 4e-05 0.001254
-0.002196 6.3e-05 0.00124
-0.00216 7.6e-05 0.001241
-0.002131 8.3e-05 0.001249
-0.002109 8.7e-05 0.001262
-0.00209 8.9e-05 0.001278
-0.002074 8.9e-05 0.001296
-0.00206 8.7e-05 0.001317
-0.00279 0.000661 0.001108
-0.002789 0.000574 0.001135
-0.002773 0.000544 0.001046
-0.001472 -3.1e-05 0.00149
-0.002034 3e-06 0.001622
-0.002016 4e-06 0.001639
-0.002001 4e-06 0.001658
-0.001986 3e-06 0.001678
-0.001968 4e-06 0.001695
-0.001953 3e-06 0.001714
-0.001936 4e-06 0.001732
-0.001904 4e-06 0.001769
-0.001886 4e-06 0.001787
-0.001793 2e-06 0.001902
-0.001777 3e-06 0.001921
-0.001536 9.2e-05 0.001906
-0.001517 9.3e-05 0.001922
-0.0015 9.4e-05 0.00194
-0.001485 9.3e-05 0.00196
-0.001475 8.9e-05 0.001983
-0.001468 8.3e-05 0.00201
-0.001468 7.3e-05 0.002043
-0.00148 5.6e-05 0.002086
-0.001496 3.6e-05 0.002133
-0.002349 2e-06 0.001177
-0.002332 2e-06 0.001195
-0.002315 3e-06 0.001213
-0.002193 0.000613 0.001673
-0.002525 0.000548 0.001284
-0.002247 1.4e-05 0.001252
-0.002197 3.5e-05 0.001241
-0.00216 4.9e-05 0.001241
-0.002131 5.6e-05 0.001249
-0.002108 6e-05 0.001261
-0.002089 6.2e-05 0.001277
-0.002073 6.2e-05 0.001296
-0.00206 6e-05 0.001317
-0.002048 5.7e-05 0.00134
-0.00275 0.0006 0.001226
-0.002378 0.0007 0.000662
-0.002074 1e-06 0.001493
-0.002057 2e-06 0.001511
-0.002039 3e-06 0.001528
-0.002023 3e-06 0.001547
-0.002006 3e-06 0.001565
-0.00199 4e-06 0.001583
-0.001974 3e-06 0.001602
-0.00196 2e-06 0.001622
-0.001943 3e-06 0.00164
-0.001926 3e-06 0.001658
-0.00191 3e-06 0.001677
-0.001894 3e-06 0.001695
-0.001489 -3.1e-05 0.001472
-0.001861 3e-06 0.001733
-0.001812 3e-06 0.001788
-0.001796 3e-06 0.001807
-0.00178 3e-06 0.001825
-0.001763 4e-06 0.001843
-0.001535 6.5e-05 0.001906
-0.001516 6.7e-05 0.001922
-0.001499 6.7e-05 0.00194
-0.001484 6.6e-05 0.001959
-0.001474 6.2e-05 0.001983
-0.001467 5.6e-05 0.00201
-0.001467 4.7e-05 0.002042
-0.00148 2.8e-05 0.002087
-0.002301 4e-06 0.001135
-0.002286 3e-06 0.001155
-0.00227 3e-06 0.001174
-0.002254 3e-06 0.001192
-0.00224 2e-06 0.001213
-0.002224 1e-06 0.001232
-0.002197 8e-06 0.001241
-0.002159 2.2e-05 0.00124
-0.002131 2.9e-05 0.001249
-0.002108 3.3e-05 0.001261
-0.002089 3.5e-05 0.001277
-0.002073 3.5e-05 0.001296
-0.002208 0.000736 0.001708
-0.002723 0.00069 0.00124
-0.002771 0.000491 0.001046
-0.002999 0.00047 0.000234
-0.001505 -3.1e-05 0.001454
-0.002039 -4e-06 0.001462
-0.002019 -2e-06 0.001478
-0.002002 -1e-06 0.001495
-0.001986 -1e-06 0.001514
-0.001967 1e-06 0.00153
-0.001951 0.0 0.001549
-0.001936 0.0 0.001569
-0.001522 -3.2e-05 0.001436
-0.001539 -3.2e-05 0.001418
-0.001774 -1e-06 0.001755
-0.001759 -1e-06 0.001774
-0.00174 1e-06 0.00179
-0.001724 0.0 0.001809
-0.001708 0.0 0.001828
-0.001692 0.0 0.001846
-0.001676 0.0 0.001865
-0.001555 -3.2e-05 0.0014
-0.001535 3.7e-05 0.001905
-0.001516 3.9e-05 0.001922
-0.001499 4e-05 0.001939
-0.001484 3.9e-05 0.001959
-0.001474 3.5e-05 0.001983
-0.001468 2.9e-05 0.00201
-0.00147 1.8e-05 0.002045
-0.001475 4e-06 0.002082
-0.001571 -3.2e-05 0.001381
-0.00223 1e-06 0.001138
-0.002215 0.0 0.001158
-0.002198 1e-06 0.001176
-0.002182 1e-06 0.001195
-0.002165 1e-06 0.001212
-0.002146 3e-06 0.001229
-0.002126 5e-06 0.001244
-0.002104 8e-06 0.001258
-0.002086 1e-05 0.001274
-0.00207 1e-05 0.001293
-0.002736 0.000486 0.001005
-0.002703 0.000695 0.001258
0.00078 -2e-05 0.001976
-0.001917 4e-06 0.001487
-0.001901 4e-06 0.001506
-0.001884 5e-06 0.001523
-0.001868 4e-06 0.001542
-0.001851 5e-06 0.00156
-0.001821 4e-06 0.001599
-0.001804 4e-06 0.001617
-0.001787 4e-06 0.001635
-0.001658 4e-06 0.001784
-0.001643 3e-06 0.001804
-0.001626 4e-06 0.001821
-0.001515 1.3e-05 0.001921
-0.001498 1.3e-05 0.001938
-0.001485 1.1e-05 0.00196
-0.001475 8e-06 0.001984
-0.001469 1e-06 0.002011
-0.001461 -4e-06 0.002037
-0.001443 -3e-06 0.002054
-0.001587 -3.2e-05 0.001362
-0.00278 0.000438 0.001158
-0.002165 4e-06 0.001115
-0.002149 4e-06 0.001133
-0.002042 0.000722 0.001441
-0.0021 4e-06 0.001188
-0.002084 4e-06 0.001208
-0.002069 3e-06 0.001227
-0.002052 4e-06 0.001245
-0.002037 3e-06 0.001264
-0.002021 3e-06 0.001283
0.000757 -2.1e-05 0.001985
0.000734 -2.1e-05 0.001993
-0.001603 -3.2e-05 0.001344
-0.001619 -3.2e-05 0.001325
-0.001635 -3.2e-05 0.001306
-0.001909 2e-06 0.001414
-0.001893 2e-06 0.001433
-0.001877 2e-06 0.001452
-0.001861 2e-06 0.00147
-0.001845 1e-06 0.001489
-0.001829 2e-06 0.001508
-0.001813 1e-06 0.001527
-0.001797 1e-06 0.001546
-0.001781 1e-06 0.001564
-0.001764 1e-06 0.001582
-0.001748 1e-06 0.001601
-0.001731 2e-06 0.001619
-0.001716 1e-06 0.001638
-0.00165 -3.1e-05 0.001287
-0.001666 -3.1e-05 0.001267
-0.001682 -3.1e-05 0.001248
-0.001615 3e-06 0.001747
-0.0016 2e-06 0.001766
-0.001584 3e-06 0.001784
-0.001697 -3e-05 0.001229
-0.001712 -3e-05 0.00121
-0.001388 4e-06 0.002006
-0.00137 5e-06 0.002023
-0.002191 0.000668 0.001673
-0.002171 0.000684 0.001636
-0.00217 0.00063 0.001636
-0.00206 0.000707 0.001476
-0.002739 0.000688 0.00122
-0.001728 -2.9e-05 0.001191
-0.002077 1e-06 0.001136
-0.002063 -0.0 0.001156
-0.002048 -1e-06 0.001176
-0.002033 -2e-06 0.001196
-0.002016 -1e-06 0.001213
-0.002001 -2e-06 0.001233
-0.001986 -2e-06 0.001252
-0.001743 -2.8e-05 0.001171
-0.002751 0.000687 0.001199
-0.002762 0.000687 0.001177
-0.001867 1e-06 0.001378
-0.001851 1e-06 0.001397
-0.001837 -1e-06 0.001417
-0.001821 -1e-06 0.001435
-0.001804 -0.0 0.001453
-0.001791 -2e-06 0.001475
-0.001775 -2e-06 0.001493
-0.001757 -1e-06 0.00151
-0.001742 -2e-06 0.00153
-0.001726 -2e-06 0.001549
-0.001709 -2e-06 0.001567
-0.001692 -1e-06 0.001584
-0.001675 -1e-06 0.001603
-0.001758 -2.8e-05 0.001152
-0.002738 0.000492 0.001248
-0.001516 -3e-06 0.001791
-0.0015 -2e-06 0.001809
-0.001482 -1e-06 0.001827
-0.001465 -1e-06 0.001844
-0.001449 -1e-06 0.001862
-0.001431 1e-06 0.00188
-0.002171 0.000657 0.001636
-0.0025 0.00072 0.000458
-0.002394 0.000749 0.00068
-0.002737 0.00054 0.001005
-0.002148 0.000701 0.001598
-0.002715 0.000526 0.001264
-0.001954 -0.0 0.001192
-0.001938 -0.0 0.00121
-0.001873 0.0 0.001285
-0.001856 0.0 0.001303
-0.001841 0.0 0.001322
-0.001824 0.0 0.00134
-0.001807 0.0 0.001358
-0.001788 3e-06 0.001374
-0.001756 2e-06 0.001412
-0.001741 2e-06 0.001431
-0.001694 0.0 0.001488
-0.001676 2e-06 0.001505
-0.00166 1e-06 0.001524
-0.001644 1e-06 0.001543
-0.001627 2e-06 0.00156
-0.001611 2e-06 0.001579
-0.002123 0.000665 0.00156
-0.001484 -0.0 0.00173
-0.001469 -0.0 0.00175
-0.001453 -0.0 0.001768
-0.001437 -0.0 0.001787
-0.001419 0.0 0.001804
-0.001403 0.0 0.001823
-0.001389 -1e-06 0.001843
-0.002458 0.000736 0.000466
-0.002761 0.000464 0.001204
-0.002796 0.000473 0.001084
-0.002795 0.0005 0.001084
-0.002625 0.000534 0.001277
-0.002091 0.000714 0.001517
-0.002038 0.000736 0.001384
-0.002037 0.000731 0.00141
-0.002575 0.000528 0.001281
-0.002625 0.000508 0.001276
-0.002503 0.000746 0.000459
-0.002758 0.000656 0.001202
-0.002768 0.000656 0.00118
-0.002789 0.000438 0.001135
-0.002725 0.000722 0.001214
-0.00269 0.000729 0.001252
-0.001827 1e-06 0.001244
-0.001811 1e-06 0.001263
-0.001796 0.0 0.001283
-0.00178 0.0 0.001302
-0.001765 -0.0 0.001321
-0.001749 -0.0 0.00134
-0.001733 -1e-06 0.001359
-0.002798 0.000494 0.001112
-0.002761 0.000492 0.001204
0.000711 -2.2e-05 0.002002
-0.001669 -2e-06 0.001434
-0.001653 -2e-06 0.001452
-0.001636 -1e-06 0.00147
-0.00162 -1e-06 0.001489
-0.001603 -1e-06 0.001507
-0.001587 -1e-06 0.001526
-0.00157 -0.0 0.001543
-0.001454 2e-06 0.001671
-0.001437 2e-06 0.001689
-0.001422 2e-06 0.001708
-0.001405 2e-06 0.001727
-0.001388 3e-06 0.001744
-0.001374 1e-06 0.001764
-0.001355 3e-06 0.001781
-0.00134 2e-06 0.001801
-0.001291 2e-06 0.001856
-0.001276 2e-06 0.001876
-0.001263 0.0 0.001896
-0.001246 0.0 0.001915
-0.002689 0.000707 0.000436
-0.002672 0.00057 0.001271
-0.002797 0.000576 0.001112
-0.00247 0.000707 0.001286
-0.002524 0.000684 0.001284
-0.002625 0.000562 0.001277
-0.002738 0.00052 0.001247
-0.002779 0.00052 0.001158
-0.002575 0.000691 0.00128
-0.002429 0.000738 -0.000251
-0.002777 0.000657 0.001157
-0.002644 0.000587 0.000903
-0.002629 0.000723 0.001278
-0.00271 0.000724 0.001234
-0.001826 -6e-06 0.001178
-0.002979 0.000595 0.000109
-0.002772 0.000463 0.001046
-0.00271 0.000665 0.001262
-0.001765 -7e-06 0.001255
-0.001748 -7e-06 0.001274
-0.001733 -8e-06 0.001293
-0.001718 -8e-06 0.001312
-0.001702 -8e-06 0.001331
-0.001685 -8e-06 0.00135
-0.00167 -9e-06 0.001369
-0.001654 -9e-06 0.001388
-0.001637 -9e-06 0.001406
-0.001621 -9e-06 0.001424
-0.001605 -9e-06 0.001443
-0.001588 -9e-06 0.001461
-0.001572 -9e-06 0.00148
-0.001556 -9e-06 0.001498
-0.00154 -9e-06 0.001517
-0.001523 -9e-06 0.001535
-0.001507 -8e-06 0.001554
-0.00149 -8e-06 0.001571
-0.001439 -7e-06 0.001626
-0.001421 -5e-06 0.001643
-0.001405 -5e-06 0.001661
-0.001388 -5e-06 0.001679
-0.001371 -4e-06 0.001697
-0.001354 -4e-06 0.001715
-0.001337 -3e-06 0.001732
-0.00132 -3e-06 0.00175
-0.001303 -2e-06 0.001768
-0.001286 -1e-06 0.001786
-0.001267 0.0 0.001802
-0.001249 1e-06 0.001819
-0.001233 1e-06 0.001837
-0.001218 -0.0 0.001858
-0.002788 0.00052 0.001135
-0.00275 0.000546 0.001226
-0.002795 0.000582 0.001084
-0.002576 0.000663 0.001281
-0.002189 0.00075 0.001672
-0.002577 0.000581 0.001281
-0.00277 0.000519 0.001181
-0.002525 0.000711 0.001284
-0.002625 0.00067 0.001276
-0.002796 0.000603 0.001111
-0.002737 0.000602 0.001247
-0.002789 0.000602 0.001135
-0.00267 0.000707 0.00127
-0.002771 0.000681 0.001045
-0.001797 -1.5e-05 0.001153
-0.001782 -1.5e-05 0.001173
-0.001767 -1.6e-05 0.001192
-0.001752 -1.7e-05 0.001212
-0.001737 -1.7e-05 0.001231
-0.001721 -1.8e-05 0.00125
-0.001706 -1.8e-05 0.001269
-0.00169 -1.9e-05 0.001289
-0.001674 -1.9e-05 0.001308
-0.001659 -1.9e-05 0.001326
-0.001643 -1.9e-05 0.001345
-0.001627 -2e-05 0.001364
-0.001611 -1.9e-05 0.001383
-0.001594 -1.9e-05 0.001401
-0.001578 -1.9e-05 0.001419
-0.001562 -1.9e-05 0.001438
-0.001546 -1.9e-05 0.001457
-0.001529 -1.9e-05 0.001475
-0.001513 -1.9e-05 0.001493
-0.001496 -1.8e-05 0.001511
-0.001478 -1.8e-05 0.001529
-0.001462 -1.8e-05 0.001547
-0.001445 -1.7e-05 0.001565
-0.001428 -1.7e-05 0.001583
-0.001411 -1.6e-05 0.001601
-0.001394 -1.6e-05 0.001618
-0.001377 -1.5e-05 0.001636
-0.001359 -1.4e-05 0.001654
-0.001342 -1.4e-05 0.001671
-0.001324 -1.3e-05 0.001689
-0.001307 -1.2e-05 0.001706
-0.001289 -1.1e-05 0.001723
-0.001272 -1e-05 0.001741
-0.001254 -9e-06 0.001758
-0.001237 -8e-06 0.001776
-0.001219 -7e-06 0.001793
-0.001201 -6e-06 0.00181
-0.001183 -5e-06 0.001827
-0.002894 0.00065 -0.000795
-0.002416 0.000747 0.0005
-0.002715 0.000499 0.001264
-0.002042 0.000749 0.00144
-0.002576 0.000554 0.001281
-0.002772 0.000517 0.001046
-0.00269 0.000625 0.000436
-0.00276 0.000437 0.001204
-0.002751 0.000437 0.001226
-0.002739 0.000438 0.001248
-0.002715 0.000445 0.001264
-0.002673 0.000461 0.001272
-0.002626 0.00048 0.001277
-0.002576 0.0005 0.001281
-0.002524 0.000522 0.001284
-0.002471 0.000544 0.001286
-0.002051 0.000712 0.001336
-0.002043 0.000711 0.001359
-0.002038 0.000709 0.001384
-0.002036 0.000704 0.00141
-0.002043 0.000694 0.001441
-0.002059 0.000681 0.001476
-0.002091 0.000659 0.001518
-0.002122 0.000638 0.001559
-0.00215 0.000618 0.001599
-0.002169 0.000603 0.001635
-0.002191 0.000587 0.001673
-0.00221 0.000571 0.001709
-0.002499 0.000666 0.000458
-0.002457 0.000682 0.000466
-0.00243 0.000691 0.000481
-0.002411 0.000696 0.000499
-0.002979 0.000637 0.000305
-0.002908 0.000673 -0.000686
-0.002908 0.000671 -0.000711
-0.002999 0.000637 0.000159
-0.003 0.000634 0.000209
-0.002953 0.000593 0.000326
-0.002918 0.000449 -0.000712
-0.002373 0.000731 0.000637
-0.002737 0.000458 0.001005
-0.002772 0.000436 0.001046
-0.002797 0.000418 0.001085
-0.002798 0.000412 0.001112
-0.002789 0.000411 0.001136
-0.00278 0.000411 0.001158
-0.00277 0.00041 0.001181
-0.002761 0.00041 0.001204
-0.002751 0.00041 0.001226
-0.002739 0.000411 0.001248
-0.002715 0.000418 0.001264
-0.002672 0.000434 0.001271
-0.002626 0.000453 0.001277
-0.002576 0.000473 0.001281
-0.002524 0.000494 0.001284
-0.00247 0.000517 0.001286
-0.002051 0.000685 0.001336
-0.002042 0.000684 0.001359
-0.002037 0.000681 0.001384
-0.002036 0.000676 0.001411
-0.002044 0.000667 0.001441
-0.002059 0.000653 0.001476
-0.00209 0.000633 0.001517
-0.002122 0.000611 0.001559
-0.002149 0.000591 0.001599
-0.002169 0.000576 0.001635
-0.002192 0.000559 0.001673
-0.00221 0.000544 0.001709
-0.002543 0.000621 0.000451
-0.002498 0.00064 0.000457
-0.002458 0.000655 0.000466
-0.00243 0.000664 0.000481
-0.002411 0.000669 0.000499
-0.002965 0.000698 0.000303
-0.002994 0.000662 0.000233
-0.002991 0.000662 0.000257
-0.002721 0.000736 0.000989
-0.002721 0.00071 0.000987
-0.002784 0.000639 0.0004
-0.002912 0.000475 0.000345
-0.002385 0.000732 0.000539
-0.002737 0.000431 0.001005
-0.002773 0.000408 0.001046
-0.002796 0.000391 0.001085
-0.002798 0.000385 0.001112
-0.002789 0.000384 0.001135
-0.002779 0.000384 0.001158
-0.00277 0.000383 0.001181
-0.00276 0.000383 0.001203
-0.00275 0.000383 0.001226
-0.002739 0.000383 0.001248
-0.002714 0.000391 0.001264
-0.002671 0.000407 0.001271
-0.002626 0.000425 0.001277
-0.002576 0.000446 0.001281
-0.002523 0.000468 0.001284
-0.002472 0.000489 0.001287
-0.002063 0.000657 0.001315
-0.002051 0.000658 0.001336
-0.002042 0.000657 0.001359
-0.002036 0.000654 0.001384
-0.002036 0.000649 0.001411
-0.002044 0.00064 0.001441
-0.002061 0.000626 0.001477
-0.002091 0.000605 0.001518
-0.002122 0.000584 0.001559
-0.002147 0.000565 0.001598
-0.00217 0.000548 0.001636
-0.002192 0.000532 0.001673
-0.002545 0.000594 0.000452
-0.002498 0.000612 0.000457
-0.002458 0.000628 0.000466
-0.002431 0.000636 0.000481
-0.002411 0.000641 0.000499
-0.002396 0.000644 0.000519
-0.002384 0.000644 0.00054
-0.002986 0.000693 0.000231
-0.002691 0.000752 0.000959
-0.002784 0.000693 0.0004
-0.002764 0.000604 0.001045
-0.002871 0.00052 0.000364
-0.002398 0.000727 0.000516
-0.002737 0.000404 0.001005
-0.002772 0.000381 0.001046
-0.002796 0.000364 0.001084
-0.002798 0.000358 0.001112
-0.002789 0.000357 0.001136
-0.00278 0.000356 0.001158
-0.00277 0.000356 0.001181
-0.00276 0.000356 0.001204
-0.00275 0.000356 0.001226
-0.002738 0.000356 0.001248
-0.002715 0.000363 0.001264
-0.002672 0.00038 0.001271
-0.002625 0.000399 0.001276
-0.002575 0.000419 0.001281
-0.002523 0.00044 0.001284
-0.002472 0.000461 0.001287
-0.002063 0.000629 0.001314
-0.00205 0.000631 0.001336
-0.002041 0.00063 0.001359
-0.002036 0.000627 0.001384
-0.002036 0.000622 0.001411
-0.002043 0.000613 0.001441
-0.002062 0.000598 0.001477
-0.002092 0.000577 0.001518
-0.002122 0.000557 0.001559
-0.002148 0.000538 0.001598
-0.002169 0.000522 0.001635
-0.002193 0.000504 0.001673
-0.002545 0.000566 0.000452
-0.002498 0.000585 0.000457
-0.002458 0.0006 0.000466
-0.002431 0.000609 0.000481
-0.00241 0.000614 0.000499
-0.002395 0.000617 0.000518
-0.002384 0.000617 0.00054
-0.002988 0.000694 0.000207
-0.002998 0.000633 0.000233
-0.002551 0.000745 0.000814
-0.002996 0.000524 0.000258
-0.002905 0.000559 6e-05
-0.002689 0.000599 0.000436
-0.002738 0.000376 0.001006
-0.002773 0.000354 0.001047
-0.002795 0.000337 0.001084
-0.002798 0.000331 0.001112
-0.002789 0.00033 0.001135
-0.002779 0.000329 0.001158
-0.00277 0.000329 0.001181
-0.00276 0.000329 0.001204
-0.00275 0.000328 0.001226
-0.002739 0.000329 0.001248
-0.002714 0.000336 0.001264
-0.002671 0.000353 0.001271
-0.002624 0.000372 0.001276
-0.002574 0.000392 0.00128
-0.002523 0.000413 0.001284
-0.002471 0.000435 0.001287
-0.002062 0.000602 0.001314
-0.00205 0.000603 0.001336
-0.002041 0.000603 0.001359
-0.002036 0.0006 0.001383
-0.002036 0.000594 0.001411
-0.002044 0.000585 0.001441
-0.002062 0.000571 0.001477
-0.002122 0.000529 0.001559
-0.002147 0.000511 0.001598
-0.002169 0.000495 0.001635
-0.002192 0.000478 0.001673
-0.002209 0.000463 0.001708
-0.002543 0.00054 0.000451
-0.002498 0.000558 0.000457
-0.002458 0.000573 0.000466
-0.00243 0.000582 0.000481
-0.00241 0.000587 0.000498
-0.002395 0.00059 0.000518
-0.002383 0.00059 0.00054
-0.002912 0.000719 0.000345
-0.002936 0.000645 7.7e-05
-0.003001 0.000552 0.000209
-0.002871 0.000574 0.000364
-0.002871 0.000547 0.000364
-0.002645 0.000614 0.000903
-0.002738 0.000577 0.000418
-0.002739 0.000348 0.001006
-0.002773 0.000327 0.001047
-0.002796 0.00031 0.001084
-0.002797 0.000304 0.001112
-0.002789 0.000302 0.001136
-0.00278 0.000302 0.001158
-0.00277 0.000302 0.001181
-0.002761 0.000301 0.001204
-0.002751 0.000301 0.001226
-0.002738 0.000302 0.001248
-0.002715 0.000309 0.001264
-0.002671 0.000326 0.001271
-0.002624 0.000345 0.001276
-0.002575 0.000365 0.001281
-0.002523 0.000386 0.001284
-0.00247 0.000408 0.001286
-0.002062 0.000575 0.001314
-0.00205 0.000576 0.001336
-0.002041 0.000576 0.001359
-0.002036 0.000573 0.001383
-0.002036 0.000567 0.001411
-0.002042 0.000559 0.001441
-0.002063 0.000543 0.001477
-0.002093 0.000522 0.001519
-0.002121 0.000502 0.001559
-0.002147 0.000484 0.001598
-0.002169 0.000467 0.001636
-0.002192 0.00045 0.001673
-0.002209 0.000436 0.001708
-0.002541 0.000514 0.00045
-0.002498 0.000531 0.000457
-0.002457 0.000546 0.000466
-0.00243 0.000555 0.00048
-0.00241 0.00056 0.000498
-0.002395 0.000563 0.000518
-0.002383 0.000563 0.00054
-0.002945 0.000706 0.000325
-0.002999 0.000606 0.000233
-0.00272 0.000655 0.000989
-0.003 0.000525 0.000209
-0.002461 0.000709 0.00075
-0.002373 0.000734 0.000587
-0.002618 0.000629 0.000874
-0.002993 0.000523 0.000283
-0.002739 0.000322 0.001005
-0.002772 0.0003 0.001046
-0.002796 0.000282 0.001084
-0.002797 0.000277 0.001112
-0.002789 0.000275 0.001135
-0.002779 0.000275 0.001158
-0.00277 0.000274 0.001181
-0.00276 0.000274 0.001204
-0.002751 0.000274 0.001226
-0.002738 0.000275 0.001248
-0.002715 0.000282 0.001264
-0.002671 0.000299 0.001271
-0.002623 0.000318 0.001276
-0.002574 0.000338 0.00128
-0.002523 0.000359 0.001284
-0.002469 0.000381 0.001286
-0.002062 0.000548 0.001314
-0.002049 0.000549 0.001336
-0.00204 0.000549 0.001358
-0.002036 0.000546 0.001383
-0.002035 0.00054 0.001411
-0.002043 0.000531 0.001441
-0.002062 0.000516 0.001477
-0.002093 0.000495 0.001519
-0.002122 0.000475 0.001559
-0.002147 0.000457 0.001598
-0.002169 0.00044 0.001636
-0.002193 0.000422 0.001674
-0.002542 0.000486 0.000451
-0.002498 0.000503 0.000457
-0.002457 0.00052 0.000465
-0.00243 0.000528 0.000481
-0.00241 0.000533 0.000498
-0.002394 0.000536 0.000518
-0.002383 0.000536 0.00054
-0.002376 0.000534 0.000564
-0.002979 0.000623 0.000109
-0.002645 0.000696 0.000902
-0.003003 0.000527 0.00016
-0.003002 0.000472 0.000184
-0.002436 0.000764 -0.000275
-0.002372 0.00076 0.000612
-0.002738 0.000295 0.001006
-0.002773 0.000272 0.001047
-0.002795 0.000256 0.001084
-0.002797 0.000249 0.001112
-0.002789 0.000248 0.001136
-0.00278 0.000248 0.001158
-0.00277 0.000247 0.001181
-0.00276 0.000247 0.001204
-0.00275 0.000247 0.001226
-0.002738 0.000248 0.001248
-0.002714 0.000255 0.001264
-0.002671 0.000272 0.001271
-0.002623 0.000291 0.001276
-0.002574 0.000311 0.00128
-0.002523 0.000332 0.001284
-0.002469 0.000354 0.001286
-0.002062 0.000521 0.001314
-0.00205 0.000522 0.001336
-0.002041 0.000521 0.001359
-0.002036 0.000518 0.001384
-0.002035 0.000513 0.001411
-0.002043 0.000504 0.001441
-0.002062 0.000489 0.001477
-0.002092 0.000468 0.001518
-0.002122 0.000448 0.001559
-0.002146 0.00043 0.001598
-0.002171 0.000412 0.001636
-0.002194 0.000395 0.001674
-0.002209 0.000382 0.001708
-0.002541 0.000459 0.00045
-0.002498 0.000476 0.000458
-0.002457 0.000492 0.000466
-0.00243 0.000501 0.00048
-0.00241 0.000506 0.000498
-0.002395 0.000508 0.000518
-0.002383 0.000509 0.00054
-0.002376 0.000507 0.000564
-0.003001 0.000635 0.000184
-0.002585 0.000728 0.000844
-0.002737 0.000659 0.000418
-0.002697 0.000587 0.000959
-0.002434 0.000763 -0.00025
-0.002441 0.000763 -0.000299
-0.002737 0.000605 0.000418
-0.002953 0.000566 0.000326
-0.002773 0.000245 0.001047
-0.002795 0.000228 0.001084
-0.002796 0.000223 0.001112
-0.002789 0.000221 0.001136
-0.00278 0.000221 0.001158
-0.00277 0.00022 0.001181
-0.00276 0.00022 0.001204
-0.00275 0.00022 0.001226
-0.002738 0.000221 0.001247
-0.002714 0.000228 0.001264
-0.00267 0.000245 0.001271
-0.002623 0.000264 0.001276
-0.002574 0.000284 0.00128
-0.002523 0.000305 0.001284
-0.002469 0.000327 0.001286
-0.002062 0.000494 0.001314
-0.00205 0.000495 0.001336
-0.002041 0.000494 0.001359
-0.002036 0.000491 0.001384
-0.002035 0.000486 0.001411
-0.002043 0.000477 0.001441
-0.002062 0.000462 0.001477
-0.002093 0.000441 0.001519
-0.002122 0.00042 0.00156
-0.002146 0.000403 0.001598
-0.002171 0.000385 0.001636
-0.002194 0.000368 0.001674
-0.002209 0.000354 0.001709
-0.002543 0.000432 0.000451
-0.002497 0.000449 0.000457
-0.002457 0.000465 0.000465
-0.00243 0.000473 0.00048
-0.00241 0.000479 0.000498
-0.002394 0.000481 0.000518
-0.002383 0.000482 0.00054
-0.002376 0.00048 0.000564
-0.002952 0.000648 0.000326
-0.002993 0.000578 0.000282
-0.002997 0.000551 0.000258
-0.002463 0.000736 0.00075
-0.002583 0.000674 0.000843
-0.002773 0.000218 0.001047
-0.002795 0.000201 0.001084
-0.002796 0.000196 0.001111
-0.002789 0.000194 0.001135
-0.00278 0.000193 0.001158
-0.00277 0.000193 0.001181
-0.00276 0.000193 0.001204
-0.00275 0.000193 0.001226
-0.002737 0.000194 0.001247
-0.002713 0.000201 0.001263
-0.002671 0.000218 0.001271
-0.002573 0.000257 0.00128
-0.002523 0.000277 0.001284
-0.002469 0.0003 0.001286
-0.002062 0.000467 0.001314
-0.00205 0.000468 0.001336
-0.002041 0.000467 0.001359
-0.002036 0.000464 0.001383
-0.002035 0.000459 0.001411
-0.002043 0.00045 0.001441
-0.002062 0.000434 0.001477
-0.002093 0.000414 0.001519
-0.002124 0.000392 0.00156
-0.002147 0.000375 0.001598
-0.002171 0.000357 0.001637
-0.002194 0.00034 0.001674
-0.00221 0.000327 0.001709
-0.002543 0.000404 0.000451
-0.002497 0.000423 0.000457
-0.002456 0.000438 0.000465
-0.00243 0.000446 0.00048
-0.002409 0.000452 0.000498
-0.002394 0.000454 0.000518
-0.002383 0.000454 0.00054
-0.002896 0.000513 -0.000796
-0.002695 0.000723 0.00096
-0.002871 0.000655 0.000364
-0.002999 0.000557 0.000135
-0.003 0.000444 0.000209
