-0.000202 3e-05 -0.002786
-0.000217 4.1e-05 -0.002756
-0.000233 5.4e-05 -0.002723
-0.000247 6.7e-05 -0.002687
-0.000258 8.8e-05 -0.002638
-0.000267 0.00011 -0.002585
-0.000277 0.000133 -0.002532
-0.000289 0.000151 -0.002488
-0.000306 0.000161 -0.002459
-0.000326 0.000167 -0.00244
-0.000348 0.00017 -0.002427
-0.00037 0.000171 -0.002417
-0.000394 0.00017 -0.002412
1.8e-05 0.000694 -0.002989
-0.000129 0.00066 -0.002943
9.1e-05 0.000584 -0.002993
0.000397 0.000736 -0.002412
-8.1e-05 0.000472 -0.002997
-0.000678 2e-05 -0.002661
-0.000708 9e-06 -0.002677
-0.000733 8e-06 -0.002673
-0.000756 8e-06 -0.002666
-0.00078 7e-06 -0.00266
-0.000804 7e-06 -0.002652
-0.000827 8e-06 -0.002645
-0.000743 -2.6e-05 -0.001952
-0.000719 -2.6e-05 -0.00196
-0.000898 7e-06 -0.002624
-0.000922 7e-06 -0.002616
-0.000945 7e-06 -0.002609
-0.000969 7e-06 -0.002601
-0.001187 0.000184 -0.00214
-0.00121 0.000184 -0.002132
-0.001235 0.000182 -0.002128
-0.001261 0.000178 -0.002129
-0.001289 0.000171 -0.002136
-0.00132 0.000159 -0.002154
1.7e-05 0.000499 -0.003
-0.000617 0.000718 -0.00258
-0.000214 1.9e-05 -0.002746
-0.000232 2.8e-05 -0.00272
-0.000248 4e-05 -0.002689
-0.000257 6.2e-05 -0.002636
-0.000289 0.000124 -0.002487
-0.000306 0.000134 -0.002459
-0.000326 0.00014 -0.00244
-0.000348 0.000143 -0.002427
-0.00037 0.000144 -0.002417
-0.000394 0.000143 -0.002412
4.2e-05 0.000695 -0.002987
-7e-06 0.000634 -0.003
0.000142 0.000615 -0.002926
6.7e-05 0.000526 -0.002999
-0.000667 0.000712 -0.00265
-0.000667 1e-05 -0.002628
-0.000692 7e-06 -0.002625
-0.000716 7e-06 -0.002619
-0.00074 7e-06 -0.002612
-0.000787 7e-06 -0.002597
-0.00081 7e-06 -0.002589
-0.000881 8e-06 -0.002567
-0.000904 7e-06 -0.00256
-0.000928 8e-06 -0.002552
-0.000952 6e-06 -0.002548
-0.000976 7e-06 -0.00254
-0.000999 7e-06 -0.002532
-0.001092 9e-06 -0.0025
-0.001107 2.1e-05 -0.00247
-0.001187 0.000157 -0.002139
-0.00121 0.000157 -0.002132
-0.001235 0.000155 -0.002128
-0.001261 0.000151 -0.002129
-0.001289 0.000144 -0.002136
-0.00132 0.000131 -0.002154
-0.00018 8e-06 -0.00272
-0.000204 8e-06 -0.002712
-0.000225 1.1e-05 -0.002699
-0.000245 1.7e-05 -0.002678
-0.000259 3.2e-05 -0.002641
-0.000696 -2.6e-05 -0.001967
-0.000289 9.7e-05 -0.002487
-0.000306 0.000107 -0.002459
-0.000326 0.000112 -0.002441
-0.000348 0.000116 -0.002427
-0.00037 0.000117 -0.002417
-0.000395 0.000116 -0.002412
0.00019 0.000715 -0.002828
1.8e-05 0.000634 -0.003
1.7e-05 0.00058 -0.003
-0.000154 0.000544 -0.0029
-0.000629 6e-06 -0.002586
-0.000653 5e-06 -0.002581
-0.000677 5e-06 -0.002575
-0.0007 5e-06 -0.002566
-0.000724 5e-06 -0.002559
-0.000673 -2.7e-05 -0.001975
-0.000771 5e-06 -0.002546
-0.000795 4e-06 -0.002541
-0.000649 -2.7e-05 -0.001983
-0.000625 -2.7e-05 -0.00199
-0.000865 5e-06 -0.002517
-0.000889 5e-06 -0.00251
-0.000912 6e-06 -0.002501
-0.000935 6e-06 -0.002494
-0.000959 5e-06 -0.002486
-0.000982 6e-06 -0.002479
-0.001006 6e-06 -0.002471
-0.000602 -2.7e-05 -0.001997
-0.000578 -2.7e-05 -0.002004
-0.001076 6e-06 -0.00245
-0.001099 8e-06 -0.002438
-0.001187 0.000129 -0.002139
-0.00121 0.00013 -0.002132
-0.001235 0.000128 -0.002128
-0.001261 0.000124 -0.002131
-0.001288 0.000117 -0.002137
-0.00132 0.000104 -0.002154
0.000142 0.000724 -0.002925
-0.000164 6e-06 -0.002667
-0.000188 6e-06 -0.002661
-7e-06 0.000727 -0.002977
-0.000235 6e-06 -0.002646
-0.000255 1.2e-05 -0.002628
-0.000289 7e-05 -0.002487
-0.000306 8e-05 -0.002458
-0.000326 8.5e-05 -0.002441
-0.000348 8.9e-05 -0.002427
-0.00037 9e-05 -0.002417
-0.000394 8.9e-05 -0.002412
-0.000419 8.6e-05 -0.002408
0.000116 0.000596 -0.002968
-0.000417 0.000767 -0.002417
0.000117 0.00071 -0.002957
-0.000614 3e-06 -0.002537
-0.000636 4e-06 -0.002527
-0.000555 -2.7e-05 -0.002011
-0.000531 -2.6e-05 -0.002018
-0.000507 -2.6e-05 -0.002025
-0.000484 -2.6e-05 -0.002031
-0.000966 5e-06 -0.002425
-0.000989 5e-06 -0.002418
-0.00106 5e-06 -0.002397
-0.001083 6e-06 -0.002386
-0.001143 9.8e-05 -0.002163
-0.001164 0.000101 -0.00215
-0.001187 0.000103 -0.002139
-0.00121 0.000103 -0.002131
-0.001234 0.000101 -0.002127
-0.001261 9.7e-05 -0.00213
-0.001288 9e-05 -0.002137
-8e-05 0.000733 -0.002963
-0.000148 4e-06 -0.002615
-0.000172 4e-06 -0.002609
-0.000218 5e-06 -0.002592
-0.000241 6e-06 -0.002584
-0.000263 9e-06 -0.002569
-0.000277 2.3e-05 -0.002533
-0.000288 4.3e-05 -0.002486
-0.000306 5.3e-05 -0.002459
-0.000326 5.8e-05 -0.00244
-0.000348 6.2e-05 -0.002427
-0.00037 6.2e-05 -0.002417
-0.000394 6.1e-05 -0.002412
-0.000419 5.9e-05 -0.002408
-0.000153 0.00068 -0.002899
1.7e-05 0.000526 -0.003
-0.00046 -2.5e-05 -0.002038
-0.000436 -2.5e-05 -0.002044
-0.000666 5e-06 -0.002455
-0.000689 5e-06 -0.002448
-0.000713 5e-06 -0.002442
-0.000736 5e-06 -0.002434
-0.00076 5e-06 -0.002427
-0.000784 5e-06 -0.00242
-0.000807 5e-06 -0.002411
-0.000412 -2.4e-05 -0.00205
-0.000972 5e-06 -0.002361
-0.001066 6e-06 -0.002332
-0.001088 7e-06 -0.002321
-0.001122 6.5e-05 -0.00218
-0.001143 7.1e-05 -0.002162
-0.001164 7.3e-05 -0.002149
-0.001187 7.5e-05 -0.002139
-0.00121 7.6e-05 -0.002131
-0.001235 7.4e-05 -0.002126
-0.001261 6.9e-05 -0.002129
-0.001289 6.3e-05 -0.002135
-0.00132 5.1e-05 -0.002152
-0.000466 0.000741 -0.002418
-0.00013 6e-06 -0.002557
-0.000154 5e-06 -0.002551
-0.000177 6e-06 -0.002543
0.000371 0.000743 -0.002421
-0.000225 4e-06 -0.002532
-0.000249 4e-06 -0.002525
-0.000271 6e-06 -0.002514
-0.000289 1.5e-05 -0.002487
-0.000306 2.6e-05 -0.002458
-0.000326 3.1e-05 -0.00244
-0.000348 3.5e-05 -0.002426
-0.00037 3.6e-05 -0.002417
-0.000394 3.5e-05 -0.002411
-0.000419 3.2e-05 -0.002408
0.000741 0.000577 -0.002732
0.000245 0.000683 -0.002694
0.000972 0.000695 -0.002828
-0.000388 -2.4e-05 -0.002056
-0.000364 -2.3e-05 -0.002062
-0.00034 -2.3e-05 -0.002068
0.000567 0.000711 -0.002492
-0.000627 1e-06 -0.002414
-0.000651 1e-06 -0.002407
-0.000674 2e-06 -0.002399
-0.000698 2e-06 -0.002392
-0.000721 3e-06 -0.002383
-0.000744 3e-06 -0.002376
-0.000768 2e-06 -0.00237
-0.000792 1e-06 -0.002365
-0.000617 0.00069 -0.002581
-0.000513 0.000757 -0.00244
-7e-06 0.000498 -0.003
4.2e-05 0.000499 -0.003
-0.001102 2.9e-05 -0.002204
-0.001122 3.9e-05 -0.002179
-0.001142 4.4e-05 -0.002162
-0.001164 4.7e-05 -0.002149
-0.001187 4.9e-05 -0.002138
-0.00121 4.9e-05 -0.002131
-0.001234 4.7e-05 -0.002126
-0.001261 4.3e-05 -0.002127
-0.001289 3.6e-05 -0.002135
-0.00132 2.3e-05 -0.002154
0.000543 0.000756 -0.002455
-0.000139 1e-06 -0.002504
-0.000162 2e-06 -0.002495
-3.1e-05 0.000728 -0.002974
-0.000209 3e-06 -0.002478
-0.000232 3e-06 -0.002471
-0.000256 4e-06 -0.002463
-0.000279 4e-06 -0.002454
-0.000299 9e-06 -0.002443
1.8e-05 0.000727 -0.002976
0.000116 0.000542 -0.002967
-0.000369 1e-05 -0.002413
-0.000393 9e-06 -0.002407
-0.000418 7e-06 -0.002404
-0.000443 4e-06 -0.002403
0.001044 0.000448 -0.002813
-0.000607 6e-06 -0.002348
-0.000631 6e-06 -0.002343
-0.000678 6e-06 -0.002327
-0.000701 6e-06 -0.00232
-0.000725 6e-06 -0.002313
0.000116 0.000487 -0.002967
-0.000129 0.00058 -0.002941
-0.001078 6e-06 -0.002205
-0.001101 8e-06 -0.002195
-0.001121 1.2e-05 -0.002177
-0.001142 1.7e-05 -0.002162
-0.001164 1.9e-05 -0.002149
-0.001186 2.2e-05 -0.002137
-0.00121 2.2e-05 -0.00213
-0.001261 1.5e-05 -0.00213
-0.00129 7e-06 -0.002138
-0.001317 1e-06 -0.002142
-5.6e-05 0.00073 -0.002969
-0.000177 0.000539 -0.002851
-0.000129 0.000606 -0.002942
4.2e-05 0.000608 -0.003
6.7e-05 0.000609 -0.002998
6.6e-05 -5e-06 0.002171
0.000615 0.000674 -0.002573
-0.000442 0.000768 -0.002416
4.2e-05 0.000635 -0.002999
-0.000378 6e-06 -0.002358
-0.000402 6e-06 -0.002352
-0.000425 6e-06 -0.002343
-0.000449 6e-06 -0.002337
-0.000541 0.00072 -0.002458
-0.00052 4e-06 -0.002318
-0.000544 5e-06 -0.00231
-0.000567 5e-06 -0.002303
0.000741 0.00055 -0.002731
-0.000177 0.000622 -0.00285
-0.000638 4e-06 -0.002281
-0.000661 4e-06 -0.002274
-0.000685 5e-06 -0.002267
-0.000709 4e-06 -0.002261
-0.000733 4e-06 -0.002254
0.00023 0.000667 -0.002734
-0.000873 5e-06 -0.002208
-0.000897 5e-06 -0.002201
-0.001037 7e-06 -0.002155
-0.00106 7e-06 -0.002146
-0.001084 7e-06 -0.002139
-0.001108 7e-06 -0.002133
-0.001155 7e-06 -0.002118
-0.001178 8e-06 -0.002109
-5.4e-05 6e-06 -0.002395
0.000591 0.000719 -0.002533
-0.000391 0.000766 -0.002416
-0.000154 0.000518 -0.002899
-5.6e-05 0.000526 -0.002999
-0.000592 0.000756 -0.002555
-0.000153 0.000626 -0.002899
-0.000177 0.000649 -0.00285
4.3e-05 -4e-06 0.002178
0.000396 0.00072 -0.002413
-3.2e-05 0.000498 -0.003
-8.1e-05 0.000527 -0.002997
4.2e-05 0.000526 -0.003
0.000166 0.000583 -0.002879
-0.000388 -0.0 -0.002308
-0.000412 -1e-06 -0.002302
-0.000436 -1e-06 -0.002296
-3.2e-05 0.000553 -0.003
-0.000516 0.000732 -0.002434
-0.000507 -1e-06 -0.002275
-0.000531 -1e-06 -0.002268
-0.000554 -2e-06 -0.002261
-0.000578 -2e-06 -0.002254
-0.000601 -1e-06 -0.002246
-0.000625 -1e-06 -0.002238
-0.000648 -1e-06 -0.002232
-0.000672 -2e-06 -0.002225
-0.000696 -2e-06 -0.002218
-0.000719 -1e-06 -0.002209
-0.00079 -1e-06 -0.002188
-0.000813 -1e-06 -0.00218
-0.000836 -1e-06 -0.002173
-0.00086 -2e-06 -0.002167
-0.000884 -2e-06 -0.00216
-0.000907 -1e-06 -0.002151
-0.000931 -1e-06 -0.002145
-0.001001 0.0 -0.00212
-0.001024 1e-06 -0.002111
-0.001047 2e-06 -0.002103
-0.00107 1e-06 -0.002096
-0.001163 4e-06 -0.002062
-0.000106 0.00048 -0.002981
-0.001209 5e-06 -0.002044
-0.001232 6e-06 -0.002035
-0.001256 6e-06 -0.002029
-0.00128 6e-06 -0.002021
-4.1e-05 1e-06 -0.002351
-6.5e-05 -1e-06 -0.002347
-0.000199 0.000589 -0.002801
-3.2e-05 0.000634 -0.002999
6.7e-05 0.000499 -0.002999
-0.000617 0.000744 -0.002582
-8.1e-05 0.000499 -0.002997
-0.000106 0.000507 -0.00298
-0.000642 0.000646 -0.002617
0.000142 0.000561 -0.002926
-0.000371 0.0 -0.002251
-0.000394 0.0 -0.002244
-0.000417 1e-06 -0.002235
-0.000441 1e-06 -0.002229
-0.000465 1e-06 -0.002221
-0.000488 1e-06 -0.002213
-0.000511 1e-06 -0.002206
-0.000534 2e-06 -0.002197
-0.000558 2e-06 -0.00219
-0.000582 2e-06 -0.002182
-0.000605 2e-06 -0.002175
-0.000628 3e-06 -0.002167
-0.000652 3e-06 -0.002159
-0.000676 2e-06 -0.002153
-0.0007 2e-06 -0.002148
-0.000747 1e-06 -0.002134
-0.00077 2e-06 -0.002125
-0.000794 1e-06 -0.00212
-0.000818 1e-06 -0.002112
-0.000842 1e-06 -0.002106
-0.000865 1e-06 -0.002098
-0.000889 1e-06 -0.002091
-0.000912 1e-06 -0.002084
-0.001126 -2e-06 -0.002025
-0.001149 -1e-06 -0.002016
-0.001197 -1e-06 -0.002003
-0.00122 -1e-06 -0.001995
-0.001243 -0.0 -0.001986
-0.001266 1e-06 -0.001976
-0.00013 0.000498 -0.00294
-7.1e-05 0.0 -0.002282
-9.4e-05 1e-06 -0.002274
4.3e-05 0.000728 -0.002974
-0.00013 0.000526 -0.00294
0.000591 0.000664 -0.002536
0.000519 0.000713 -0.002429
0.000567 0.000683 -0.002494
-0.000489 0.000738 -0.002426
-0.000352 4e-06 -0.002189
-0.000375 4e-06 -0.002181
-0.000399 4e-06 -0.002174
-0.000422 3e-06 -0.002167
-0.000446 3e-06 -0.002161
-0.00047 3e-06 -0.002154
-0.000493 3e-06 -0.002147
-0.000517 3e-06 -0.00214
-0.000541 3e-06 -0.002133
-0.000564 2e-06 -0.002127
-0.000588 2e-06 -0.00212
-0.000611 2e-06 -0.002112
-0.000635 2e-06 -0.002105
-0.000659 2e-06 -0.002098
-0.000682 3e-06 -0.00209
-0.000729 1e-06 -0.002076
-0.000753 3e-06 -0.002068
-0.000776 2e-06 -0.002062
-0.0008 2e-06 -0.002054
-0.000823 3e-06 -0.002046
-0.000846 3e-06 -0.002038
-0.00087 3e-06 -0.00203
-0.000893 2e-06 -0.002022
-0.001191 -1e-06 -0.001819
-0.001154 1e-06 -0.001948
-0.001177 2e-06 -0.001939
-0.0012 2e-06 -0.001932
-0.001224 2e-06 -0.001926
-0.00125 -1e-06 -0.001925
-0.000617 0.000663 -0.002581
-0.000592 0.000681 -0.002541
-5.2e-05 3e-06 -0.00222
-7.5e-05 4e-06 -0.002211
-9.9e-05 3e-06 -0.002207
-5.6e-05 0.000696 -0.002984
-3.2e-05 0.000694 -0.002988
0.002496 0.000645 -0.001669
0.000164 0.000555 -0.002879
0.000543 0.000702 -0.002454
-5.6e-05 0.000635 -0.002997
-0.000314 -1e-06 -0.00215
-0.000338 -1e-06 -0.002143
-0.000362 -2e-06 -0.002137
-0.000385 -2e-06 -0.00213
-0.000409 -3e-06 -0.002124
-0.000433 -3e-06 -0.002117
-0.000457 -3e-06 -0.002111
-0.00048 -4e-06 -0.002104
-0.000504 -4e-06 -0.002097
-0.000528 -4e-06 -0.002091
-0.000551 -4e-06 -0.002084
-0.000575 -4e-06 -0.002077
-0.000598 -4e-06 -0.00207
-0.000622 -4e-06 -0.002063
-0.000646 -5e-06 -0.002056
-0.000669 -4e-06 -0.002048
-0.000693 -4e-06 -0.002041
-0.000716 -4e-06 -0.002033
-0.000739 -4e-06 -0.002025
-0.000763 -4e-06 -0.002017
-0.000786 -3e-06 -0.00201
-0.00081 -3e-06 -0.002002
-0.000833 -3e-06 -0.001995
-0.000856 -3e-06 -0.001987
-0.001135 4e-06 -0.001888
-0.001159 3e-06 -0.001882
-0.001183 3e-06 -0.001874
-0.001207 2e-06 -0.00187
-0.00123 3e-06 -0.001861
-0.000667 0.00063 -0.002652
-0.000105 0.000644 -0.002978
-3.7e-05 -1e-06 -0.002173
-6.1e-05 -1e-06 -0.002167
-8.6e-05 -3e-06 -0.002163
-0.00011 -4e-06 -0.002157
0.000215 0.000625 -0.002771
0.000142 0.000506 -0.002927
-7e-06 0.000694 -0.002989
0.000519 0.000762 -0.002442
0.000199 0.000694 -0.002804
-8.1e-05 0.000638 -0.002992
-0.000105 0.000704 -0.002965
-8.1e-05 0.000698 -0.002978
-0.000326 -1e-05 -0.002106
-0.00035 -1.1e-05 -0.0021
-0.000374 -1.2e-05 -0.002094
-0.000398 -1.2e-05 -0.002088
-0.000422 -1.3e-05 -0.002081
-0.000446 -1.3e-05 -0.002076
-0.000469 -1.3e-05 -0.002069
-0.000493 -1.4e-05 -0.002062
-0.000517 -1.4e-05 -0.002055
-0.00054 -1.4e-05 -0.002048
-0.000564 -1.4e-05 -0.002041
-0.000588 -1.4e-05 -0.002034
-0.000611 -1.4e-05 -0.002027
-0.000635 -1.4e-05 -0.00202
-0.000658 -1.4e-05 -0.002013
-0.000682 -1.4e-05 -0.002006
-0.000705 -1.4e-05 -0.001998
-0.000729 -1.4e-05 -0.00199
-0.000752 -1.4e-05 -0.001983
-0.000776 -1.4e-05 -0.001975
-0.000799 -1.3e-05 -0.001967
-0.000822 -1.3e-05 -0.001959
-0.000845 -1.2e-05 -0.001951
-0.000869 -1.2e-05 -0.001943
-0.001122 -3e-06 -0.001846
-0.001146 -3e-06 -0.001838
-0.001169 -2e-06 -0.001829
0.001021 0.000638 -0.00282
0.00027 0.000722 -0.0026
0.000422 0.000735 -0.002408
0.000352 0.000734 -0.002431
0.000142 0.000479 -0.002927
0.000116 0.00046 -0.002967
9.1e-05 0.000448 -0.002994
6.7e-05 0.000445 -0.003
4.2e-05 0.000444 -0.003001
1.7e-05 0.000444 -0.003001
-7e-06 0.000444 -0.003001
-3.2e-05 0.000444 -0.003001
-5.7e-05 0.000444 -0.003
-8.1e-05 0.000445 -0.002997
-0.000106 0.000452 -0.002981
-0.00013 0.000471 -0.002941
-0.000154 0.00049 -0.002899
-0.000178 0.000512 -0.002852
-0.0002 0.000535 -0.002801
-0.000393 0.000715 -0.002414
-0.000417 0.000717 -0.00241
-0.000442 0.000717 -0.002409
-0.000466 0.000715 -0.002413
-0.000491 0.000711 -0.00242
-0.000516 0.000705 -0.002433
-0.000541 0.000693 -0.002459
-0.000566 0.000675 -0.002497
-0.000592 0.000654 -0.002542
-0.000617 0.000635 -0.002582
-0.000642 0.000619 -0.002616
-0.000667 0.000603 -0.002651
0.000591 0.000637 -0.002536
0.000567 0.000656 -0.002494
0.000543 0.000675 -0.002453
0.000519 0.000686 -0.002429
0.000494 0.000692 -0.002417
0.00047 0.000695 -0.00241
0.001063 0.000645 -0.002792
0.001078 0.000659 -0.002757
0.001612 0.000459 -0.002353
0.000873 0.000703 -0.002839
0.000928 0.000608 -0.002853
0.001021 0.000556 -0.002822
0.000877 0.00045 -0.002856
0.000904 0.000445 -0.00286
0.000183 0.000572 -0.002839
0.000142 0.000452 -0.002927
0.000116 0.000434 -0.002966
9.1e-05 0.00042 -0.002994
6.7e-05 0.000417 -0.003
4.2e-05 0.000417 -0.003001
1.7e-05 0.000417 -0.003001
-7e-06 0.000417 -0.003001
-3.2e-05 0.000417 -0.003
-5.7e-05 0.000417 -0.003
-8.1e-05 0.000418 -0.002997
-0.000106 0.000425 -0.002981
-0.00013 0.000443 -0.002942
-0.000154 0.000463 -0.002899
-0.000178 0.000485 -0.002852
-0.0002 0.000508 -0.002801
-0.000393 0.000688 -0.002413
-0.000417 0.00069 -0.002409
-0.000442 0.00069 -0.002408
-0.000466 0.000688 -0.002412
-0.000491 0.000684 -0.00242
-0.000516 0.000678 -0.002434
-0.000541 0.000665 -0.002461
-0.000566 0.000648 -0.002498
-0.000592 0.000626 -0.002543
-0.000617 0.000609 -0.00258
-0.000642 0.000592 -0.002617
-0.000663 0.000575 -0.002655
0.000615 0.000594 -0.00257
0.000591 0.000609 -0.002536
0.000567 0.000629 -0.002494
0.000543 0.000648 -0.002453
0.000519 0.000658 -0.00243
0.000494 0.000664 -0.002417
0.00047 0.000667 -0.00241
0.000445 0.000669 -0.002407
0.00042 0.000668 -0.002408
0.000811 0.0007 -0.002802
0.000903 0.000637 -0.002855
0.000928 0.000581 -0.002853
0.001065 0.000534 -0.002797
0.000245 0.000711 -0.002692
0.000258 0.000729 -0.002648
0.00023 0.000722 -0.002733
0.000164 0.000447 -0.002877
0.000142 0.000425 -0.002926
0.000116 0.000406 -0.002967
9.1e-05 0.000393 -0.002994
6.7e-05 0.00039 -0.003
4.2e-05 0.00039 -0.003001
1.7e-05 0.00039 -0.003001
-7e-06 0.00039 -0.003
-3.2e-05 0.00039 -0.003
-5.7e-05 0.000389 -0.003
-8.1e-05 0.000391 -0.002997
-0.000106 0.000399 -0.00298
-0.00013 0.000416 -0.002942
-0.000154 0.000437 -0.002897
-0.000178 0.000458 -0.002851
-0.0002 0.000482 -0.002799
-0.000393 0.000661 -0.002413
-0.000417 0.000663 -0.002409
-0.000442 0.000663 -0.002409
-0.000466 0.000661 -0.002412
-0.000491 0.000657 -0.00242
-0.000516 0.00065 -0.002435
-0.000541 0.000638 -0.00246
-0.000566 0.00062 -0.002497
-0.000592 0.0006 -0.002541
-0.000617 0.000581 -0.002582
-0.000642 0.000565 -0.002616
-0.000667 0.000548 -0.002651
0.000615 0.000567 -0.002568
0.000591 0.000582 -0.002536
0.000567 0.000602 -0.002493
0.000543 0.000621 -0.002452
0.000519 0.000631 -0.00243
0.000494 0.000637 -0.002417
0.00047 0.00064 -0.00241
0.000445 0.000641 -0.002407
0.00042 0.000641 -0.002408
0.000845 0.000683 -0.00283
0.000951 0.000608 -0.002846
0.000877 0.000586 -0.002855
0.001191 0.00076 -0.002139
0.000951 0.000499 -0.002846
0.001044 0.000557 -0.002812
0.000705 0.000679 -0.002696
0.000166 0.000419 -0.002879
0.000142 0.000399 -0.002925
0.000116 0.000379 -0.002967
9.1e-05 0.000366 -0.002994
6.7e-05 0.000363 -0.003
4.2e-05 0.000363 -0.003
1.7e-05 0.000363 -0.003
-7e-06 0.000362 -0.003
-3.2e-05 0.000362 -0.003
-5.7e-05 0.000362 -0.003
-8.1e-05 0.000363 -0.002997
-0.000106 0.000371 -0.00298
-0.00013 0.000389 -0.002941
-0.000154 0.000409 -0.002898
-0.000178 0.000431 -0.002852
-0.000199 0.000455 -0.002798
-0.000393 0.000634 -0.002412
-0.000417 0.000636 -0.002409
-0.000442 0.000636 -0.002408
-0.000466 0.000634 -0.002412
-0.000491 0.00063 -0.00242
-0.000516 0.000623 -0.002434
-0.000541 0.000611 -0.00246
-0.000566 0.000593 -0.002497
-0.000592 0.000573 -0.002541
-0.000617 0.000554 -0.002581
-0.000642 0.000537 -0.002618
-0.000667 0.000521 -0.002652
0.000615 0.00054 -0.00257
0.000591 0.000556 -0.002534
0.000567 0.000575 -0.002493
0.000543 0.000594 -0.002452
0.000519 0.000604 -0.002429
0.000494 0.00061 -0.002417
0.00047 0.000613 -0.00241
0.000445 0.000614 -0.002407
0.00042 0.000613 -0.002408
0.001043 0.00064 -0.002808
0.000975 0.000609 -0.002838
0.001044 0.000585 -0.002812
0.001078 0.00055 -0.002758
0.001044 0.00053 -0.002813
0.000741 0.000658 -0.002732
0.000166 0.000392 -0.00288
0.000142 0.000371 -0.002925
0.000116 0.000351 -0.002968
9.1e-05 0.000339 -0.002994
6.7e-05 0.000336 -0.003
4.2e-05 0.000335 -0.003001
1.7e-05 0.000335 -0.003001
-7e-06 0.000335 -0.003
-3.2e-05 0.000335 -0.003
-5.7e-05 0.000335 -0.003
-8.1e-05 0.000336 -0.002997
-0.000106 0.000344 -0.00298
-0.00013 0.000362 -0.002942
-0.000154 0.000382 -0.002898
-0.000178 0.000404 -0.002851
-0.000417 0.000609 -0.002409
-0.000442 0.000609 -0.002408
-0.000467 0.000606 -0.002413
-0.000491 0.000603 -0.00242
-0.000516 0.000596 -0.002434
-0.000541 0.000584 -0.00246
-0.000566 0.000566 -0.002498
-0.000592 0.000545 -0.002543
-0.000617 0.000527 -0.00258
-0.000642 0.00051 -0.002617
-0.000665 0.000494 -0.002653
0.000591 0.000528 -0.002535
0.000567 0.000549 -0.002491
0.000543 0.000566 -0.002453
0.000518 0.000577 -0.00243
0.000494 0.000583 -0.002417
0.00047 0.000586 -0.00241
0.000445 0.000587 -0.002407
0.00042 0.000586 -0.002408
0.002136 0.000686 -0.001676
0.000876 0.000642 -0.002852
0.001096 0.000607 -0.002643
0.000975 0.000554 -0.002838
0.000928 0.000445 -0.002853
0.000165 0.000365 -0.00288
0.000142 0.000344 -0.002926
0.000116 0.000324 -0.002967
9.1e-05 0.000312 -0.002994
6.6e-05 0.000309 -0.003
4.2e-05 0.000309 -0.003
1.7e-05 0.000308 -0.003
-7e-06 0.000308 -0.003
-3.2e-05 0.000308 -0.003
-5.7e-05 0.000308 -0.003
-8.1e-05 0.000309 -0.002997
-0.000106 0.000317 -0.00298
-0.00013 0.000335 -0.002942
-0.000154 0.000355 -0.002898
-0.000417 0.000581 -0.002409
-0.000442 0.000582 -0.002408
-0.000467 0.00058 -0.002412
-0.000491 0.000576 -0.00242
-0.000516 0.000569 -0.002434
-0.000541 0.000556 -0.00246
-0.000566 0.000538 -0.002499
-0.000592 0.000518 -0.002542
-0.000617 0.0005 -0.00258
-0.000642 0.000483 -0.002617
-0.000667 0.000467 -0.002652
0.000567 0.000521 -0.002491
0.000543 0.00054 -0.002452
0.000518 0.00055 -0.00243
0.000494 0.000556 -0.002416
0.00047 0.000559 -0.002409
0.000445 0.00056 -0.002407
0.00042 0.00056 -0.002407
0.00102 0.000667 -0.002816
0.000741 0.000712 -0.002732
0.001021 0.000583 -0.002822
0.001097 0.000573 -0.002316
0.001044 0.000475 -0.002813
0.000164 0.000337 -0.00288
0.000142 0.000317 -0.002925
0.000116 0.000297 -0.002967
9.1e-05 0.000284 -0.002994
6.6e-05 0.000282 -0.002999
4.2e-05 0.000281 -0.003
1.7e-05 0.000281 -0.003
-7e-06 0.000281 -0.003
-3.2e-05 0.000281 -0.003
-5.7e-05 0.000281 -0.003
-8.1e-05 0.000282 -0.002997
-0.000106 0.00029 -0.002979
-0.00013 0.000307 -0.002943
-0.000154 0.000328 -0.002898
-0.000178 0.00035 -0.00285
-0.000417 0.000554 -0.002409
-0.000442 0.000554 -0.002408
-0.000467 0.000552 -0.002412
-0.000491 0.000548 -0.00242
-0.000516 0.000542 -0.002434
-0.000541 0.000529 -0.002461
-0.000567 0.000511 -0.0025
-0.000592 0.000491 -0.002543
-0.000617 0.000473 -0.002581
-0.000642 0.000456 -0.002616
-0.000667 0.00044 -0.002651
0.000567 0.000495 -0.002489
0.000543 0.000513 -0.002451
0.000519 0.000523 -0.002429
0.000494 0.000529 -0.002416
0.00047 0.000532 -0.002409
0.000445 0.000533 -0.002406
0.00042 0.000532 -0.002408
0.000997 0.000665 -0.002827
0.001077 0.000631 -0.002759
0.000951 0.000581 -0.002846
0.000998 0.000528 -0.00283
0.001104 0.000548 -0.002374
0.000776 0.000584 -0.002767
0.00099 0.000732 -0.002802
0.000141 0.00029 -0.002924
0.000116 0.00027 -0.002967
9.1e-05 0.000257 -0.002994
6.6e-05 0.000255 -0.002999
4.2e-05 0.000254 -0.003
1.7e-05 0.000254 -0.003
-7e-06 0.000254 -0.003
-3.2e-05 0.000254 -0.003
-5.7e-05 0.000254 -0.003
-8.1e-05 0.000255 -0.002997
-0.000106 0.000263 -0.00298
-0.00013 0.00028 -0.002943
-0.000154 0.000301 -0.002897
-0.000178 0.000322 -0.002852
-0.000199 0.000345 -0.0028
-0.000417 0.000527 -0.002409
-0.000442 0.000527 -0.002408
-0.000467 0.000525 -0.002412
-0.000491 0.000521 -0.00242
-0.000516 0.000514 -0.002435
-0.000541 0.000502 -0.00246
-0.000567 0.000483 -0.002501
-0.000592 0.000464 -0.002542
-0.000617 0.000446 -0.002581
-0.000642 0.000429 -0.002617
0.000591 0.000446 -0.002536
0.000567 0.000467 -0.002492
0.000543 0.000486 -0.00245
0.000519 0.000496 -0.002428
0.000494 0.000502 -0.002416
0.00047 0.000505 -0.002409
0.000445 0.000506 -0.002406
0.00042 0.000505 -0.002408
0.000974 0.000665 -0.002835
0.001021 0.00061 -0.002822
0.000776 0.000638 -0.002767
0.000904 0.000526 -0.002859
0.000141 0.000262 -0.002925
0.000116 0.000243 -0.002968
9.1e-05 0.000231 -0.002993
6.6e-05 0.000228 -0.002999
4.2e-05 0.000227 -0.003
1.7e-05 0.000227 -0.003
-8e-06 0.000226 -0.003001
-3.2e-05 0.000226 -0.003
-5.7e-05 0.000227 -0.003
-8.1e-05 0.000228 -0.002996
-0.000106 0.000236 -0.002979
-0.00013 0.000252 -0.002943
-0.000154 0.000273 -0.002898
-0.000178 0.000295 -0.002851
-0.0002 0.000317 -0.002802
-0.000417 0.0005 -0.002409
-0.000442 0.0005 -0.002409
-0.000467 0.000498 -0.002412
-0.000491 0.000494 -0.00242
-0.000516 0.000487 -0.002434
-0.000541 0.000475 -0.00246
-0.000567 0.000456 -0.002501
-0.000592 0.000437 -0.002542
-0.000617 0.000418 -0.002581
-0.000642 0.000401 -0.002618
-0.000667 0.000386 -0.00265
0.000591 0.000419 -0.002536
0.000567 0.00044 -0.002492
0.000543 0.000459 -0.00245
0.000519 0.000468 -0.002429
0.000494 0.000475 -0.002415
0.00047 0.000478 -0.002409
0.000445 0.000479 -0.002406
0.00042 0.000478 -0.002408
0.000902 0.000667 -0.002851
0.000845 0.000628 -0.002831
0.000669 0.000701 -0.002656
0.00119 0.000675 -0.002138
0.000631 0.000617 -0.002612
0.000668 0.000593 -0.002655
0.000475 0.000752 -0.002415
0.000141 0.000234 -0.002927
0.000116 0.000216 -0.002967
9.1e-05 0.000204 -0.002992
6.6e-05 0.000201 -0.002998
4.2e-05 0.0002 -0.003
1.7e-05 0.0002 -0.003
-8e-06 0.0002 -0.003
-3.2e-05 0.000199 -0.003
-5.7e-05 0.0002 -0.002999
-8.1e-05 0.000201 -0.002995
-0.000106 0.000209 -0.002979
-0.00013 0.000226 -0.002941
-0.000154 0.000246 -0.002898
-0.000178 0.000268 -0.00285
-0.000201 0.00029 -0.002802
-0.000417 0.000473 -0.002409
-0.000442 0.000473 -0.002409
-0.000467 0.000471 -0.002412
-0.000491 0.000467 -0.00242
-0.000516 0.00046 -0.002434
-0.000541 0.000448 -0.00246
-0.000567 0.000429 -0.0025
-0.000592 0.000409 -0.002542
-0.000617 0.000391 -0.002581
-0.000642 0.000374 -0.002618
-0.000667 0.000359 -0.002649
0.000591 0.000392 -0.002536
0.000567 0.000412 -0.002492
0.000543 0.000431 -0.002451
0.000518 0.000441 -0.002429
0.000494 0.000447 -0.002416
0.000469 0.000451 -0.002409
0.000445 0.000451 -0.002406
0.00042 0.00045 -0.002408
0.000742 0.000738 -0.002736
0.002888 0.000654 -0.000804
0.000169 0.000669 -0.00287
0.000975 0.000446 -0.002838
0.001874 0.000747 -0.002037
0.000281 0.00069 -0.002546
0.000258 0.000755 -0.00265
0.000164 0.000229 -0.002879
0.000141 0.000207 -0.002927
0.000116 0.000189 -0.002967
9.1e-05 0.000177 -0.002991
6.6e-05 0.000174 -0.002997
4.2e-05 0.000173 -0.002999
1.7e-05 0.000173 -0.003
-8e-06 0.000172 -0.003
-3.2e-05 0.000172 -0.002999
-5.7e-05 0.000173 -0.002998
-8.1e-05 0.000175 -0.002994
-0.000106 0.000182 -0.002977
-0.00013 0.000199 -0.002941
-0.000154 0.000219 -0.002898
-0.000178 0.000241 -0.002851
-0.000201 0.000263 -0.002803
-0.000417 0.000445 -0.002409
-0.000442 0.000445 -0.002409
-0.000467 0.000444 -0.002412
-0.000491 0.00044 -0.00242
-0.000516 0.000433 -0.002434
-0.000541 0.000421 -0.00246
-0.000567 0.000402 -0.0025
-0.000592 0.000382 -0.002542
-0.000617 0.000364 -0.00258
-0.000642 0.000347 -0.002618
-0.000667 0.000332 -0.002649
0.000615 0.000348 -0.002573
0.000591 0.000365 -0.002536
0.000567 0.000385 -0.002492
0.000543 0.000404 -0.002451
0.000518 0.000414 -0.00243
0.000494 0.00042 -0.002416
0.000469 0.000423 -0.002409
0.000445 0.000424 -0.002407
0.00042 0.000423 -0.002408
0.000926 0.000665 -0.002848
0.000877 0.000614 -0.002853
0.001109 0.00058 -0.002429
0.000705 0.000598 -0.002695
0.001147 0.000757 -0.002163
0.002312 0.000645 -0.001702
0.001021 0.000529 -0.002822
0.000165 0.000202 -0.002879
0.000141 0.00018 -0.002928
0.000116 0.000161 -0.002967
9.1e-05 0.000151 -0.002989
6.6e-05 0.000148 -0.002995
4.2e-05 0.000147 -0.002998
1.7e-05 0.000146 -0.002999
-8e-06 0.000146 -0.002999
-3.2e-05 0.000146 -0.002998
-5.7e-05 0.000147 -0.002996
-8.1e-05 0.000149 -0.002991
-0.000106 0.000156 -0.002976
-0.00013 0.000172 -0.002942
-0.000154 0.000192 -0.002898
-0.000178 0.000214 -0.00285
-0.0002 0.000236 -0.002802
-0.000418 0.000418 -0.002409
-0.000442 0.000418 -0.002409
-0.000467 0.000417 -0.002412
-0.000491 0.000413 -0.00242
-0.000516 0.000406 -0.002434
-0.000541 0.000394 -0.00246
-0.000567 0.000375 -0.0025
-0.000592 0.000354 -0.002544
-0.000617 0.000337 -0.00258
-0.000642 0.00032 -0.002617
-0.000667 0.000304 -0.00265
0.000615 0.000321 -0.002573
0.000591 0.000338 -0.002536
0.000567 0.000358 -0.002491
0.000543 0.000377 -0.002451
0.000518 0.000387 -0.002429
0.000494 0.000393 -0.002416
0.000469 0.000396 -0.002409
0.000445 0.000397 -0.002407
0.00042 0.000396 -0.002408
0.000777 0.000719 -0.002768
0.00023 0.00075 -0.002731
0.001078 0.000577 -0.002758
0.000258 0.000648 -0.002648
0.000257 0.000703 -0.002647
0.000165 0.000174 -0.002881
0.000141 0.000153 -0.002928
0.000116 0.000135 -0.002965
9.1e-05 0.000125 -0.002985
6.6e-05 0.000123 -0.002991
4.2e-05 0.000121 -0.002994
1.7e-05 0.00012 -0.002995
-8e-06 0.00012 -0.002996
-3.2e-05 0.000121 -0.002994
-5.7e-05 0.000122 -0.002991
-8.1e-05 0.000124 -0.002987
-0.000106 0.000129 -0.002975
-0.00013 0.000145 -0.002942
-0.000154 0.000165 -0.002898
-0.000178 0.000187 -0.00285
-0.000199 0.000208 -0.002802
-0.000418 0.000391 -0.002409
-0.000442 0.000391 -0.002409
-0.000467 0.000389 -0.002412
-0.000492 0.000385 -0.00242
-0.000516 0.000378 -0.002435
-0.000541 0.000366 -0.00246
-0.000567 0.000347 -0.0025
-0.000592 0.000328 -0.002541
-0.000617 0.00031 -0.00258
-0.000642 0.000293 -0.002616
-0.000668 0.000277 -0.002651
0.000615 0.000294 -0.002571
0.000591 0.00031 -0.002537
0.000567 0.000331 -0.002491
0.000543 0.00035 -0.002451
0.000518 0.00036 -0.002429
0.000494 0.000366 -0.002416
0.000469 0.000369 -0.002409
0.000445 0.00037 -0.002407
0.00042 0.000369 -0.002408
0.000165 0.000752 -0.002865
0.0002 0.000721 -0.002805
0.001065 0.000561 -0.002797
0.00119 0.000732 -0.002138
0.000422 0.000708 -0.002408
0.000447 0.000705 -0.002407
0.000165 0.000147 -0.002882
0.000141 0.000126 -0.002927
0.000116 0.000109 -0.002964
9.1e-05 0.000101 -0.002979
6.7e-05 9.9e-05 -0.002984
4.2e-05 9.7e-05 -0.002987
1.7e-05 9.6e-05 -0.002988
-7e-06 9.6e-05 -0.002989
-3.2e-05 9.7e-05 -0.002987
-5.7e-05 9.8e-05 -0.002984
-8.1e-05 0.0001 -0.00298
-0.000106 0.000104 -0.00297
-0.00013 0.000118 -0.002941
-0.000154 0.000138 -0.002897
-0.000178 0.00016 -0.002849
-0.000418 0.000364 -0.002409
-0.000442 0.000364 -0.002409
-0.000467 0.000362 -0.002412
-0.000492 0.000358 -0.00242
-0.000516 0.000351 -0.002434
-0.000541 0.00034 -0.002459
-0.000567 0.00032 -0.0025
-0.000592 0.000301 -0.002542
-0.000617 0.000283 -0.00258
-0.000642 0.000266 -0.002616
-0.000668 0.000249 -0.002651
0.000615 0.000268 -0.002569
0.000591 0.000283 -0.002537
0.000567 0.000304 -0.002491
0.000543 0.000322 -0.002452
0.000518 0.000333 -0.002429
0.000494 0.000338 -0.002416
0.000469 0.000342 -0.002409
0.000445 0.000343 -0.002407
0.00042 0.000342 -0.002408
0.000148 0.000739 -0.002899
0.000218 0.000734 -0.002771
0.00157 0.000641 -0.002332
0.001611 0.000623 -0.002352
0.00023 0.000694 -0.002734
0.000165 0.000119 -0.002882
0.000141 9.9e-05 -0.002927
0.000116 8.4e-05 -0.002958
9.1e-05 7.9e-05 -0.002969
6.7e-05 7.6e-05 -0.002974
4.2e-05 7.5e-05 -0.002977
1.7e-05 7.4e-05 -0.002979
-7e-06 7.3e-05 -0.002979
-3.2e-05 7.4e-05 -0.002978
-5.7e-05 7.5e-05 -0.002975
-8.1e-05 7.7e-05 -0.00297
-0.000106 8.1e-05 -0.002962
-0.00013 9.1e-05 -0.00294
-0.000154 0.000111 -0.002896
-0.000178 0.000133 -0.002849
-0.000418 0.000337 -0.00241
-0.000442 0.000337 -0.002409
-0.000467 0.000335 -0.002412
-0.000492 0.000331 -0.00242
-0.000516 0.000324 -0.002434
-0.000541 0.000313 -0.002458
-0.000567 0.000293 -0.0025
-0.000592 0.000274 -0.002541
-0.000617 0.000256 -0.00258
-0.000642 0.000239 -0.002615
0.000615 0.00024 -0.002571
0.000591 0.000256 -0.002537
0.000567 0.000277 -0.00249
0.000543 0.000295 -0.002452
0.000518 0.000306 -0.002429
0.000494 0.000311 -0.002416
0.000469 0.000315 -0.002409
0.000445 0.000316 -0.002406
0.00042 0.000314 -0.002408
0.000998 0.000637 -0.00283
0.000669 0.000728 -0.002657
0.000244 0.000738 -0.002692
0.000951 0.000554 -0.002846
0.000215 0.00068 -0.002771
0.000164 9.3e-05 -0.00288
0.000141 7.3e-05 -0.002924
0.000116 6.1e-05 -0.002948
9.2e-05 5.7e-05 -0.002957
6.7e-05 5.5e-05 -0.002961
4.2e-05 5.4e-05 -0.002964
1.7e-05 5.3e-05 -0.002965
-7e-06 5.2e-05 -0.002966
-3.2e-05 5.3e-05 -0.002964
-5.6e-05 5.4e-05 -0.002962
-8.1e-05 5.6e-05 -0.002958
-0.000105 5.9e-05 -0.002951
-0.00013 6.7e-05 -0.002933
-0.000154 8.5e-05 -0.002895
-0.000418 0.000309 -0.00241
-0.000442 0.00031 -0.002409
-0.000467 0.000308 -0.002412
-0.000492 0.000304 -0.00242
-0.000516 0.000297 -0.002434
-0.000541 0.000286 -0.002457
-0.000567 0.000266 -0.0025
-0.000592 0.000246 -0.002542
-0.000617 0.000228 -0.00258
-0.000642 0.000212 -0.002615
-0.000668 0.000194 -0.002652
0.000615 0.000214 -0.002569
0.000591 0.000229 -0.002536
0.000567 0.00025 -0.00249
0.000543 0.000268 -0.002451
0.000518 0.000278 -0.002429
0.000494 0.000284 -0.002416
0.000469 0.000288 -0.002409
0.000445 0.000288 -0.002407
0.00042 0.000287 -0.002408
0.000975 0.000636 -0.002838
0.000705 0.000706 -0.002696
0.000183 0.000681 -0.002838
0.00027 0.000669 -0.002598
0.000904 0.000472 -0.00286
0.000928 0.000472 -0.002854
0.000141 4.9e-05 -0.002916
0.000117 4.1e-05 -0.002932
9.2e-05 3.8e-05 -0.00294
6.7e-05 3.6e-05 -0.002944
4.2e-05 3.5e-05 -0.002946
1.8e-05 3.4e-05 -0.002947
-7e-06 3.4e-05 -0.002947
-3.2e-05 3.4e-05 -0.002946
-5.6e-05 3.5e-05 -0.002945
-8.1e-05 3.6e-05 -0.002941
-0.000105 3.9e-05 -0.002935
-0.00013 4.5e-05 -0.002921
-0.000154 5.9e-05 -0.002892
-0.000178 7.9e-05 -0.002848
-0.000418 0.000282 -0.00241
-0.000442 0.000282 -0.002409
-0.000467 0.000281 -0.002412
-0.000492 0.000277 -0.00242
-0.000517 0.00027 -0.002434
-0.000542 0.000258 -0.00246
-0.000567 0.000238 -0.002502
-0.000592 0.000219 -0.002542
-0.000617 0.000202 -0.002579
-0.000642 0.000184 -0.002616
-0.000668 0.000167 -0.002652
0.000615 0.000186 -0.00257
0.000591 0.000202 -0.002535
0.000567 0.000223 -0.002489
0.000543 0.000241 -0.002451
0.000518 0.000251 -0.002429
0.000494 0.000257 -0.002416
0.000469 0.00026 -0.002409
0.000445 0.000261 -0.002407
0.00042 0.00026 -0.002408
0.000927 0.000636 -0.002851
0.000741 0.000685 -0.002732
0.000811 0.000619 -0.0028
0.000169 0.000614 -0.002871
0.000845 0.000519 -0.002831
0.000142 3e-05 -0.0029
0.000117 2.4e-05 -0.002911
9.2e-05 2.1e-05 -0.002917
6.7e-05 1.9e-05 -0.002921
4.3e-05 1.9e-05 -0.002922
1.8e-05 1.8e-05 -0.002923
-7e-06 1.8e-05 -0.002923
-3.1e-05 1.8e-05 -0.002922
-5.6e-05 1.9e-05 -0.00292
-8e-05 2e-05 -0.002917
-0.000105 2.2e-05 -0.002913
-0.000129 2.7e-05 -0.002903
-0.000154 3.6e-05 -0.002883
-0.000178 5.3e-05 -0.002846
-0.000418 0.000255 -0.002409
-0.000442 0.000255 -0.002409
-0.000467 0.000254 -0.002412
-0.000492 0.00025 -0.00242
-0.000517 0.000243 -0.002434
-0.000542 0.000231 -0.00246
-0.000567 0.000212 -0.0025
-0.000592 0.000192 -0.002542
-0.000617 0.000175 -0.002578
-0.000642 0.000157 -0.002617
-0.000668 0.00014 -0.002652
0.000615 0.00016 -0.002568
0.000591 0.000175 -0.002535
0.000567 0.000197 -0.002488
0.000543 0.000213 -0.002452
0.000518 0.000224 -0.002429
0.000494 0.00023 -0.002416
0.000469 0.000233 -0.002409
0.000445 0.000234 -0.002407
0.00042 0.000233 -0.002408
0.000875 0.000671 -0.002848
0.000998 0.000609 -0.00283
0.000845 0.000601 -0.002831
0.000293 0.000711 -0.002498
0.000998 0.000474 -0.00283
0.001021 0.000474 -0.002822
0.000877 0.000504 -0.002856
0.000142 1.5e-05 -0.002873
0.000117 1.2e-05 -0.002879
9.3e-05 1.1e-05 -0.00288
6.8e-05 1.1e-05 -0.00288
4.3e-05 1e-05 -0.002882
1.9e-05 1.1e-05 -0.002881
-6e-06 1e-05 -0.002882
-3.1e-05 1e-05 -0.002881
-5.5e-05 1e-05 -0.002881
-8e-05 1.1e-05 -0.002879
-0.000104 1.1e-05 -0.002877
-0.000129 1.3e-05 -0.002873
-0.000153 1.9e-05 -0.002861
-0.000178 3e-05 -0.002837
-0.0002 4.9e-05 -0.002795
-0.000418 0.000228 -0.002409
-0.000442 0.000228 -0.002408
-0.000467 0.000227 -0.002412
-0.000492 0.000222 -0.00242
-0.000517 0.000215 -0.002434
-0.000542 0.000204 -0.002459
-0.000567 0.000184 -0.002501
-0.000592 0.000165 -0.002541
-0.000617 0.000147 -0.00258
-0.000643 0.00013 -0.002617
-0.000668 0.000113 -0.002652
0.000615 0.000132 -0.002569
0.000591 0.000148 -0.002535
0.000567 0.000169 -0.002489
0.000543 0.000187 -0.002451
0.000518 0.000197 -0.002429
0.000494 0.000202 -0.002417
0.000469 0.000206 -0.002409
0.000445 0.000207 -0.002406
0.00042 0.000206 -0.002408
0.001062 0.000674 -0.002786
0.000707 0.000731 -0.0027
0.000975 0.000581 -0.002838
0.001918 0.000603 -0.002275
0.000669 0.000566 -0.002655
0.000776 0.000665 -0.002767
0.000167 1.2e-05 -0.002824
0.000143 9e-06 -0.002827
0.000118 8e-06 -0.002829
9.3e-05 8e-06 -0.002829
6.9e-05 8e-06 -0.002828
4.4e-05 8e-06 -0.002828
1.9e-05 8e-06 -0.002828
-5e-06 8e-06 -0.002829
-3e-05 8e-06 -0.002828
-5.4e-05 8e-06 -0.002828
-7.9e-05 8e-06 -0.002826
-0.000104 8e-06 -0.002826
-0.000128 8e-06 -0.002825
-0.000153 9e-06 -0.002823
-0.000177 1.4e-05 -0.002814
-0.0002 2.6e-05 -0.002788
-0.000418 0.000201 -0.002409
-0.000442 0.000201 -0.002408
-0.000467 0.000199 -0.002412
-0.000492 0.000195 -0.00242
-0.000517 0.000188 -0.002434
-0.000542 0.000176 -0.00246
-0.000567 0.000157 -0.002502
-0.000592 0.000138 -0.002542
-0.000617 0.00012 -0.00258
-0.000643 0.000103 -0.002616
-0.000668 8.5e-05 -0.002653
0.000615 0.000105 -0.00257
0.000591 0.000121 -0.002535
0.000567 0.000143 -0.002488
0.000543 0.000159 -0.002451
0.000518 0.00017 -0.002429
0.000494 0.000175 -0.002416
0.000469 0.000179 -0.002409
0.000445 0.00018 -0.002407
0.00042 0.000179 -0.002408
0.000811 0.000727 -0.002801
0.000776 0.000692 -0.002767
0.000998 0.000582 -0.00283
0.001238 0.000732 -0.002127
0.000811 0.000511 -0.0028
0.000811 0.000646 -0.0028
0.001108 0.000679 -0.002521
0.000143 8e-06 -0.002772
0.000119 8e-06 -0.002773
9.4e-05 9e-06 -0.002769
7e-05 8e-06 -0.00277
4.5e-05 8e-06 -0.002771
2e-05 8e-06 -0.00277
-4e-06 8e-06 -0.00277
-2.9e-05 8e-06 -0.00277
-5.4e-05 8e-06 -0.00277
-7.8e-05 8e-06 -0.002769
-0.000103 8e-06 -0.002769
-0.000128 7e-06 -0.00277
-0.000152 8e-06 -0.002768
-0.000177 8e-06 -0.002768
-0.0002 1.3e-05 -0.002761
-0.000418 0.000174 -0.002409
-0.000442 0.000174 -0.002408
-0.000467 0.000172 -0.002412
-0.000492 0.000168 -0.002419
-0.000517 0.000161 -0.002434
-0.000542 0.000149 -0.002459
-0.000567 0.000129 -0.002502
-0.000592 0.000111 -0.002542
-0.000617 9.3e-05 -0.00258
-0.000643 7.5e-05 -0.002617
-0.000668 5.9e-05 -0.002651
0.000615 7.8e-05 -0.002568
0.000591 9.5e-05 -0.002533
0.000567 0.000115 -0.002488
0.000543 0.000133 -0.002451
0.000518 0.000142 -0.002429
0.000494 0.000148 -0.002416
0.000469 0.000152 -0.002409
0.000445 0.000153 -0.002406
0.00042 0.000151 -0.002408
0.000844 0.000712 -0.002827
0.000811 0.000673 -0.002801
0.001077 0.000604 -0.002758
0.000975 0.000473 -0.002838
0.00033 0.00073 -0.002445
0.000877 0.000477 -0.002855
0.000811 0.000565 -0.002801
0.000845 0.000547 -0.002831
9.5e-05 9e-06 -0.002711
7e-05 9e-06 -0.002711
4.6e-05 8e-06 -0.002712
2.1e-05 8e-06 -0.002712
-3e-06 8e-06 -0.002712
-2.8e-05 8e-06 -0.002711
-5.3e-05 8e-06 -0.00271
-7.7e-05 8e-06 -0.002711
-0.000102 9e-06 -0.002708
-0.000418 0.000147 -0.002409
-0.000442 0.000147 -0.002408
-0.000467 0.000145 -0.002412
-0.000491 0.000141 -0.00242
-0.000517 0.000134 -0.002434
-0.000542 0.000122 -0.002459
-0.000567 0.000102 -0.002502
-0.000592 8.4e-05 -0.00254
-0.000617 6.5e-05 -0.002581
-0.000643 4.7e-05 -0.002619
-0.000668 3.3e-05 -0.002648
0.000615 4.9e-05 -0.002573
0.000591 6.8e-05 -0.002531
0.000567 8.7e-05 -0.002489
0.000543 0.000106 -0.00245
0.000518 0.000115 -0.002429
0.000494 0.000121 -0.002416
0.000469 0.000125 -0.002408
0.000445 0.000126 -0.002406
0.00042 0.000124 -0.002408
0.000899 0.000698 -0.002842
0.000845 0.000656 -0.002831
0.001064 0.000589 -0.002796
0.000904 0.000499 -0.00286
0.00031 0.000723 -0.002466
0.000845 0.000493 -0.00283
0.000215 0.000653 -0.00277
0.000705 0.000625 -0.002694
0.000877 0.000532 -0.002855
0.000145 6e-06 -0.002659
0.00012 6e-06 -0.002659
9.6e-05 6e-06 -0.002659
7.1e-05 5e-06 -0.00266
4.7e-05 5e-06 -0.00266
2.2e-05 5e-06 -0.002659
-3e-06 5e-06 -0.002659
-2.7e-05 5e-06 -0.002659
-5.2e-05 4e-06 -0.00266
-7.7e-05 5e-06 -0.002658
-0.000101 5e-06 -0.002658
-0.0002 6e-06 -0.002655
-0.000418 0.00012 -0.002408
-0.000442 0.00012 -0.002408
-0.000467 0.000118 -0.002411
-0.000492 0.000114 -0.00242
-0.000517 0.000107 -0.002435
-0.000542 9.7e-05 -0.002455
-0.000592 5.7e-05 -0.002541
-0.000617 3.7e-05 -0.002583
-0.000643 2.2e-05 -0.002614
0.000615 2.2e-05 -0.002572
0.000591 4.1e-05 -0.002532
0.000567 6.2e-05 -0.002486
0.000542 7.9e-05 -0.00245
0.000518 8.9e-05 -0.002428
0.000494 9.5e-05 -0.002415
0.000469 9.7e-05 -0.002409
0.000445 9.8e-05 -0.002406
0.00042 9.7e-05 -0.002408
0.001042 0.00067 -0.002803
0.000951 0.000635 -0.002846
0.000904 0.000581 -0.002858
0.001101 0.000567 -0.002604
-0.000314 -2.2e-05 -0.002071
-0.00029 -2.3e-05 -0.002073
0.000146 4e-06 -0.002605
0.000121 5e-06 -0.002603
9.7e-05 5e-06 -0.002602
7.2e-05 6e-06 -0.002599
4.7e-05 7e-06 -0.002598
2.3e-05 6e-06 -0.002598
-2e-06 5e-06 -0.002601
-2.6e-05 6e-06 -0.002599
-7.6e-05 4e-06 -0.002602
-0.0001 4e-06 -0.002601
-0.000174 4e-06 -0.002601
-0.000199 4e-06 -0.002601
-0.000265 -2.4e-05 -0.002075
-0.000418 9.2e-05 -0.002409
-0.000442 9.3e-05 -0.002408
-0.000467 9.1e-05 -0.002411
-0.000492 8.7e-05 -0.00242
-0.000517 7.9e-05 -0.002435
-0.000542 6.9e-05 -0.002456
-0.000592 2.7e-05 -0.002547
-0.000617 1.3e-05 -0.002577
0.001214 0.000734 -0.00213
0.000591 1.4e-05 -0.00253
0.000567 3.3e-05 -0.002489
0.000542 5.2e-05 -0.002449
0.000518 6.2e-05 -0.002427
0.000494 6.8e-05 -0.002414
0.000469 7e-05 -0.002408
0.000445 7.1e-05 -0.002406
0.00042 7e-05 -0.002407
0.000924 0.000696 -0.002839
0.000903 0.000609 -0.002857
0.000294 0.000764 -0.002499
0.000474 0.000727 -0.002411
0.001078 0.000523 -0.002757
0.000447 0.000759 -0.002408
0.000221 6e-06 -0.002543
0.000196 6e-06 -0.002544
0.000171 5e-06 -0.002544
0.000147 6e-06 -0.002543
0.000122 5e-06 -0.002544
9.8e-05 5e-06 -0.002544
7.3e-05 5e-06 -0.002543
4.8e-05 5e-06 -0.002543
2.4e-05 5e-06 -0.002543
-1e-06 5e-06 -0.002543
-2.6e-05 5e-06 -0.002542
-5e-05 5e-06 -0.002542
-7.5e-05 5e-06 -0.002541
-0.0001 5e-06 -0.002542
-0.000124 5e-06 -0.00254
-0.000198 5e-06 -0.002539
-0.000442 6.5e-05 -0.002408
-0.000467 6.4e-05 -0.002411
-0.000492 6e-05 -0.002419
-0.000517 5.2e-05 -0.002435
-0.000542 4.1e-05 -0.002459
-0.000567 2e-05 -0.002503
-0.000592 7e-06 -0.002532
0.000616 6e-06 -0.002488
0.000591 6e-06 -0.002489
0.000567 1e-05 -0.002482
0.000542 2.4e-05 -0.002451
0.000518 3.5e-05 -0.002426
0.000494 4.1e-05 -0.002413
0.000469 4.4e-05 -0.002407
0.000445 4.4e-05 -0.002405
0.00042 4.3e-05 -0.002407
0.002312 0.000482 -0.001702
0.001844 0.000717 -0.002342
0.001886 0.00062 -0.002081
0.000295 1e-06 -0.002497
0.000271 -2e-06 -0.002502
0.000246 -0.0 -0.002499
0.000221 2e-06 -0.002494
0.000197 2e-06 -0.002493
0.000172 2e-06 -0.002492
0.000148 2e-06 -0.002492
0.000928 0.000553 -0.002854
9.8e-05 3e-06 -0.002489
7.4e-05 3e-06 -0.002489
4.9e-05 3e-06 -0.002489
2.4e-05 2e-06 -0.00249
-0.0 1e-06 -0.002493
-4.9e-05 3e-06 -0.002488
-7.4e-05 2e-06 -0.002489
-9.9e-05 2e-06 -0.00249
-0.000123 2e-06 -0.00249
-0.000148 1e-06 -0.00249
-0.000173 2e-06 -0.002488
-0.000344 2.9e-05 -0.002428
-0.000442 3.9e-05 -0.002407
-0.000467 3.7e-05 -0.00241
-0.000492 3.2e-05 -0.002419
-0.000517 2.4e-05 -0.002436
-0.000542 1.1e-05 -0.002465
-0.000567 2e-06 -0.002483
-0.000591 4e-06 -0.002479
0.000616 1e-06 -0.002442
0.000592 3e-06 -0.002438
0.000567 4e-06 -0.002436
0.000518 9e-06 -0.002423
0.000494 1.5e-05 -0.002411
0.000469 1.7e-05 -0.002406
0.000445 1.7e-05 -0.002405
0.001078 0.000718 -0.002747
0.001168 0.000757 -0.002149
0.000951 0.000445 -0.002846
0.000166 0.000723 -0.002869
0.000296 -0.0 -0.00244
0.000272 4e-06 -0.002432
0.000247 4e-06 -0.002432
0.000222 4e-06 -0.00243
0.000173 6e-06 -0.002427
0.000149 6e-06 -0.002426
0.000245 0.000629 -0.002693
7.5e-05 8e-06 -0.002421
5e-05 7e-06 -0.002423
2.5e-05 6e-06 -0.002425
1e-06 8e-06 -0.00242
-2.4e-05 7e-06 -0.002421
-4.8e-05 6e-06 -0.002423
-7.3e-05 6e-06 -0.002422
-9.8e-05 6e-06 -0.002422
-0.000122 7e-06 -0.00242
-0.000147 7e-06 -0.00242
-0.000172 7e-06 -0.00242
-0.000196 6e-06 -0.002422
-0.000221 6e-06 -0.00242
-0.000246 6e-06 -0.00242
-0.00027 6e-06 -0.002421
-0.000295 6e-06 -0.002421
-0.000319 6e-06 -0.00242
-0.000344 8e-06 -0.002416
-0.000369 1e-05 -0.002412
-0.000467 9e-06 -0.002412
-0.000492 4e-06 -0.002421
-0.000517 1e-06 -0.002428
-0.000541 1e-06 -0.002428
-0.000566 2e-06 -0.002426
-0.000591 1e-06 -0.002426
-0.000615 2e-06 -0.002424
-0.000241 -2.4e-05 -0.002077
0.000519 5e-06 -0.002373
0.000494 5e-06 -0.002373
0.00047 6e-06 -0.002371
0.000445 6e-06 -0.00237
0.00106 0.000708 -0.002775
0.000998 0.000446 -0.00283
0.000297 6e-06 -0.002368
0.000273 6e-06 -0.002368
0.000248 7e-06 -0.002367
0.000223 5e-06 -0.002368
0.00023 0.00064 -0.002734
0.00027 0.000696 -0.002598
0.000183 0.000626 -0.002838
0.000199 0.000639 -0.002805
-0.000216 -2.5e-05 -0.002078
0.000928 0.000499 -0.002854
0.000975 0.0005 -0.002838
0.001065 0.000506 -0.002798
0.000995 0.000697 -0.002818
-2.3e-05 4e-06 -0.002369
-7.2e-05 4e-06 -0.002367
-9.7e-05 4e-06 -0.002368
-0.000122 5e-06 -0.002366
-0.000146 5e-06 -0.002366
-0.000171 5e-06 -0.002366
-0.000195 5e-06 -0.002365
-0.00022 5e-06 -0.002366
-0.000245 5e-06 -0.002364
-0.000269 5e-06 -0.002363
-0.000294 5e-06 -0.002363
-0.000319 6e-06 -0.002361
-0.000343 6e-06 -0.002362
-0.000368 6e-06 -0.002362
-0.000191 -2.5e-05 -0.00208
-0.00054 6e-06 -0.002359
-0.000565 4e-06 -0.002361
0.000618 7e-06 -0.002314
0.000594 5e-06 -0.002316
0.000569 5e-06 -0.002316
-0.000167 -2.6e-05 -0.002081
0.00052 5e-06 -0.002316
0.000495 4e-06 -0.002317
0.00047 4e-06 -0.002318
0.000446 3e-06 -0.002318
0.000199 0.000666 -0.002805
0.000705 0.000653 -0.002694
0.000215 0.000598 -0.002771
0.001766 0.000587 -0.002415
0.001021 0.000447 -0.002822
0.000298 1e-06 -0.002322
0.000273 0.0 -0.002323
0.000249 -1e-06 -0.002325
0.000224 -2e-06 -0.002326
0.000199 -2e-06 -0.002327
0.000175 -1e-06 -0.002326
0.000948 0.000695 -0.002834
0.00031 0.00075 -0.002466
0.000998 0.000501 -0.00283
0.001044 0.000503 -0.002813
-7.2e-05 -1e-06 -0.002322
-9.6e-05 -1e-06 -0.002322
-0.000121 -2e-06 -0.002323
-0.000146 -2e-06 -0.002323
-0.00017 -2e-06 -0.002321
-0.000195 -1e-06 -0.002321
-0.000219 -1e-06 -0.00232
-0.000244 -1e-06 -0.00232
-0.000269 -1e-06 -0.002319
-0.000293 -1e-06 -0.002317
-0.000318 -0.0 -0.002316
-0.000343 0.0 -0.002315
-0.000367 1e-06 -0.002314
-0.000466 2e-06 -0.002309
-0.00049 3e-06 -0.002307
-0.000589 5e-06 -0.002302
-0.000613 5e-06 -0.002301
0.000619 2e-06 -0.002266
0.000594 1e-06 -0.002268
0.00057 -2e-06 -0.002272
0.000496 -1e-06 -0.002271
0.000471 -1e-06 -0.00227
0.000447 0.0 -0.002267
0.000422 -1e-06 -0.002268
0.000669 0.000675 -0.002655
0.000741 0.000631 -0.002732
0.000776 0.000612 -0.002766
0.00124 0.000757 -0.002131
0.000299 -1e-06 -0.002267
0.000274 0.0 -0.002264
0.00025 1e-06 -0.002263
0.000225 2e-06 -0.002261
0.0002 2e-06 -0.002259
0.000176 3e-06 -0.002258
0.000151 2e-06 -0.00226
0.000126 1e-06 -0.00226
0.001039 0.000702 -0.002794
0.000397 0.000709 -0.002412
0.000398 0.000763 -0.002413
0.000422 0.000762 -0.002409
0.000998 0.000555 -0.00283
0.001017 0.000699 -0.002806
-4.6e-05 2e-06 -0.002257
-0.00012 1e-06 -0.002258
-0.000145 1e-06 -0.002257
-0.000169 0.0 -0.002259
-0.000194 1e-06 -0.002256
-0.000218 2e-06 -0.002255
-0.000243 2e-06 -0.002255
-0.000268 2e-06 -0.002254
-0.000292 0.0 -0.002257
-0.000317 1e-06 -0.002256
-0.000342 1e-06 -0.002254
-0.000465 -1e-06 -0.002258
-0.00049 -2e-06 -0.002259
-0.000588 -1e-06 -0.002257
-0.000613 -0.0 -0.002256
0.00062 -1e-06 -0.002213
0.000595 -0.0 -0.002211
0.001064 0.000479 -0.002797
0.000521 1e-06 -0.002207
0.000497 1e-06 -0.002207
0.000472 3e-06 -0.002204
0.000447 2e-06 -0.002204
0.001831 0.000585 -0.002379
0.000231 0.000612 -0.002735
0.000811 0.000592 -0.002801
0.001215 0.000759 -0.002133
0.00025 4e-06 -0.002198
0.000226 3e-06 -0.002199
0.000201 3e-06 -0.002198
0.000177 3e-06 -0.002199
0.000152 3e-06 -0.002198
0.000127 3e-06 -0.002199
0.000103 3e-06 -0.002197
7.8e-05 3e-06 -0.002197
5.3e-05 3e-06 -0.002197
2.9e-05 2e-06 -0.002198
4e-06 2e-06 -0.002198
-2.1e-05 2e-06 -0.002196
-0.000142 -2.6e-05 -0.002082
-0.000117 -2.6e-05 -0.002083
-0.000218 3e-06 -0.002194
-0.000242 4e-06 -0.002192
-0.000267 4e-06 -0.002192
-0.000291 4e-06 -0.002192
-0.000316 4e-06 -0.002191
0.001097 0.000552 -0.002643
0.001569 0.00056 -0.00233
0.000572 3e-06 -0.002146
0.001612 0.000731 -0.002353
0.000522 3e-06 -0.002144
0.000498 3e-06 -0.002145
0.000473 2e-06 -0.002147
0.000448 2e-06 -0.002146
0.001811 0.000366 -0.002394
0.001129 0.000755 -0.00218
0.000169 0.000587 -0.002872
0.000183 0.000599 -0.002839
0.000741 0.000523 -0.002731
0.000281 0.000718 -0.002545
0.000293 0.000738 -0.002497
0.000227 -2e-06 -0.002152
0.000202 -2e-06 -0.002152
0.000177 -3e-06 -0.002153
0.000153 -3e-06 -0.002153
0.000128 -3e-06 -0.002153
0.000103 -3e-06 -0.002153
7.9e-05 -4e-06 -0.002154
5.4e-05 -3e-06 -0.002153
2.9e-05 -4e-06 -0.002154
5e-06 -4e-06 -0.002153
-2e-05 -5e-06 -0.002153
-0.000118 -4e-06 -0.002152
-0.000143 -3e-06 -0.00215
-0.000168 -4e-06 -0.002149
-0.000192 -4e-06 -0.002148
-0.000217 -4e-06 -0.002148
-0.000242 -3e-06 -0.002147
-0.000266 -2e-06 -0.002146
-0.000291 -2e-06 -0.002145
-9.3e-05 -2.6e-05 -0.002084
0.000281 0.000745 -0.002546
0.000597 -0.0 -0.002094
0.000572 -1e-06 -0.002095
0.001078 0.000686 -0.002756
0.001078 0.00046 -0.002752
0.000498 -4e-06 -0.002101
0.000474 -4e-06 -0.002102
0.000449 -5e-06 -0.002103
0.000928 0.000526 -0.002854
0.000951 0.000527 -0.002846
0.000845 0.000574 -0.002831
0.000877 0.000559 -0.002855
0.000169 0.000641 -0.002871
0.000811 0.000483 -0.0028
