-0.001901 0.000276 -0.001601
-0.001946 0.000259 -0.001606
-0.002014 0.000227 -0.001631
-0.002078 0.000197 -0.001654
-0.002139 0.00017 -0.001673
-0.002191 0.000148 -0.001685
-0.002238 0.000129 -0.001692
-0.002281 0.000113 -0.001696
-0.002324 9.6e-05 -0.001701
-0.002365 8.1e-05 -0.001703
-0.002401 6.9e-05 -0.001701
-0.002426 6.3e-05 -0.00169
-0.002445 6.2e-05 -0.001674
-0.002461 6.1e-05 -0.001655
-0.002477 6.1e-05 -0.001637
-0.002492 6.2e-05 -0.001617
-0.002506 6.3e-05 -0.001597
-0.001105 0.000674 -0.002552
-0.001817 0.000614 -0.002378
-0.00182 5.5e-05 -0.002339
-0.001839 5.3e-05 -0.002323
-0.001857 5.2e-05 -0.002305
-0.001064 0.000713 -0.002758
-0.001889 5.2e-05 -0.002268
-0.001902 5.4e-05 -0.002247
-0.001908 6e-05 -0.002219
-0.001904 7.2e-05 -0.002184
-0.001897 8.6e-05 -0.002146
-0.00189 0.0001 -0.002107
-0.001882 0.000115 -0.002068
-0.001873 0.00013 -0.002028
-0.001863 0.000146 -0.001988
-0.001818 0.000192 -0.001886
-0.001789 0.00022 -0.001828
-0.001764 0.000245 -0.001775
-0.001761 0.000257 -0.00174
-0.001766 0.000264 -0.001712
-0.001776 0.000267 -0.001688
-0.001789 0.000269 -0.001667
-0.001805 0.000269 -0.001648
-0.001823 0.000267 -0.001632
-0.001844 0.000264 -0.001617
-0.001869 0.000259 -0.001606
-0.001901 0.000249 -0.001601
-0.001946 0.000232 -0.001606
-0.002013 0.000201 -0.001631
-0.002079 0.00017 -0.001654
-0.002138 0.000144 -0.001672
-0.002191 0.000121 -0.001685
-0.002238 0.000102 -0.001692
-0.002281 8.6e-05 -0.001696
-0.002325 6.9e-05 -0.001701
-0.002363 5.5e-05 -0.001702
-0.002393 4.6e-05 -0.001694
-0.002415 4.3e-05 -0.001681
-0.002434 4.1e-05 -0.001664
-0.00245 4.1e-05 -0.001646
-0.002466 4.1e-05 -0.001627
-0.002481 4.2e-05 -0.001607
-0.002495 4.3e-05 -0.001587
-0.002508 4.5e-05 -0.001565
-0.001101 0.000633 -0.00259
-0.001086 0.000675 -0.002701
-0.001808 3.6e-05 -0.002328
-0.001826 3.4e-05 -0.002312
-0.001844 3.3e-05 -0.002294
-0.001861 3.3e-05 -0.002276
-0.001876 3.3e-05 -0.002258
-0.00189 3.4e-05 -0.002237
-0.0019 3.8e-05 -0.002213
-0.001901 4.7e-05 -0.002182
-0.001897 5.9e-05 -0.002146
-0.001889 7.3e-05 -0.002107
-0.001882 8.8e-05 -0.002068
-0.001873 0.000103 -0.002028
-0.001864 0.000118 -0.001988
-0.001847 0.000138 -0.001942
-0.001788 0.000194 -0.001827
-0.001765 0.000218 -0.001775
-0.001761 0.000229 -0.00174
-0.001766 0.000237 -0.001712
-0.001776 0.00024 -0.001688
-0.001789 0.000242 -0.001667
-0.001805 0.000242 -0.001648
-0.001823 0.00024 -0.001632
-0.001844 0.000237 -0.001617
-0.001869 0.000232 -0.001606
-0.001901 0.000222 -0.001601
-0.001945 0.000205 -0.001606
-0.002078 0.000143 -0.001654
-0.002139 0.000116 -0.001672
-0.002192 9.4e-05 -0.001685
-0.002238 7.5e-05 -0.001692
-0.00228 5.9e-05 -0.001696
-0.002321 4.4e-05 -0.001698
-0.002355 3.3e-05 -0.001695
-0.00238 2.7e-05 -0.001684
-0.002401 2.4e-05 -0.001669
-0.002418 2.3e-05 -0.001651
-0.002435 2.3e-05 -0.001633
-0.00245 2.3e-05 -0.001614
-0.002465 2.4e-05 -0.001594
-0.00248 2.5e-05 -0.001574
-0.002493 2.6e-05 -0.001553
-0.002505 2.9e-05 -0.001531
-0.001489 0.000626 -0.002284
-0.001111 0.000667 -0.002426
-0.001791 1.8e-05 -0.002314
-0.001809 1.7e-05 -0.002298
-0.001827 1.7e-05 -0.00228
-0.001843 1.7e-05 -0.002262
-0.001859 1.6e-05 -0.002243
-0.001873 1.7e-05 -0.002223
-0.001885 2e-05 -0.0022
-0.001893 2.5e-05 -0.002174
-0.001893 3.4e-05 -0.002142
-0.001889 4.7e-05 -0.002106
-0.001881 6.1e-05 -0.002068
-0.001873 7.6e-05 -0.002028
-0.001864 9.1e-05 -0.001988
-0.001846 0.000111 -0.001941
-0.001818 0.000139 -0.001885
-0.001788 0.000167 -0.001827
-0.001764 0.000191 -0.001775
-0.001761 0.000203 -0.00174
-0.001766 0.000209 -0.001712
-0.001776 0.000213 -0.001688
-0.001789 0.000215 -0.001667
-0.001805 0.000215 -0.001648
-0.001823 0.000213 -0.001631
-0.001844 0.00021 -0.001617
-0.001869 0.000205 -0.001606
-0.001902 0.000195 -0.001601
-0.001946 0.000177 -0.001606
-0.002078 0.000116 -0.001654
-0.002139 8.9e-05 -0.001673
-0.002191 6.7e-05 -0.001684
-0.002236 4.9e-05 -0.001691
-0.002277 3.4e-05 -0.001693
-0.002312 2.2e-05 -0.00169
-0.002339 1.5e-05 -0.001681
-0.002361 1.2e-05 -0.001667
-0.002379 1.1e-05 -0.00165
-0.002396 1e-05 -0.001632
-0.002412 1e-05 -0.001614
-0.002428 1e-05 -0.001595
-0.002443 1e-05 -0.001576
-0.002458 1.1e-05 -0.001556
-0.002472 1.2e-05 -0.001535
-0.002485 1.4e-05 -0.001514
-0.002497 1.7e-05 -0.001492
-0.001731 9e-06 -0.002328
-0.001748 8e-06 -0.00231
-0.00178 8e-06 -0.002273
-0.001796 8e-06 -0.002254
-0.001091 0.00058 -0.002664
-0.001796 0.000642 -0.002391
-0.001843 8e-06 -0.002197
-0.001858 9e-06 -0.002178
-0.001873 1e-05 -0.002157
-0.001881 1.4e-05 -0.002132
-0.001883 2.3e-05 -0.002101
-0.001879 3.5e-05 -0.002066
-0.001873 4.9e-05 -0.002029
-0.001864 6.4e-05 -0.001989
-0.001846 8.5e-05 -0.001941
-0.001818 0.000111 -0.001886
-0.001787 0.00014 -0.001827
-0.001765 0.000163 -0.001775
-0.001761 0.000175 -0.00174
-0.001765 0.000183 -0.001711
-0.001776 0.000186 -0.001688
-0.001789 0.000188 -0.001667
-0.001805 0.000188 -0.001648
-0.001823 0.000186 -0.001631
-0.001844 0.000183 -0.001617
-0.00187 0.000177 -0.001606
-0.001901 0.000168 -0.001601
-0.001946 0.00015 -0.001606
-0.002076 9e-05 -0.001652
-0.002139 6.2e-05 -0.001673
-0.002189 4.1e-05 -0.001683
-0.002231 2.5e-05 -0.001687
-0.002265 1.4e-05 -0.001683
-0.002291 8e-06 -0.001672
-0.00231 6e-06 -0.001656
-0.002326 6e-06 -0.001638
-0.002342 6e-06 -0.001619
-0.002358 6e-06 -0.0016
-0.002373 6e-06 -0.001581
-0.002389 6e-06 -0.001562
-0.002405 7e-06 -0.001543
-0.00242 7e-06 -0.001523
-0.002436 7e-06 -0.001505
-0.002451 8e-06 -0.001485
-0.001691 6e-06 -0.002294
-0.001708 5e-06 -0.002276
-0.001725 4e-06 -0.002258
-0.001538 0.000656 -0.002314
-0.001771 6e-06 -0.002201
-0.001788 5e-06 -0.002182
-0.001804 5e-06 -0.002164
-0.001821 5e-06 -0.002146
-0.001837 4e-06 -0.002128
-0.001851 6e-06 -0.002107
-0.000791 0.000496 -0.00278
-0.00187 1.3e-05 -0.002058
-0.001869 2.4e-05 -0.002025
-0.001863 3.7e-05 -0.001988
-0.001845 5.8e-05 -0.00194
-0.001819 8.4e-05 -0.001886
-0.001786 0.000113 -0.001826
-0.001765 0.000136 -0.001775
-0.001761 0.000148 -0.00174
-0.001766 0.000155 -0.001711
-0.001776 0.000159 -0.001688
-0.001789 0.00016 -0.001667
-0.001805 0.00016 -0.001648
-0.001823 0.000159 -0.001631
-0.001844 0.000156 -0.001617
-0.001869 0.00015 -0.001606
-0.001901 0.000141 -0.0016
-0.001947 0.000123 -0.001607
-0.002138 3.5e-05 -0.001672
-0.002181 1.8e-05 -0.001676
-0.002214 8e-06 -0.001672
-0.002235 5e-06 -0.001657
-0.002251 5e-06 -0.001638
-0.002267 5e-06 -0.001619
-0.002283 5e-06 -0.001601
-0.002298 5e-06 -0.001582
-0.002314 5e-06 -0.001563
-0.002329 6e-06 -0.001543
-0.002346 5e-06 -0.001525
-0.002364 5e-06 -0.001508
-0.002378 5e-06 -0.001488
-0.001109 0.000688 -0.002514
-0.001664 5e-06 -0.002239
-0.00168 5e-06 -0.00222
-0.001746 0.000486 -0.002405
-0.001437 0.000653 -0.00225
-0.001729 4e-06 -0.002164
-0.001746 4e-06 -0.002147
-0.001762 4e-06 -0.002128
-0.001779 3e-06 -0.00211
-0.001795 3e-06 -0.002092
-0.001074 0.000489 -0.002771
-0.001817 0.00056 -0.002378
-0.001852 6e-06 -0.002011
-0.001855 1.5e-05 -0.001981
-0.001846 3e-05 -0.001941
-0.001819 5.6e-05 -0.001886
-0.001785 8.7e-05 -0.001825
-0.001764 0.000109 -0.001775
-0.001761 0.000121 -0.00174
-0.001766 0.000128 -0.001712
-0.001776 0.000132 -0.001688
-0.001789 0.000133 -0.001667
-0.001805 0.000133 -0.001648
-0.001823 0.000132 -0.001631
-0.001844 0.000129 -0.001617
-0.00187 0.000123 -0.001606
-0.001901 0.000114 -0.0016
-0.001946 9.6e-05 -0.001606
-0.002014 6.4e-05 -0.001632
-0.002076 3.6e-05 -0.001652
-0.002129 1e-05 -0.001664
-0.002158 5e-06 -0.001657
-0.002177 4e-06 -0.00164
-0.002196 2e-06 -0.001624
-0.002211 2e-06 -0.001604
-0.002226 3e-06 -0.001585
-0.002241 3e-06 -0.001565
-0.002291 3e-06 -0.001511
-0.002305 4e-06 -0.00149
-0.001112 0.000704 -0.002473
-0.001624 2e-06 -0.002205
-0.00164 2e-06 -0.002187
-0.001667 0.000518 -0.002375
-0.001685 3e-06 -0.002128
-0.001699 5e-06 -0.002107
-0.001716 5e-06 -0.002089
-0.001732 4e-06 -0.002071
-0.001748 4e-06 -0.002052
-0.001776 0.00056 -0.002405
-0.001233 0.000728 -0.002125
-0.001085 0.000703 -0.002701
-0.001111 0.000754 -0.002204
-0.001763 8.3e-05 -0.001774
-0.001761 9.4e-05 -0.00174
-0.001766 0.000101 -0.001711
-0.001776 0.000105 -0.001688
-0.001789 0.000106 -0.001667
-0.001805 0.000106 -0.001648
-0.001823 0.000105 -0.001631
-0.001844 0.000102 -0.001617
-0.001869 9.6e-05 -0.001606
-0.001901 8.6e-05 -0.0016
-0.001945 6.9e-05 -0.001606
-0.002014 3.7e-05 -0.001631
-0.002071 1.2e-05 -0.001647
-0.002101 3e-06 -0.001641
-0.002116 3e-06 -0.001621
-0.002132 4e-06 -0.001602
-0.002147 4e-06 -0.001583
-0.00218 2e-06 -0.001546
-0.002194 4e-06 -0.001526
-0.002259 4e-06 -0.001452
-0.002274 5e-06 -0.001432
-0.00229 5e-06 -0.001413
-0.002308 5e-06 -0.001396
-0.002339 4e-06 -0.001358
-0.001594 3e-06 -0.002147
-0.001837 0.000533 -0.002364
-0.00149 0.000653 -0.002285
-0.001096 0.000742 -0.002315
-0.001808 0.000703 -0.002365
-0.001676 3e-06 -0.002055
-0.001693 3e-06 -0.002037
-0.001837 0.000561 -0.002363
-0.001746 0.000568 -0.002405
-0.001797 0.000559 -0.002393
-0.001259 0.000724 -0.002123
-0.000861 0.00046 -0.002839
-0.001909 0.00065 -0.002294
-0.001127 0.000758 -0.002183
-0.001763 5.6e-05 -0.001774
-0.00176 6.7e-05 -0.001739
-0.001765 7.4e-05 -0.001711
-0.001776 7.7e-05 -0.001688
-0.001789 7.9e-05 -0.001666
-0.001805 7.9e-05 -0.001648
-0.001823 7.8e-05 -0.001631
-0.001844 7.5e-05 -0.001616
-0.001869 6.9e-05 -0.001606
-0.001901 5.9e-05 -0.0016
-0.002042 1e-06 -0.001623
-0.002093 1e-06 -0.001569
-0.002107 2e-06 -0.001549
-0.00214 1e-06 -0.001512
-0.002155 2e-06 -0.001493
-0.001613 -2.7e-05 -0.001324
-0.002253 -0.0 -0.001382
-0.002268 1e-06 -0.001362
-0.002284 1e-06 -0.001343
-0.002298 2e-06 -0.001323
-0.002313 2e-06 -0.001304
-0.001597 -2.7e-05 -0.001343
-0.001581 -2.7e-05 -0.001362
-0.001521 2e-06 -0.00215
-0.001536 1e-06 -0.00213
-0.001553 1e-06 -0.002113
-0.001817 0.000533 -0.002378
-0.001186 0.000733 -0.002137
-0.001108 0.000729 -0.002199
-0.001565 -2.7e-05 -0.00138
-0.001085 0.00054 -0.002701
-0.001798 0.000505 -0.002393
-0.001708 0.000529 -0.002391
-0.00174 3e-06 -0.001884
-0.001755 3e-06 -0.001864
-0.001143 0.000762 -0.002163
-0.001764 2.8e-05 -0.001774
-0.001759 4e-05 -0.001739
-0.001765 4.7e-05 -0.00171
-0.001745 0.00065 -0.002404
-0.001707 0.000664 -0.002391
-0.001804 5.2e-05 -0.001647
-0.001822 5.1e-05 -0.00163
-0.001843 4.8e-05 -0.001616
-0.001869 4.2e-05 -0.001605
-0.001901 3.2e-05 -0.0016
-0.001549 -2.7e-05 -0.001399
-0.002011 4e-06 -0.001564
-0.002027 4e-06 -0.001546
-0.002059 4e-06 -0.001508
-0.002076 3e-06 -0.00149
-0.002156 3e-06 -0.001396
-0.002218 4e-06 -0.00132
-0.002236 3e-06 -0.001303
-0.002254 2e-06 -0.001286
-0.001473 3e-06 -0.002109
-0.001487 4e-06 -0.002089
-0.001504 4e-06 -0.002071
-0.001708 0.000582 -0.002392
-0.001667 0.0006 -0.002374
-0.00121 0.00073 -0.002129
-0.00111 0.000695 -0.002425
-0.001112 0.000676 -0.002473
-0.001104 0.000718 -0.002371
-0.001079 0.000501 -0.002736
-0.001652 1e-06 -0.001906
-0.001668 1e-06 -0.001887
-0.001667 0.000545 -0.002374
-0.0017 1e-06 -0.00185
-0.001717 0.0 -0.001832
-0.001734 -0.0 -0.001814
-0.00175 -1e-06 -0.001795
-0.001758 5e-06 -0.001769
-0.00176 1.3e-05 -0.001739
-0.001765 2e-05 -0.00171
-0.001094 0.000716 -0.002312
-0.001797 0.000532 -0.002393
-0.001776 0.000533 -0.002405
-0.001822 2.4e-05 -0.00163
-0.001844 2e-05 -0.001616
-0.001871 1.4e-05 -0.001607
-0.001903 3e-06 -0.001602
-0.00193 -3e-06 -0.001593
-0.001533 -2.7e-05 -0.001417
-0.001959 -1e-06 -0.001552
-0.001975 -1e-06 -0.001534
-0.001991 -1e-06 -0.001515
-0.002024 -2e-06 -0.001479
-0.00204 -2e-06 -0.00146
-0.002085 -0.0 -0.001401
-0.0021 0.0 -0.001382
-0.002116 1e-06 -0.001362
-0.002193 2e-06 -0.001267
-0.002208 2e-06 -0.001247
-0.002223 3e-06 -0.001227
-0.001517 -2.7e-05 -0.001436
-0.0015 -2.6e-05 -0.001454
-0.00227 3e-06 -0.00117
-0.002286 3e-06 -0.001152
-0.001432 0.0 -0.002074
-0.001449 0.0 -0.002056
-0.001466 -0.0 -0.002039
-0.001483 -1e-06 -0.002021
-0.001787 0.000704 -0.002377
-0.001109 0.000607 -0.002513
-0.001583 0.000581 -0.002337
-0.001109 0.000661 -0.002513
-0.000154 0.000516 -0.002903
-0.001594 -0.0 -0.001889
-0.00161 -1e-06 -0.00187
-0.001829 0.000703 -0.002351
-0.001626 0.000563 -0.002357
-0.001657 0.0 -0.001813
-0.001671 1e-06 -0.001793
-0.001687 1e-06 -0.001774
-0.001704 1e-06 -0.001756
-0.001718 2e-06 -0.001736
-0.001734 2e-06 -0.001717
-0.001748 3e-06 -0.001696
-0.001817 0.000478 -0.002379
-0.001484 -2.6e-05 -0.001472
-0.00191 1e-06 -0.001511
-0.001925 2e-06 -0.001492
-0.002035 3e-06 -0.001359
-0.002053 2e-06 -0.001342
-0.002072 -1e-06 -0.001326
-0.002137 -1e-06 -0.001251
-0.002153 -0.0 -0.001232
-0.002169 -1e-06 -0.001214
-0.002183 0.0 -0.001194
-0.002234 -1e-06 -0.00114
-0.002248 -0.0 -0.001119
-0.00139 -1e-06 -0.002039
-0.001406 -1e-06 -0.00202
-0.001422 -1e-06 -0.002001
-0.001437 -0.0 -0.001982
-0.001452 0.0 -0.001962
-0.001238 0.000725 -0.002125
-0.00111 0.000641 -0.002424
-0.001074 0.000516 -0.00277
-0.000219 0.000556 -0.00276
-0.001079 0.000555 -0.002736
-0.001562 2e-06 -0.001829
-0.001089 0.000738 -0.002259
-0.001609 2e-06 -0.001772
-0.001625 2e-06 -0.001754
-0.001642 1e-06 -0.001735
-0.001657 1e-06 -0.001717
-0.001746 0.00054 -0.002405
-0.001764 0.000706 -0.002388
-0.001856 0.000562 -0.002348
-0.001079 0.000582 -0.002736
-0.001086 0.000594 -0.002701
-0.001467 -2.5e-05 -0.00149
-0.001848 0.000704 -0.002336
-0.001786 1e-06 -0.001568
-0.001802 1e-06 -0.001549
-0.001449 -2.5e-05 -0.001508
-0.001835 1e-06 -0.001511
-0.00185 1e-06 -0.001492
-0.001865 1e-06 -0.001473
-0.001943 3e-06 -0.001378
-0.001959 2e-06 -0.001358
-0.001975 1e-06 -0.00134
-0.001993 2e-06 -0.001323
-0.002007 3e-06 -0.001302
-0.002023 3e-06 -0.001283
-0.002039 3e-06 -0.001265
-0.002054 3e-06 -0.001246
-0.002071 3e-06 -0.001227
-0.002087 2e-06 -0.001209
-0.002104 2e-06 -0.001191
-0.002119 3e-06 -0.001171
-0.001433 -2.4e-05 -0.001526
-0.002186 0.0 -0.001099
-0.002203 0.0 -0.001081
-0.001705 0.000721 -0.002388
-0.001359 1e-06 -0.00198
-0.001374 1e-06 -0.001961
-0.00139 1e-06 -0.001942
-0.001407 1e-06 -0.001924
-0.001423 1e-06 -0.001905
-0.00144 0.0 -0.001888
-0.001457 -1e-06 -0.001869
-0.001074 0.000571 -0.002771
-0.001416 -2.4e-05 -0.001544
-0.001086 0.000567 -0.002701
-0.001074 0.000544 -0.002771
-0.001399 -2.3e-05 -0.001562
-0.001866 0.000706 -0.002319
-0.001575 -4e-06 -0.001744
-0.001592 -5e-06 -0.001725
-0.001608 -5e-06 -0.001707
-0.001624 -5e-06 -0.001688
0.001021 -3e-06 0.001921
0.00086 -7e-06 0.001982
-0.001096 0.000538 -0.002628
-0.001752 -5e-06 -0.001538
-0.001767 -5e-06 -0.001519
-0.001814 -4e-06 -0.001462
-0.00191 -3e-06 -0.001349
-0.001927 -5e-06 -0.001332
-0.001944 -5e-06 -0.001313
-0.001959 -5e-06 -0.001294
-0.001989 -4e-06 -0.001255
-0.002004 -4e-06 -0.001235
-0.002019 -3e-06 -0.001216
-0.002034 -2e-06 -0.001196
-0.002049 -1e-06 -0.001176
-0.002063 -0.0 -0.001156
-0.002079 -0.0 -0.001137
-0.001538 0.000575 -0.002314
-0.001817 0.000505 -0.002379
-0.001321 -1e-06 -0.001948
-0.001338 -4e-06 -0.001931
-0.001356 -5e-06 -0.001913
-0.001373 -5e-06 -0.001896
-0.001388 -5e-06 -0.001876
-0.001403 -5e-06 -0.001856
-0.001419 -5e-06 -0.001838
-0.001434 -4e-06 -0.001818
-0.001509 -1e-06 -0.00172
-0.001524 -0.0 -0.0017
-0.001541 -1e-06 -0.001682
-0.001558 -2e-06 -0.001665
-0.001572 -0.0 -0.001644
0.000836 -7e-06 0.00199
-0.001778 0.000755 -0.001693
-0.001857 0.00048 -0.002349
-0.001876 0.000481 -0.002333
-0.001747 -0.0 -0.001437
-0.001764 -1e-06 -0.001419
-0.00186 -1e-06 -0.001307
-0.001875 -0.0 -0.001287
-0.001893 -1e-06 -0.00127
-0.001911 -2e-06 -0.001254
-0.001958 -2e-06 -0.001196
-0.001973 -2e-06 -0.001177
-0.00199 -2e-06 -0.001159
-0.002008 -3e-06 -0.001141
-0.002057 -4e-06 -0.001086
-0.002072 -3e-06 -0.001067
-0.001278 -4e-06 -0.001912
-0.001293 -3e-06 -0.001892
-0.001307 -2e-06 -0.001872
-0.001322 -2e-06 -0.001852
-0.001351 0.0 -0.001812
-0.001367 -0.0 -0.001793
-0.001383 0.0 -0.001774
-0.001398 1e-06 -0.001755
-0.001112 0.000622 -0.002473
-0.001446 1e-06 -0.001698
-0.001462 1e-06 -0.00168
-0.001477 1e-06 -0.001661
-0.001494 1e-06 -0.001642
-0.001508 1e-06 -0.001622
-0.001525 1e-06 -0.001604
-0.001541 1e-06 -0.001585
-0.001557 1e-06 -0.001567
-0.001837 0.000506 -0.002363
-0.001857 0.000507 -0.002348
-0.001143 0.000735 -0.002162
-0.001125 0.000733 -0.002179
-0.0017 2e-06 -0.001397
-0.001717 1e-06 -0.001379
-0.001731 2e-06 -0.001359
-0.001765 1e-06 -0.001323
-0.001797 -0.0 -0.001286
-0.001811 2e-06 -0.001266
-0.001876 1e-06 -0.001191
-0.001893 1e-06 -0.001174
-0.001925 1e-06 -0.001136
-0.001941 1e-06 -0.001117
-0.001957 0.0 -0.001099
-0.001973 0.0 -0.00108
-0.001989 0.0 -0.001061
-0.002005 1e-06 -0.001042
-0.002021 0.0 -0.001024
-0.001094 0.00069 -0.002311
-0.001243 -0.0 -0.00185
-0.001259 0.0 -0.001831
-0.001105 0.000593 -0.002552
-0.001909 0.000722 -0.002249
-0.001304 1e-06 -0.001773
-0.001323 -0.0 -0.001756
-0.001339 -0.0 -0.001737
-0.001356 -1e-06 -0.00172
-0.001746 0.000513 -0.002405
-0.001079 0.000528 -0.002736
-0.001406 -2e-06 -0.001665
-0.001423 -3e-06 -0.001647
-0.001439 -3e-06 -0.001629
-0.001456 -3e-06 -0.00161
-0.001472 -4e-06 -0.001592
-0.001489 -4e-06 -0.001574
-0.001505 -4e-06 -0.001555
-0.001522 -5e-06 -0.001537
-0.001905 0.000681 -0.002289
-0.001091 0.000607 -0.002664
-0.00157 -5e-06 -0.001481
-0.001586 -5e-06 -0.001462
-0.001603 -6e-06 -0.001444
-0.001626 0.000536 -0.002357
-0.001538 0.000602 -0.002314
-0.001583 0.000554 -0.002337
-0.001667 -6e-06 -0.00137
-0.001682 -5e-06 -0.00135
-0.001699 -6e-06 -0.001332
-0.001714 -5e-06 -0.001312
-0.001729 -5e-06 -0.001293
-0.001745 -5e-06 -0.001274
-0.001761 -5e-06 -0.001256
-0.001777 -5e-06 -0.001237
-0.001792 -4e-06 -0.001217
-0.001853 -3e-06 -0.00114
-0.001868 -2e-06 -0.00112
-0.001883 -1e-06 -0.001101
-0.001899 -1e-06 -0.001082
-0.001914 -0.0 -0.001062
-0.001928 1e-06 -0.001042
-0.001944 1e-06 -0.001023
-0.001959 1e-06 -0.001004
-0.001583 0.000609 -0.002337
-0.001105 0.000647 -0.002552
-0.001343 0.000752 -0.002197
-0.001106 0.000743 -0.002374
-0.001085 0.000621 -0.002701
-0.001899 0.000713 -0.002279
-0.001271 -6e-06 -0.001745
-0.001288 -6e-06 -0.001727
-0.001306 -8e-06 -0.00171
-0.001323 -8e-06 -0.001692
-0.00134 -9e-06 -0.001674
-0.001084 0.000731 -0.0027
-0.001375 -1e-05 -0.001638
-0.001391 -1e-05 -0.00162
-0.001407 -1.1e-05 -0.001602
-0.001425 -1.1e-05 -0.001584
-0.001442 -1.2e-05 -0.001566
-0.001459 -1.3e-05 -0.001548
-0.001475 -1.3e-05 -0.00153
-0.001492 -1.4e-05 -0.001512
-0.001509 -1.4e-05 -0.001494
-0.001525 -1.4e-05 -0.001475
-0.001541 -1.5e-05 -0.001457
-0.001558 -1.5e-05 -0.001438
-0.001574 -1.5e-05 -0.00142
-0.00159 -1.5e-05 -0.001401
-0.001607 -1.5e-05 -0.001383
-0.001622 -1.5e-05 -0.001364
-0.001638 -1.5e-05 -0.001345
-0.001654 -1.5e-05 -0.001326
-0.00167 -1.5e-05 -0.001307
-0.001686 -1.5e-05 -0.001288
-0.001701 -1.5e-05 -0.001269
-0.001717 -1.4e-05 -0.00125
-0.001732 -1.4e-05 -0.001231
-0.001747 -1.3e-05 -0.001211
-0.001762 -1.3e-05 -0.001191
-0.001777 -1.3e-05 -0.001172
-0.001792 -1.2e-05 -0.001152
-0.001837 -1e-05 -0.001094
-0.001852 -9e-06 -0.001074
-0.001866 -9e-06 -0.001054
-0.001882 -8e-06 -0.001035
-0.001896 -7e-06 -0.001015
-0.001911 -6e-06 -0.000995
-0.001626 0.00059 -0.002357
-0.00149 0.00068 -0.002286
-0.001376 0.000742 -0.002202
-0.000985 0.000531 -0.002825
-0.001091 0.000526 -0.002664
-0.001079 0.000609 -0.002736
-0.001583 0.000636 -0.002337
-0.001792 0.00076 -0.00167
-0.001837 0.000479 -0.002364
-0.001096 0.000647 -0.002628
-0.001707 0.000501 -0.002391
-0.001776 0.000478 -0.002406
-0.001163 0.000735 -0.002148
-0.001109 0.00058 -0.002513
-0.001112 0.000595 -0.002472
-0.00111 0.000614 -0.002425
-0.001103 0.000637 -0.00237
-0.001094 0.000662 -0.002311
-0.001089 0.000684 -0.002259
-0.001095 0.000696 -0.002223
-0.001108 0.000703 -0.002198
-0.001124 0.000707 -0.002178
-0.001142 0.000708 -0.002161
-0.001163 0.000708 -0.002148
-0.001186 0.000706 -0.002137
-0.00121 0.000703 -0.002129
-0.001237 0.000697 -0.002125
-0.001269 0.000688 -0.00213
-0.001438 0.000597 -0.002251
-0.00149 0.000571 -0.002285
-0.001538 0.000548 -0.002313
-0.001583 0.000527 -0.002337
-0.001626 0.000509 -0.002357
-0.001668 0.000491 -0.002375
-0.001708 0.000474 -0.002392
-0.001746 0.000459 -0.002404
-0.001776 0.000451 -0.002406
-0.001798 0.00045 -0.002393
-0.001817 0.000451 -0.002378
-0.001837 0.000452 -0.002363
-0.001856 0.000453 -0.002348
-0.001876 0.000454 -0.002333
-0.001776 0.000729 -0.001691
-0.00179 0.000735 -0.001667
-0.000326 0.00071 -0.002442
-0.001074 0.000462 -0.002771
-0.00108 0.000473 -0.002736
-0.001086 0.000485 -0.002701
-0.00109 0.000499 -0.002664
-0.001096 0.000511 -0.002628
-0.001101 0.000525 -0.00259
-0.001105 0.000538 -0.002552
-0.001109 0.000552 -0.002513
-0.001112 0.000567 -0.002473
-0.001111 0.000586 -0.002426
-0.001103 0.00061 -0.00237
-0.001095 0.000634 -0.002313
-0.001089 0.000656 -0.002259
-0.001095 0.000669 -0.002224
-0.001108 0.000676 -0.002198
-0.001124 0.00068 -0.002178
-0.001142 0.000681 -0.002161
-0.001163 0.000681 -0.002148
-0.001185 0.000679 -0.002137
-0.00121 0.000676 -0.002129
-0.001237 0.00067 -0.002125
-0.00127 0.00066 -0.00213
-0.001492 0.000542 -0.002288
-0.001538 0.000521 -0.002313
-0.001583 0.0005 -0.002336
-0.001626 0.000481 -0.002356
-0.001668 0.000463 -0.002376
-0.001708 0.000447 -0.002392
-0.001746 0.000432 -0.002405
-0.001776 0.000424 -0.002406
-0.001798 0.000423 -0.002393
-0.001817 0.000424 -0.002378
-0.001837 0.000425 -0.002363
-0.001857 0.000426 -0.002348
-0.001876 0.000427 -0.002333
-0.000218 0.000583 -0.00276
-0.001075 0.000435 -0.002771
-0.001081 0.000446 -0.002737
-0.001086 0.000458 -0.002701
-0.001091 0.000471 -0.002664
-0.001096 0.000484 -0.002627
-0.001101 0.000498 -0.00259
-0.001105 0.000511 -0.002552
-0.001109 0.000525 -0.002514
-0.001112 0.00054 -0.002473
-0.00111 0.000559 -0.002425
-0.001103 0.000582 -0.00237
-0.001094 0.000608 -0.002311
-0.001088 0.00063 -0.002258
-0.001095 0.000642 -0.002223
-0.001107 0.000649 -0.002197
-0.001124 0.000652 -0.002178
-0.001142 0.000654 -0.002161
-0.001163 0.000654 -0.002148
-0.001185 0.000652 -0.002137
-0.00121 0.000649 -0.002129
-0.001237 0.000643 -0.002125
-0.001271 0.000633 -0.002127
-0.00149 0.000516 -0.002286
-0.001539 0.000493 -0.002314
-0.001582 0.000473 -0.002336
-0.001627 0.000453 -0.002358
-0.001668 0.000436 -0.002376
-0.001707 0.00042 -0.002391
-0.001746 0.000404 -0.002405
-0.001776 0.000397 -0.002406
-0.001798 0.000396 -0.002393
-0.001817 0.000397 -0.002378
-0.001837 0.000398 -0.002363
-0.001857 0.000399 -0.002348
-0.001876 0.0004 -0.002333
-0.000791 0.000577 -0.002781
-0.000861 0.000569 -0.002838
-0.001082 0.000419 -0.002737
-0.001087 0.000431 -0.002701
-0.001091 0.000444 -0.002664
-0.001096 0.000457 -0.002628
-0.001101 0.00047 -0.00259
-0.001106 0.000484 -0.002552
-0.001109 0.000499 -0.002512
-0.001112 0.000513 -0.002473
-0.001109 0.000533 -0.002424
-0.001103 0.000555 -0.00237
-0.001094 0.000581 -0.002311
-0.001088 0.000603 -0.002258
-0.001095 0.000615 -0.002223
-0.001108 0.000621 -0.002198
-0.001124 0.000625 -0.002178
-0.001142 0.000627 -0.002161
-0.001163 0.000627 -0.002148
-0.001185 0.000625 -0.002136
-0.00121 0.000622 -0.002128
-0.001071 0.00068 -0.002768
-0.000201 0.000532 -0.002809
-0.001436 0.000518 -0.002249
-0.00149 0.00049 -0.002285
-0.001539 0.000466 -0.002314
-0.001583 0.000446 -0.002336
-0.001627 0.000426 -0.002358
-0.001668 0.000409 -0.002376
-0.001707 0.000393 -0.002391
-0.001746 0.000377 -0.002405
-0.001776 0.000369 -0.002406
-0.001798 0.000369 -0.002393
-0.001817 0.00037 -0.002378
-0.001837 0.00037 -0.002363
-0.001857 0.000371 -0.002348
-0.001876 0.000372 -0.002333
-0.001895 0.000373 -0.002318
-0.00029 0.000665 -0.002493
-0.001009 0.000559 -0.002816
-0.000791 0.000659 -0.002779
-0.001087 0.000404 -0.002701
-0.001092 0.000417 -0.002664
-0.001097 0.00043 -0.002628
-0.001101 0.000443 -0.00259
-0.001105 0.000457 -0.002551
-0.001109 0.000471 -0.002512
-0.001112 0.000486 -0.002472
-0.00111 0.000505 -0.002425
-0.001103 0.000528 -0.00237
-0.001094 0.000554 -0.002311
-0.001088 0.000576 -0.002258
-0.001095 0.000588 -0.002223
-0.001108 0.000594 -0.002198
-0.001124 0.000598 -0.002177
-0.001142 0.0006 -0.002161
-0.001163 0.000599 -0.002148
-0.001007 0.000669 -0.002813
-0.000717 0.000729 -0.002707
-0.000791 0.000632 -0.002779
0.000162 0.000724 -0.002866
-0.001376 0.000524 -0.002202
-0.001437 0.00049 -0.00225
-0.001539 0.000439 -0.002314
-0.001583 0.000418 -0.002337
-0.001627 0.000399 -0.002358
-0.001668 0.000381 -0.002376
-0.001708 0.000366 -0.002391
-0.001747 0.00035 -0.002406
-0.001776 0.000342 -0.002406
-0.001798 0.000342 -0.002393
-0.001817 0.000342 -0.002378
-0.001837 0.000343 -0.002363
-0.001857 0.000344 -0.002348
-0.001876 0.000345 -0.002333
-0.001895 0.000346 -0.002317
-0.000269 0.000704 -0.002594
-0.001054 0.00056 -0.002798
-0.001083 0.000365 -0.002737
-0.001087 0.000377 -0.002701
-0.001091 0.00039 -0.002664
-0.001097 0.000402 -0.002628
-0.001101 0.000416 -0.002591
-0.001105 0.00043 -0.002551
-0.001109 0.000444 -0.002512
-0.001112 0.000459 -0.002473
-0.00111 0.000478 -0.002425
-0.001103 0.000501 -0.00237
-0.001094 0.000526 -0.002311
-0.001088 0.000549 -0.002257
-0.001095 0.00056 -0.002223
-0.001108 0.000567 -0.002198
-0.001124 0.000571 -0.002177
-0.001142 0.000573 -0.002161
-0.001163 0.000572 -0.002147
-0.001185 0.000571 -0.002136
-0.00086 0.000651 -0.002838
-0.000218 0.000691 -0.002761
-0.001073 0.000513 -0.002776
-0.001437 0.000462 -0.00225
-0.001539 0.000411 -0.002314
-0.001584 0.00039 -0.002338
-0.001627 0.000372 -0.002358
-0.001668 0.000354 -0.002376
-0.001708 0.000338 -0.002392
-0.001747 0.000323 -0.002406
-0.001776 0.000315 -0.002406
-0.001798 0.000314 -0.002393
-0.001817 0.000315 -0.002378
-0.001837 0.000316 -0.002363
-0.001857 0.000317 -0.002348
-0.001876 0.000318 -0.002333
-0.001895 0.000319 -0.002317
-0.000939 0.00053 -0.00284
-0.000962 0.000558 -0.002833
-0.001082 0.000337 -0.002737
-0.001086 0.00035 -0.002701
-0.001092 0.000362 -0.002665
-0.001096 0.000376 -0.002627
-0.001101 0.000389 -0.00259
-0.001105 0.000403 -0.002552
-0.001109 0.000417 -0.002512
-0.001112 0.000432 -0.002472
-0.001111 0.00045 -0.002427
-0.001104 0.000474 -0.00237
-0.001093 0.0005 -0.00231
-0.001088 0.000522 -0.002257
-0.001095 0.000533 -0.002223
-0.001107 0.00054 -0.002197
-0.001123 0.000544 -0.002177
-0.001142 0.000545 -0.002161
-0.001163 0.000545 -0.002147
-0.001185 0.000544 -0.002136
-0.000889 0.000643 -0.002847
-0.000914 0.00064 -0.002845
-0.000985 0.000585 -0.002825
-0.000755 0.000489 -0.002746
-0.001539 0.000384 -0.002314
-0.001584 0.000364 -0.002337
-0.001627 0.000345 -0.002358
-0.001668 0.000327 -0.002376
-0.001708 0.000311 -0.002392
-0.001747 0.000296 -0.002405
-0.001776 0.000288 -0.002405
-0.001798 0.000287 -0.002393
-0.001817 0.000288 -0.002378
-0.001837 0.000289 -0.002363
-0.001857 0.00029 -0.002348
-0.001876 0.000291 -0.002333
-0.001895 0.000292 -0.002317
-0.000891 0.000504 -0.002852
-0.000939 0.000557 -0.00284
-0.001082 0.000311 -0.002736
-0.001086 0.000323 -0.002701
-0.001091 0.000335 -0.002665
-0.001096 0.000348 -0.002628
-0.001101 0.000362 -0.00259
-0.001105 0.000375 -0.002552
-0.001108 0.00039 -0.002512
-0.001112 0.000405 -0.002472
-0.001111 0.000423 -0.002427
-0.001104 0.000446 -0.002371
-0.001094 0.000472 -0.00231
-0.001088 0.000495 -0.002257
-0.001094 0.000506 -0.002222
-0.001107 0.000513 -0.002197
-0.001123 0.000517 -0.002177
-0.001142 0.000518 -0.002161
-0.001163 0.000518 -0.002147
-0.001185 0.000517 -0.002136
-0.000639 0.00075 -0.002621
-0.000962 0.000585 -0.002833
-0.000306 0.000704 -0.002461
-0.00029 0.000693 -0.002491
-0.001492 0.000379 -0.002288
-0.001539 0.000357 -0.002315
-0.001584 0.000337 -0.002337
-0.001627 0.000318 -0.002358
-0.001668 0.0003 -0.002376
-0.001708 0.000284 -0.002391
-0.001747 0.000268 -0.002405
-0.001776 0.000261 -0.002405
-0.001798 0.00026 -0.002393
-0.001817 0.000261 -0.002378
-0.001837 0.000262 -0.002363
-0.001856 0.000263 -0.002348
-0.001876 0.000264 -0.002333
-0.001895 0.000265 -0.002317
-0.000344 0.000753 -0.002449
-0.000826 0.000586 -0.00281
-0.001082 0.000283 -0.002737
-0.001086 0.000295 -0.002701
-0.001091 0.000308 -0.002664
-0.001097 0.000321 -0.002628
-0.001101 0.000334 -0.00259
-0.001105 0.000348 -0.002551
-0.001109 0.000363 -0.002512
-0.001112 0.000377 -0.002473
-0.001111 0.000396 -0.002426
-0.001104 0.000419 -0.00237
-0.001093 0.000445 -0.00231
-0.001088 0.000467 -0.002257
-0.001095 0.000479 -0.002223
-0.001107 0.000486 -0.002197
-0.001124 0.00049 -0.002177
-0.001142 0.000491 -0.00216
-0.001163 0.000491 -0.002147
-0.000937 0.000668 -0.002835
-0.000202 0.000733 -0.002794
-0.001032 0.000586 -0.002808
-0.001055 0.000479 -0.002799
-0.001437 0.000381 -0.002249
-0.001491 0.000353 -0.002286
-0.00154 0.000329 -0.002315
-0.001583 0.00031 -0.002337
-0.001627 0.00029 -0.002358
-0.001668 0.000273 -0.002376
-0.001708 0.000256 -0.002392
-0.001747 0.000241 -0.002406
-0.001776 0.000234 -0.002405
-0.001797 0.000233 -0.002393
-0.001817 0.000234 -0.002378
-0.001837 0.000235 -0.002363
-0.001856 0.000236 -0.002348
-0.001876 0.000237 -0.002333
-0.001895 0.000238 -0.002317
-0.000106 0.000453 -0.002981
-0.000915 0.000557 -0.002848
-0.000754 0.000707 -0.002745
-0.001086 0.000268 -0.002701
-0.001091 0.000281 -0.002664
-0.001097 0.000294 -0.002628
-0.001101 0.000307 -0.00259
-0.001106 0.000321 -0.002552
-0.001109 0.000335 -0.002513
-0.001112 0.00035 -0.002473
-0.00111 0.00037 -0.002424
-0.001103 0.000393 -0.00237
-0.001093 0.000418 -0.00231
-0.001088 0.00044 -0.002257
-0.001095 0.000452 -0.002223
-0.001107 0.000459 -0.002197
-0.001124 0.000462 -0.002177
-0.001142 0.000464 -0.00216
-0.001163 0.000464 -0.002147
-0.000961 0.000668 -0.00283
-0.000962 0.00064 -0.002832
-0.000915 0.000585 -0.002848
-0.00028 0.000698 -0.002543
-0.001374 0.000389 -0.002199
-0.001437 0.000354 -0.002249
-0.001491 0.000326 -0.002287
-0.00154 0.000302 -0.002315
-0.001584 0.000282 -0.002338
-0.001627 0.000263 -0.002357
-0.001668 0.000246 -0.002376
-0.001708 0.000229 -0.002392
-0.001747 0.000214 -0.002405
-0.001776 0.000207 -0.002404
-0.001798 0.000206 -0.002393
-0.001818 0.000206 -0.002378
-0.001837 0.000207 -0.002364
-0.001857 0.000208 -0.002348
-0.001876 0.000209 -0.002333
-0.001895 0.000211 -0.002317
-0.000985 0.000449 -0.002824
-0.001073 0.000567 -0.002777
-0.001032 0.000614 -0.002807
-0.001087 0.000241 -0.002701
-0.001091 0.000254 -0.002664
-0.001097 0.000266 -0.002628
-0.001102 0.00028 -0.002591
-0.001106 0.000294 -0.002552
-0.001109 0.000308 -0.002512
-0.001112 0.000323 -0.002473
-0.001109 0.000343 -0.002424
-0.001103 0.000366 -0.002369
-0.001094 0.000391 -0.002311
-0.001087 0.000414 -0.002256
-0.001095 0.000425 -0.002223
-0.001107 0.000432 -0.002197
-0.001123 0.000435 -0.002177
-0.001142 0.000437 -0.00216
-0.001163 0.000436 -0.002147
-0.00103 0.000671 -0.002801
-0.001031 0.000642 -0.002806
-3.2e-05 0.000475 -0.002992
-0.000259 0.000657 -0.002643
-0.001374 0.000363 -0.002198
-0.001437 0.000327 -0.002249
-0.001492 0.000298 -0.002288
-0.00154 0.000275 -0.002315
-0.001584 0.000255 -0.002338
-0.001627 0.000236 -0.002358
-0.001668 0.000219 -0.002375
-0.001708 0.000202 -0.002392
-0.001747 0.000187 -0.002405
-0.001775 0.00018 -0.002404
-0.001797 0.000179 -0.002392
-0.001817 0.000179 -0.002378
-0.001837 0.00018 -0.002363
-0.001857 0.000181 -0.002348
-0.001876 0.000182 -0.002333
-0.001895 0.000184 -0.002316
-0.000717 0.00051 -0.002708
-0.000205 0.000651 -0.002795
-0.000717 0.000674 -0.002708
-0.001088 0.000214 -0.002701
-0.001092 0.000226 -0.002665
-0.001096 0.00024 -0.002627
-0.001102 0.000253 -0.002591
-0.001106 0.000267 -0.002552
-0.00111 0.00028 -0.002514
-0.001112 0.000296 -0.002473
-0.001102 0.000339 -0.002368
-0.001094 0.000363 -0.002311
-0.001088 0.000386 -0.002257
-0.001094 0.000398 -0.002222
-0.001107 0.000404 -0.002197
-0.001123 0.000408 -0.002176
-0.001142 0.00041 -0.00216
-0.001163 0.000409 -0.002147
-0.000984 0.000668 -0.002822
-0.000193 0.000722 -0.002827
-0.001073 0.000594 -0.002776
-0.000248 0.000637 -0.002691
-0.001376 0.000334 -0.002202
-0.001437 0.0003 -0.002249
-0.001492 0.000271 -0.002287
-0.00154 0.000248 -0.002316
-0.001584 0.000228 -0.002338
-0.001626 0.000209 -0.002357
-0.001668 0.000192 -0.002375
-0.001708 0.000175 -0.002391
-0.001746 0.00016 -0.002405
-0.001774 0.000154 -0.002402
-0.001796 0.000153 -0.002391
-0.001817 0.000153 -0.002377
-0.001837 0.000153 -0.002363
-0.001856 0.000154 -0.002348
-0.001875 0.000155 -0.002332
-0.001894 0.000157 -0.002315
-0.000205 0.000597 -0.002795
-0.000233 0.000677 -0.002726
-0.000679 0.000697 -0.002668
-0.001088 0.000187 -0.0027
-0.001093 0.000199 -0.002665
-0.001097 0.000212 -0.002628
-0.001102 0.000225 -0.002591
-0.001106 0.000239 -0.002552
-0.00111 0.000253 -0.002514
-0.001113 0.000268 -0.002473
-0.001109 0.000289 -0.002423
-0.001103 0.000311 -0.002369
-0.001094 0.000337 -0.00231
-0.001087 0.000359 -0.002256
-0.001094 0.000371 -0.002222
-0.001107 0.000378 -0.002196
-0.001123 0.000381 -0.002176
-0.001142 0.000383 -0.00216
-0.001163 0.000382 -0.002147
-0.000859 0.000679 -0.002835
-0.001072 0.000651 -0.002773
-0.000939 0.000585 -0.00284
-0.001055 0.000506 -0.002798
-0.001438 0.000272 -0.00225
-0.001492 0.000244 -0.002287
-0.00154 0.000221 -0.002315
-0.001584 0.0002 -0.002338
-0.001627 0.000182 -0.002358
-0.001667 0.000165 -0.002375
-0.001708 0.000148 -0.002391
-0.001746 0.000133 -0.002404
-0.001772 0.000128 -0.002399
-0.001794 0.000127 -0.002388
-0.001815 0.000127 -0.002375
-0.001836 0.000127 -0.002361
-0.001855 0.000128 -0.002346
-0.001874 0.000129 -0.00233
-0.001892 0.000131 -0.002312
-0.000326 0.000683 -0.002441
-0.000248 0.00069 -0.002692
-0.000236 0.000731 -0.002728
-0.001088 0.00016 -0.0027
-0.001093 0.000172 -0.002665
-0.001097 0.000185 -0.002629
-0.001102 0.000198 -0.00259
-0.001106 0.000212 -0.002552
-0.001109 0.000226 -0.002513
-0.001113 0.000241 -0.002474
-0.001109 0.000262 -0.002423
-0.001103 0.000284 -0.002369
-0.001093 0.00031 -0.002309
-0.001088 0.000332 -0.002257
-0.001094 0.000344 -0.002221
-0.001107 0.00035 -0.002196
-0.001123 0.000354 -0.002176
-0.001142 0.000356 -0.00216
-0.001163 0.000355 -0.002147
-0.001185 0.000353 -0.002136
-0.000938 0.00064 -0.002839
-0.000861 0.000596 -0.002839
-0.001032 0.000505 -0.002808
-0.001491 0.000217 -0.002287
-0.001539 0.000194 -0.002315
-0.001584 0.000173 -0.002338
-0.001627 0.000155 -0.002358
-0.001667 0.000138 -0.002374
-0.001708 0.000121 -0.002391
-0.001744 0.000108 -0.0024
-0.001769 0.000104 -0.002394
-0.001791 0.000103 -0.002383
-0.001812 0.000102 -0.00237
-0.001833 0.000102 -0.002357
-0.001853 0.000103 -0.002342
-0.001871 0.000104 -0.002326
-0.001889 0.000107 -0.002308
-0.000233 0.00065 -0.002727
-0.000281 0.000751 -0.002546
-0.000248 0.000745 -0.002692
-0.001088 0.000133 -0.002701
-0.001092 0.000145 -0.002665
-0.001097 0.000157 -0.002629
-0.001102 0.000171 -0.00259
-0.001106 0.000185 -0.002552
-0.00111 0.000199 -0.002514
-0.001113 0.000214 -0.002474
-0.001102 0.000258 -0.002367
-0.001093 0.000283 -0.002309
-0.001087 0.000305 -0.002256
-0.001094 0.000317 -0.002221
-0.001107 0.000323 -0.002196
-0.001123 0.000327 -0.002176
-0.001142 0.000328 -0.00216
-0.001163 0.000328 -0.002147
-0.001185 0.000326 -0.002136
-0.000826 0.000667 -0.002811
-0.000826 0.000613 -0.002811
-0.000259 0.000684 -0.002642
-0.001492 0.000189 -0.002288
-0.001539 0.000167 -0.002314
-0.001584 0.000146 -0.002337
-0.001626 0.000128 -0.002357
-0.001668 0.00011 -0.002375
-0.001707 9.4e-05 -0.00239
-0.00174 8.4e-05 -0.002395
-0.001764 8.1e-05 -0.002387
-0.001786 8e-05 -0.002376
-0.001808 7.9e-05 -0.002363
-0.001828 7.9e-05 -0.00235
-0.001848 8e-05 -0.002335
-0.001867 8.1e-05 -0.002319
-0.001885 8.3e-05 -0.002301
-0.001073 0.000485 -0.002777
-0.000178 0.000537 -0.002857
-0.00026 0.000736 -0.002647
-0.001088 0.000105 -0.002701
-0.001093 0.000117 -0.002665
-0.001097 0.000131 -0.002628
-0.001101 0.000144 -0.00259
-0.001105 0.000158 -0.002551
-0.00111 0.000171 -0.002514
-0.001113 0.000187 -0.002473
-0.001102 0.00023 -0.002368
-0.001093 0.000256 -0.002309
-0.001087 0.000278 -0.002256
-0.001094 0.00029 -0.002221
-0.001107 0.000296 -0.002196
-0.001123 0.0003 -0.002176
-0.001142 0.000301 -0.00216
-0.001163 0.000301 -0.002147
-0.000826 0.000695 -0.002811
-0.001008 0.00064 -0.002816
-0.000754 0.000652 -0.002745
0.000373 0.000738 -0.002416
-0.001539 0.00014 -0.002314
-0.001584 0.000119 -0.002338
-0.001626 0.000101 -0.002356
-0.001667 8.4e-05 -0.002374
-0.001705 6.9e-05 -0.002387
-0.001734 6.1e-05 -0.002386
-0.001758 5.9e-05 -0.002377
-0.00178 5.8e-05 -0.002366
-0.001801 5.7e-05 -0.002354
-0.001879 6.2e-05 -0.002292
-0.000347 0.000687 -0.002427
-0.00026 0.000709 -0.002646
-0.000248 0.000718 -0.00269
-0.001088 7.8e-05 -0.002701
-0.001093 9.1e-05 -0.002664
-0.001097 0.000104 -0.002628
-0.001101 0.000117 -0.00259
-0.001106 0.000131 -0.002551
-0.00111 0.000144 -0.002514
-0.001113 0.00016 -0.002473
-0.00111 0.00018 -0.002424
-0.001102 0.000204 -0.002367
-0.001092 0.000229 -0.002308
-0.001087 0.000251 -0.002255
-0.001094 0.000263 -0.002221
-0.001107 0.000269 -0.002196
-0.001123 0.000273 -0.002176
-0.001142 0.000274 -0.00216
-0.001163 0.000274 -0.002147
-0.000791 0.000713 -0.00278
-0.001053 0.000644 -0.002794
-0.00089 0.000586 -0.002851
-0.001259 0.000752 -0.002123
-0.001539 0.000112 -0.002315
-0.001584 9.2e-05 -0.002337
-0.001626 7.4e-05 -0.002356
-0.001666 5.7e-05 -0.002372
-0.0017 4.6e-05 -0.00238
-0.001727 4.1e-05 -0.002375
-0.00175 3.9e-05 -0.002365
-0.001771 3.8e-05 -0.002353
-0.001793 3.7e-05 -0.00234
-0.000962 0.000476 -0.002833
-0.000218 0.000664 -0.002761
-0.001009 0.000586 -0.002816
-0.001085 5.2e-05 -0.002698
-0.001093 6.4e-05 -0.002664
-0.001097 7.7e-05 -0.002627
-0.001101 9e-05 -0.002589
-0.001106 0.000104 -0.002552
-0.00111 0.000117 -0.002513
-0.001113 0.000132 -0.002473
-0.00111 0.000152 -0.002425
-0.001101 0.000177 -0.002367
-0.001086 0.000224 -0.002255
-0.001094 0.000235 -0.002222
-0.001107 0.000242 -0.002196
-0.001123 0.000245 -0.002176
-0.001142 0.000247 -0.00216
-0.001163 0.000246 -0.002147
-0.000913 0.00067 -0.00284
-0.000218 0.000745 -0.002761
-0.000233 0.000704 -0.002727
-0.000248 0.000664 -0.002691
-0.001492 0.000108 -0.002287
-0.001539 8.5e-05 -0.002314
-0.001584 6.5e-05 -0.002337
-0.001626 4.7e-05 -0.002356
-0.001662 3.4e-05 -0.002366
-0.001691 2.6e-05 -0.002365
-0.001716 2.3e-05 -0.002358
-0.001738 2.1e-05 -0.002348
-0.00176 2e-05 -0.002336
-0.00027 0.000731 -0.002594
-0.000591 0.000739 -0.002534
-0.000218 0.000718 -0.002761
-0.001079 3e-05 -0.002689
-0.00109 3.8e-05 -0.002661
-0.001096 5e-05 -0.002626
-0.001101 6.3e-05 -0.002589
-0.001106 7.6e-05 -0.002552
-0.00111 9e-05 -0.002514
-0.001113 0.000105 -0.002474
-0.001111 0.000124 -0.002426
-0.001379 -2.3e-05 -0.001579
-0.001087 0.000197 -0.002255
-0.001094 0.000208 -0.002221
-0.001107 0.000215 -0.002196
-0.001123 0.000218 -0.002176
-0.001142 0.00022 -0.00216
-0.001163 0.000219 -0.002147
-0.000887 0.000672 -0.002842
-0.000985 0.00064 -0.002824
-0.001054 0.000588 -0.002797
0.000117 0.000545 -0.002959
-0.001493 8e-05 -0.002289
-0.001538 5.9e-05 -0.002313
-0.00162 2.4e-05 -0.002348
-0.001651 1.6e-05 -0.002349
-0.001677 1.2e-05 -0.002343
-0.001699 1e-05 -0.002333
-0.001359 -2.3e-05 -0.001594
-0.001823 1e-05 -0.002252
-0.001842 1.1e-05 -0.002237
-0.000962 0.000531 -0.002832
-0.001032 0.000559 -0.002808
-0.000754 0.000679 -0.002745
-0.001066 1.3e-05 -0.00267
-0.001081 1.8e-05 -0.002649
-0.001092 2.6e-05 -0.002621
-0.0011 3.7e-05 -0.002588
-0.001105 5e-05 -0.00255
-0.00111 6.3e-05 -0.002514
-0.001113 7.8e-05 -0.002473
-0.00111 9.8e-05 -0.002424
-0.001103 0.000121 -0.002369
-0.001086 0.00017 -0.002254
-0.001094 0.000181 -0.002221
-0.001107 0.000188 -0.002196
-0.001123 0.000191 -0.002176
-0.001142 0.000193 -0.00216
-0.001163 0.000192 -0.002147
-0.000679 0.000752 -0.002666
-0.000939 0.000612 -0.002841
-0.000718 0.000646 -0.002709
-0.00068 0.00056 -0.002669
-0.001494 5.1e-05 -0.002291
-0.001537 3.3e-05 -0.002311
-0.001575 1.8e-05 -0.002324
-0.001606 9e-06 -0.002325
-0.00163 6e-06 -0.002318
-0.001652 6e-06 -0.002305
-0.001672 6e-06 -0.002291
-0.001734 5e-06 -0.002252
-0.001755 5e-06 -0.002238
-0.001775 6e-06 -0.002224
-0.001795 6e-06 -0.00221
-0.001816 6e-06 -0.002196
-0.000891 0.000477 -0.002853
-0.000915 0.000612 -0.002847
-0.001022 6e-06 -0.002649
-0.001043 5e-06 -0.002636
-0.001062 7e-06 -0.00262
-0.00108 9e-06 -0.002602
-0.001094 1.5e-05 -0.002578
-0.001103 2.5e-05 -0.002547
-0.001109 3.6e-05 -0.002512
-0.001114 5e-05 -0.002474
-0.001109 7.1e-05 -0.002423
-0.001103 9.4e-05 -0.002369
-0.001092 0.000121 -0.002307
-0.001086 0.000143 -0.002254
-0.001093 0.000154 -0.00222
-0.001107 0.00016 -0.002196
-0.001123 0.000164 -0.002176
-0.001142 0.000166 -0.002159
-0.001163 0.000165 -0.002146
-0.001009 0.000613 -0.002816
-0.000985 0.000558 -0.002825
-0.001009 0.00045 -0.002816
-0.001339 -2.4e-05 -0.001609
-0.001491 2.7e-05 -0.002285
-0.001529 1.2e-05 -0.002298
-0.001557 6e-06 -0.002297
-0.001578 5e-06 -0.002284
-0.001599 6e-06 -0.00227
-0.00162 5e-06 -0.002258
-0.001642 4e-06 -0.002246
-0.001682 5e-06 -0.002217
-0.001702 5e-06 -0.002203
-0.001722 5e-06 -0.002189
-0.001865 8e-06 -0.002092
-0.000949 5e-06 -0.002628
-0.00097 5e-06 -0.002615
-0.00099 5e-06 -0.002601
-0.001012 5e-06 -0.002588
-0.001032 5e-06 -0.002575
-0.001053 4e-06 -0.002562
-0.001074 5e-06 -0.002548
-0.001091 7e-06 -0.002529
-0.001103 1.4e-05 -0.002504
-0.001111 2.5e-05 -0.002471
-0.001089 9.6e-05 -0.002303
-0.001086 0.000116 -0.002253
-0.001094 0.000127 -0.002221
-0.001106 0.000134 -0.002195
-0.001123 0.000137 -0.002175
-0.001142 0.000139 -0.002159
-0.001163 0.000138 -0.002146
-0.000985 0.000612 -0.002825
-0.00089 0.000559 -0.002851
-0.000791 0.00055 -0.00278
-0.00148 9e-06 -0.002269
-0.001506 4e-06 -0.002264
-0.001551 1e-06 -0.002243
-0.001571 2e-06 -0.002228
-0.001591 2e-06 -0.002214
-0.001653 2e-06 -0.002173
-0.001673 2e-06 -0.00216
-0.001693 3e-06 -0.002145
-0.001838 3e-06 -0.002051
-0.001856 6e-06 -0.002034
-0.000922 1e-06 -0.002587
-0.000943 1e-06 -0.002573
-0.000791 0.000468 -0.00278
-0.000826 0.00064 -0.002811
-0.001002 3e-06 -0.002529
-0.001022 4e-06 -0.002514
-0.001044 3e-06 -0.002502
-0.001063 4e-06 -0.002487
-0.000962 0.000612 -0.002833
-0.000884 0.000704 -0.002832
-0.001086 8.9e-05 -0.002254
-0.001094 9.9e-05 -0.002221
-0.001106 0.000107 -0.002195
-0.001123 0.00011 -0.002175
-0.001142 0.000111 -0.002159
-0.001163 0.000111 -0.002146
-0.000791 0.000686 -0.00278
-0.001072 0.000622 -0.002775
-0.000678 0.000671 -0.002665
-0.000915 0.000448 -0.002848
-0.001429 7e-06 -0.002237
-0.001456 2e-06 -0.002232
-0.001476 3e-06 -0.002219
-0.00132 -2.5e-05 -0.001623
-0.001516 4e-06 -0.002189
-0.001536 4e-06 -0.002176
-0.001557 4e-06 -0.002163
-0.001299 -2.5e-05 -0.001638
-0.001599 3e-06 -0.002136
-0.001619 3e-06 -0.002123
-0.001639 4e-06 -0.002107
-0.00166 4e-06 -0.002095
-0.001742 4e-06 -0.00204
-0.001804 4e-06 -0.001999
-0.001823 5e-06 -0.001985
-0.001843 7e-06 -0.001971
-0.001849 1.8e-05 -0.001934
-0.000827 0.00045 -0.002811
-0.001032 0.000477 -0.002808
-0.000985 0.000477 -0.002824
-0.000992 2e-06 -0.002468
-0.001013 2e-06 -0.002456
-0.001034 2e-06 -0.002443
-0.000915 0.00053 -0.002848
-0.000129 0.000687 -0.002945
0.000166 0.000642 -0.002869
-0.001087 6.1e-05 -0.002255
-0.001094 7.2e-05 -0.002221
-0.001106 7.9e-05 -0.002195
-0.001123 8.3e-05 -0.002175
-0.001142 8.4e-05 -0.002159
-0.001163 8.4e-05 -0.002146
-0.001051 0.000674 -0.002788
-0.001054 0.000616 -0.002796
-0.000204 0.000705 -0.002795
-0.000861 0.000433 -0.002838
-0.001404 2e-06 -0.002199
-0.001569 2e-06 -0.002091
-0.001589 2e-06 -0.002076
-0.001609 2e-06 -0.002062
-0.001631 1e-06 -0.002051
-0.001652 1e-06 -0.002037
-0.001672 1e-06 -0.002024
-0.001693 1e-06 -0.00201
-0.001714 1e-06 -0.001997
-0.001735 1e-06 -0.001984
-0.001756 -0.0 -0.001972
-0.001775 1e-06 -0.001956
-0.001795 2e-06 -0.001942
-0.001815 3e-06 -0.001928
-0.001829 8e-06 -0.001903
-0.000858 1e-06 -0.00249
-0.000879 1e-06 -0.002476
-0.000901 -0.0 -0.002465
-0.001009 0.000477 -0.002816
-0.000679 0.000643 -0.002666
-0.000718 0.000619 -0.002709
-0.001279 -2.5e-05 -0.001652
-0.001259 -2.6e-05 -0.001666
-0.001087 3.4e-05 -0.002255
-0.001094 4.5e-05 -0.00222
-0.001107 5.2e-05 -0.002195
-0.001123 5.6e-05 -0.002175
-0.001142 5.7e-05 -0.002159
-0.001162 5.7e-05 -0.002146
-0.001004 0.000701 -0.002803
-0.000754 0.000625 -0.002745
-0.000791 0.000604 -0.00278
-0.001287 0.000718 -0.00213
-0.001239 -2.6e-05 -0.00168
-0.00139 4e-06 -0.002133
-0.001411 4e-06 -0.002119
-0.001432 3e-06 -0.002106
-0.001452 3e-06 -0.002093
-0.001219 -2.6e-05 -0.001694
-0.001555 3e-06 -0.002025
-0.001576 3e-06 -0.002012
-0.001596 4e-06 -0.001997
-0.001616 4e-06 -0.001983
-0.001636 5e-06 -0.001969
-0.001656 5e-06 -0.001955
-0.001677 5e-06 -0.001942
-0.0017 3e-06 -0.001931
-0.00172 3e-06 -0.001918
-0.001741 3e-06 -0.001904
-0.001762 3e-06 -0.001891
-0.001782 3e-06 -0.001878
-0.001801 4e-06 -0.001861
-0.000824 3e-06 -0.002437
-0.000843 4e-06 -0.002422
-0.000863 4e-06 -0.002408
-0.001055 0.000451 -0.002799
-0.000939 0.000449 -0.00284
-0.000962 0.000449 -0.002832
6.7e-05 0.000613 -0.002989
-0.000679 0.000615 -0.002668
-8.1e-05 0.000448 -0.00299
-0.001073 0.00054 -0.002777
-0.000348 0.000713 -0.002428
-0.00026 0.000628 -0.002645
-0.001086 7e-06 -0.002251
-0.001095 1.7e-05 -0.002222
-0.001107 2.4e-05 -0.002196
-0.001123 2.9e-05 -0.002175
-0.001141 3e-05 -0.002158
-0.001162 3e-05 -0.002146
-0.000861 0.000623 -0.002838
0.000193 0.000745 -0.002823
0.000117 0.000683 -0.002955
-0.001272 7e-06 -0.002132
-0.001303 -2e-06 -0.002135
-0.001326 -4e-06 -0.002125
-0.001198 -2.6e-05 -0.001708
-0.001364 -2e-06 -0.002094
-0.001385 -2e-06 -0.00208
-0.001406 -2e-06 -0.002068
-0.001508 -1e-06 -0.001998
-0.001528 -1e-06 -0.001985
-0.001548 -0.0 -0.00197
-0.001568 -0.0 -0.001956
-0.001589 -0.0 -0.001943
-0.001609 1e-06 -0.001928
-0.00163 1e-06 -0.001915
-0.00167 1e-06 -0.001886
-0.00169 1e-06 -0.001872
-0.00177 3e-06 -0.001814
-0.001775 5.1e-05 -0.001688
-0.00179 5.6e-05 -0.001665
4.2e-05 0.000612 -0.002991
-0.000815 0.0 -0.00238
-0.000837 -0.0 -0.002368
-0.000858 -1e-06 -0.002355
-0.000755 0.00057 -0.002746
-0.000915 0.000503 -0.002848
0.000469 0.000723 -0.00241
1.8e-05 0.000611 -0.002991
-0.00013 0.000496 -0.002945
-0.000206 0.000624 -0.002795
-0.001054 0.000533 -0.002798
-0.00089 0.000614 -0.002849
-0.000981 0.0007 -0.002812
0.000117 0.000491 -0.002959
-0.000755 0.000597 -0.002746
-0.000861 0.000542 -0.002839
-0.00112 3e-06 -0.002171
-0.001139 5e-06 -0.002154
-0.001161 4e-06 -0.002144
-0.00068 0.000533 -0.002669
-0.001032 0.00045 -0.002808
-0.00028 0.000644 -0.002543
-0.001268 1e-06 -0.002082
-0.001329 1e-06 -0.002041
-0.001348 2e-06 -0.002025
-0.001453 1e-06 -0.00196
-0.001472 2e-06 -0.001944
-0.001494 1e-06 -0.001932
-0.001515 0.0 -0.00192
-0.001536 -0.0 -0.001907
-0.001557 -0.0 -0.001893
-0.001577 -0.0 -0.00188
-0.001619 -1e-06 -0.001854
-0.00164 -1e-06 -0.00184
-0.001659 0.0 -0.001825
-0.001775 2.4e-05 -0.001688
-0.001789 2.9e-05 -0.001665
-0.001806 3.3e-05 -0.001645
-0.000177 0.0007 -0.002858
0.000213 0.000629 -0.002762
-0.000803 -0.0 -0.002317
-0.000845 -0.0 -0.002291
-0.000865 0.0 -0.002276
9.2e-05 0.000533 -0.002985
-0.001178 -2.7e-05 -0.001722
-0.000966 2e-06 -0.002206
-0.000987 1e-06 -0.002193
-0.001007 2e-06 -0.002179
-0.000205 0.000678 -0.002795
0.000591 0.000689 -0.00254
-0.00028 0.000671 -0.002543
-0.000279 0.000726 -0.002542
-0.000718 0.000592 -0.002709
-0.001276 1e-06 -0.002004
-0.001296 2e-06 -0.001991
-0.001318 1e-06 -0.001979
-0.001157 -2.6e-05 -0.001735
-0.00142 1e-06 -0.001909
-0.00144 1e-06 -0.001896
-0.001461 1e-06 -0.001883
-0.001481 2e-06 -0.001869
-0.001502 2e-06 -0.001855
-0.001521 3e-06 -0.00184
-0.001543 1e-06 -0.001828
-0.001584 2e-06 -0.0018
-0.001604 2e-06 -0.001786
-0.001749 2e-06 -0.001693
-0.001767 4e-06 -0.001675
-0.001786 5e-06 -0.00166
-0.001804 7e-06 -0.001642
-0.000891 0.000531 -0.002852
-0.00079 2e-06 -0.002252
-0.000811 2e-06 -0.002239
-0.000833 1e-06 -0.002227
-0.00026 0.000601 -0.002645
-0.00027 0.000622 -0.002594
-0.001137 -2.7e-05 -0.001749
-0.000917 -1e-06 -0.002176
-0.000938 -1e-06 -0.002164
-0.000959 -2e-06 -0.002151
-0.00098 -2e-06 -0.002138
-0.001002 -3e-06 -0.002126
-0.001233 0.000755 -0.002124
-0.000679 0.000589 -0.002666
-0.000985 0.000504 -0.002825
-0.000328 0.000733 -0.002449
-0.000306 0.000731 -0.002461
-0.000233 0.000595 -0.002727
-0.000269 0.00065 -0.002593
-0.000288 0.00075 -0.002485
-0.001189 -5e-06 -0.002007
-0.00121 -5e-06 -0.001994
-0.001251 -5e-06 -0.001967
-0.001272 -5e-06 -0.001953
-0.001292 -5e-06 -0.00194
