0.001462 0.000435 0.002434
0.001461 0.000452 0.002389
0.001458 0.000472 0.002341
0.001398 0.000589 0.002079
0.001405 0.0006 0.002045
0.001417 0.000606 0.00202
0.001433 0.00061 0.001999
0.001452 0.000612 0.001982
0.001472 0.000612 0.001968
0.001493 0.000611 0.001956
0.001517 0.000609 0.001947
0.001544 0.000603 0.001943
0.001575 0.000594 0.001945
0.00172 0.000524 0.002027
0.001767 0.000503 0.002051
0.001812 0.000483 0.002073
0.001853 0.000465 0.00209
0.001892 0.00045 0.002104
0.00193 0.000436 0.002115
0.001968 0.000421 0.002127
0.002004 0.000408 0.002136
0.00204 0.000395 0.002146
0.002075 0.000383 0.002154
0.002105 0.000375 0.002153
0.000632 0.000495 0.00264
0.000609 0.000459 0.002729
0.000677 0.000549 0.00238
0.000767 0.000691 0.002337
0.000609 0.00054 0.002729
0.000458 0.00045 0.002982
0.001043 0.000612 0.00255
0.000528 0.000532 0.002957
0.001349 0.00064 0.002695
0.001389 0.000333 0.002677
0.001411 0.000332 0.002666
0.001432 0.000331 0.002654
0.001451 0.000332 0.002638
0.001459 0.000342 0.002606
0.001461 0.000358 0.002565
0.001462 0.000374 0.002522
0.001463 0.00039 0.00248
0.001462 0.000408 0.002435
0.001461 0.000425 0.00239
0.001458 0.000445 0.002341
0.001398 0.000562 0.002079
0.001405 0.000573 0.002045
0.001417 0.000579 0.002019
0.001433 0.000583 0.001999
0.001452 0.000585 0.001982
0.001472 0.000585 0.001968
0.001493 0.000584 0.001956
0.001517 0.000582 0.001947
0.001544 0.000576 0.001942
0.001576 0.000566 0.001945
0.00172 0.000498 0.002026
0.001767 0.000476 0.002051
0.001812 0.000456 0.002073
0.001854 0.000438 0.002091
0.001892 0.000423 0.002103
0.00193 0.000408 0.002116
0.001968 0.000394 0.002127
0.002004 0.000381 0.002136
0.00204 0.000368 0.002146
0.002075 0.000356 0.002155
0.002105 0.000348 0.002153
0.000557 0.000396 0.002888
0.000507 0.000365 0.002972
0.001115 0.000466 0.00261
0.000528 0.000478 0.002957
0.001148 0.000587 0.002634
0.000434 0.000587 0.002986
0.001367 0.000307 0.002688
0.001389 0.000306 0.002677
0.001411 0.000305 0.002666
0.001432 0.000303 0.002654
0.001451 0.000305 0.002638
0.001459 0.000315 0.002606
0.001461 0.00033 0.002565
0.001462 0.000347 0.002522
0.001463 0.000363 0.00248
0.001462 0.00038 0.002436
0.001461 0.000398 0.002389
0.001458 0.000418 0.002341
0.001453 0.000439 0.00229
0.001412 0.000506 0.002143
0.001399 0.000534 0.002079
0.001405 0.000546 0.002045
0.001417 0.000552 0.002019
0.001433 0.000556 0.001999
0.001452 0.000558 0.001982
0.001472 0.000558 0.001968
0.001493 0.000557 0.001956
0.001516 0.000555 0.001947
0.001544 0.000549 0.001942
0.001576 0.000539 0.001946
0.001618 0.000521 0.001964
0.001669 0.000495 0.001995
0.00172 0.00047 0.002026
0.001766 0.000449 0.00205
0.001811 0.000429 0.002073
0.001853 0.000411 0.00209
0.001892 0.000395 0.002104
0.00193 0.000381 0.002115
0.001967 0.000367 0.002127
0.002004 0.000354 0.002136
0.00204 0.00034 0.002147
0.002075 0.000328 0.002155
0.001372 0.000423 0.002685
0.000507 0.000474 0.002972
0.000433 0.000506 0.002985
0.000483 0.000584 0.002978
0.001367 0.00028 0.002689
0.001389 0.000278 0.002677
0.001411 0.000277 0.002666
0.001432 0.000276 0.002654
0.001451 0.000278 0.002638
0.001459 0.000288 0.002606
0.001461 0.000303 0.002565
0.001462 0.00032 0.002522
0.001463 0.000336 0.002479
0.001462 0.000353 0.002435
0.001461 0.000371 0.002389
0.001458 0.00039 0.002341
0.001452 0.000412 0.002289
0.00141 0.00048 0.00214
0.001398 0.000507 0.002079
0.001405 0.000518 0.002045
0.001417 0.000525 0.002019
0.001433 0.000529 0.001999
0.001452 0.00053 0.001982
0.001472 0.000531 0.001968
0.001493 0.00053 0.001956
0.001517 0.000527 0.001947
0.001544 0.000522 0.001942
0.001576 0.000511 0.001946
0.001618 0.000494 0.001964
0.00167 0.000468 0.001996
0.00172 0.000443 0.002026
0.001766 0.000422 0.00205
0.001812 0.000401 0.002074
0.001853 0.000384 0.00209
0.001892 0.000368 0.002104
0.00193 0.000354 0.002116
0.001968 0.000339 0.002127
0.002004 0.000326 0.002137
0.00204 0.000313 0.002146
0.002075 0.000301 0.002155
0.001406 -3.1e-05 0.001565
0.001387 -3.1e-05 0.001579
0.001279 0.00045 0.002716
0.000597 0.000551 0.002771
0.000507 0.000501 0.002972
0.000557 0.000613 0.002889
0.001367 0.000253 0.002688
0.001389 0.000251 0.002677
0.001411 0.00025 0.002666
0.001432 0.000249 0.002653
0.001451 0.000251 0.002637
0.00146 0.00026 0.002607
0.001461 0.000276 0.002565
0.001462 0.000292 0.002522
0.001462 0.000309 0.002479
0.001462 0.000326 0.002435
0.00146 0.000345 0.002388
0.001458 0.000363 0.002341
0.001453 0.000384 0.002291
0.001367 -3.2e-05 0.001595
0.001411 0.000453 0.002141
0.001398 0.00048 0.002079
0.001404 0.000492 0.002044
0.001417 0.000498 0.002019
0.001433 0.000502 0.001998
0.001451 0.000503 0.001982
0.001472 0.000504 0.001968
0.001493 0.000503 0.001956
0.001517 0.0005 0.001947
0.001544 0.000494 0.001943
0.001577 0.000484 0.001947
0.001618 0.000467 0.001964
0.00167 0.00044 0.001997
0.001721 0.000415 0.002027
0.001766 0.000395 0.00205
0.001813 0.000373 0.002074
0.001853 0.000357 0.00209
0.001892 0.000341 0.002104
0.00193 0.000326 0.002116
0.001967 0.000313 0.002127
0.002004 0.000299 0.002137
0.00204 0.000286 0.002146
0.002075 0.000274 0.002154
0.001348 -3.3e-05 0.00161
0.001328 -3.3e-05 0.001625
0.000384 0.000292 0.002992
0.000645 0.00069 0.002441
0.000543 0.000517 0.002925
0.000571 0.000627 0.002851
0.001367 0.000226 0.002689
0.001389 0.000224 0.002677
0.001411 0.000223 0.002666
0.001432 0.000222 0.002653
0.001451 0.000224 0.002637
0.001461 0.000232 0.002608
0.001461 0.000249 0.002565
0.001462 0.000265 0.002523
0.001462 0.000282 0.002479
0.001462 0.000299 0.002435
0.00146 0.000317 0.002388
0.001458 0.000336 0.002341
0.001453 0.000356 0.002291
0.001398 0.000453 0.002079
0.001404 0.000464 0.002044
0.001417 0.000471 0.002019
0.001433 0.000475 0.001998
0.001452 0.000476 0.001982
0.001472 0.000477 0.001968
0.001493 0.000475 0.001956
0.001517 0.000472 0.001947
0.001544 0.000467 0.001943
0.001577 0.000457 0.001947
0.001618 0.00044 0.001964
0.00167 0.000414 0.001996
0.001721 0.000388 0.002027
0.001767 0.000367 0.002051
0.001812 0.000346 0.002074
0.001854 0.000329 0.002091
0.001892 0.000314 0.002103
0.001931 0.000299 0.002116
0.001967 0.000286 0.002126
0.002005 0.000272 0.002137
0.00204 0.000259 0.002146
0.002075 0.000247 0.002154
0.001308 -3.4e-05 0.001639
0.001288 -3.4e-05 0.001654
0.001269 -3.5e-05 0.001669
0.001372 0.000451 0.002685
0.000633 0.000602 0.002642
0.000557 0.000532 0.002888
0.000506 0.000583 0.002971
0.001348 0.000669 0.002691
0.001389 0.000197 0.002677
0.001411 0.000196 0.002665
0.001432 0.000195 0.002653
0.00145 0.000197 0.002636
0.00146 0.000206 0.002607
0.001461 0.000222 0.002565
0.001462 0.000237 0.002523
0.001462 0.000255 0.002478
0.001462 0.000271 0.002435
0.00146 0.00029 0.002388
0.001458 0.000309 0.002341
0.001453 0.00033 0.00229
0.001398 0.000425 0.002079
0.001404 0.000437 0.002044
0.001417 0.000444 0.002019
0.001433 0.000448 0.001998
0.001451 0.000449 0.001982
0.001472 0.000449 0.001968
0.001493 0.000448 0.001956
0.001517 0.000445 0.001948
0.001544 0.00044 0.001943
0.001577 0.00043 0.001947
0.001617 0.000413 0.001963
0.00167 0.000386 0.001996
0.00172 0.000362 0.002026
0.001767 0.00034 0.002051
0.001813 0.000319 0.002074
0.001854 0.000302 0.002091
0.001892 0.000287 0.002103
0.00193 0.000272 0.002116
0.001968 0.000258 0.002127
0.002005 0.000244 0.002138
0.00204 0.000232 0.002146
0.002075 0.00022 0.002154
0.001248 -3.5e-05 0.001683
0.000848 0.000567 0.002346
0.00088 0.000689 0.002367
0.000964 0.00066 0.002466
0.000557 0.000586 0.002888
0.000433 0.000642 0.002985
0.001388 0.00017 0.002677
0.00141 0.000169 0.002665
0.001431 0.000169 0.002652
0.00145 0.00017 0.002635
0.001459 0.000179 0.002606
0.001461 0.000195 0.002565
0.001463 0.00021 0.002523
0.001462 0.000227 0.002479
0.001462 0.000245 0.002434
0.00146 0.000263 0.002388
0.001458 0.000281 0.002342
0.001453 0.000303 0.00229
0.001398 0.000398 0.002079
0.001405 0.00041 0.002044
0.001417 0.000417 0.002019
0.001433 0.00042 0.001998
0.001452 0.000422 0.001982
0.001472 0.000422 0.001968
0.001493 0.000421 0.001956
0.001517 0.000418 0.001947
0.001544 0.000412 0.001943
0.001577 0.000403 0.001947
0.001618 0.000385 0.001964
0.00167 0.000359 0.001996
0.00172 0.000335 0.002026
0.001767 0.000313 0.002051
0.001813 0.000292 0.002074
0.001854 0.000275 0.002091
0.001892 0.00026 0.002103
0.00193 0.000245 0.002116
0.001968 0.00023 0.002128
0.002004 0.000218 0.002137
0.00204 0.000205 0.002146
0.002075 0.000193 0.002154
0.002103 0.000187 0.002151
0.001228 -3.5e-05 0.001697
0.000659 0.000514 0.002403
0.000409 0.000317 0.002989
0.001328 0.000365 0.002708
0.001148 0.000533 0.002634
0.000792 0.000743 0.002335
0.000922 0.000743 0.002416
0.000527 0.000643 0.002954
0.001388 0.000143 0.002676
0.001409 0.000143 0.002664
0.00143 0.000143 0.00265
0.001448 0.000144 0.002633
0.001459 0.000152 0.002606
0.001463 0.000166 0.002567
0.001463 0.000183 0.002523
0.001462 0.0002 0.002478
0.001461 0.000218 0.002434
0.00146 0.000236 0.002388
0.001458 0.000254 0.002341
0.001398 0.000371 0.002078
0.001405 0.000382 0.002045
0.001417 0.000389 0.002019
0.001433 0.000393 0.001998
0.001452 0.000395 0.001982
0.001472 0.000395 0.001968
0.001493 0.000394 0.001956
0.001517 0.000391 0.001947
0.001544 0.000385 0.001943
0.001577 0.000375 0.001947
0.001618 0.000358 0.001964
0.00167 0.000332 0.001996
0.00172 0.000307 0.002026
0.001767 0.000285 0.002052
0.001812 0.000265 0.002074
0.001854 0.000247 0.002091
0.001892 0.000233 0.002103
0.00193 0.000218 0.002116
0.001967 0.000204 0.002126
0.002004 0.000191 0.002136
0.00204 0.000177 0.002146
0.002074 0.000166 0.002153
0.002102 0.00016 0.002149
0.001208 -3.5e-05 0.001711
0.000677 0.000522 0.00238
0.00108 0.000402 0.002583
0.000434 0.000315 0.002986
0.000384 0.000319 0.002992
0.001004 0.000608 0.00251
0.000767 0.000745 0.002338
0.001148 0.000641 0.002634
0.001181 0.000708 0.002657
0.001386 0.000118 0.002674
0.001407 0.000117 0.002661
0.001427 0.000117 0.002646
0.001446 0.000119 0.00263
0.001459 0.000125 0.002605
0.001462 0.000139 0.002566
0.001462 0.000156 0.002522
0.001462 0.000173 0.002479
0.001462 0.00019 0.002434
0.00146 0.000209 0.002388
0.001459 0.000227 0.002342
0.001398 0.000344 0.002079
0.001405 0.000355 0.002045
0.001417 0.000362 0.002019
0.001433 0.000366 0.001999
0.001452 0.000367 0.001982
0.001472 0.000368 0.001968
0.001493 0.000367 0.001956
0.001517 0.000364 0.001947
0.001544 0.000358 0.001943
0.001577 0.000348 0.001947
0.001619 0.00033 0.001964
0.00167 0.000305 0.001996
0.00172 0.00028 0.002026
0.001768 0.000258 0.002052
0.001812 0.000238 0.002074
0.001854 0.00022 0.002091
0.001891 0.000206 0.002102
0.00193 0.000191 0.002116
0.001968 0.000176 0.002127
0.002004 0.000164 0.002136
0.00204 0.00015 0.002147
0.002074 0.000139 0.002152
0.001188 -3.5e-05 0.001725
0.001167 -3.5e-05 0.001739
0.001247 0.000353 0.0027
0.000743 0.000719 0.002344
0.000698 0.000743 0.002365
0.001005 0.000716 0.002511
0.001361 9.5e-05 0.00268
0.001383 9.3e-05 0.002669
0.001404 9.3e-05 0.002656
0.001424 9.3e-05 0.002641
0.001442 9.5e-05 0.002625
0.001457 0.0001 0.002602
0.001461 0.000113 0.002564
0.001463 0.000129 0.002523
0.001462 0.000146 0.002479
0.001462 0.000163 0.002435
0.00146 0.000181 0.002388
0.001458 0.0002 0.002341
0.001451 0.000223 0.002287
0.001399 0.000317 0.002079
0.001405 0.000328 0.002045
0.001417 0.000335 0.002019
0.001433 0.000339 0.001999
0.001452 0.00034 0.001982
0.001472 0.00034 0.001968
0.001493 0.000339 0.001956
0.001517 0.000336 0.001947
0.001545 0.000331 0.001943
0.001577 0.000321 0.001948
0.001618 0.000303 0.001964
0.00167 0.000278 0.001996
0.00172 0.000253 0.002026
0.001768 0.00023 0.002053
0.001812 0.000211 0.002074
0.001853 0.000193 0.00209
0.001892 0.000178 0.002103
0.00193 0.000164 0.002116
0.001968 0.000149 0.002127
0.002004 0.000136 0.002137
0.00204 0.000123 0.002147
0.001147 -3.5e-05 0.001753
0.000678 0.000603 0.002381
0.000528 0.000369 0.002957
0.001327 0.000393 0.002707
0.000571 0.000519 0.00285
0.000964 0.000688 0.002466
0.000965 0.000741 0.002469
0.001356 7.2e-05 0.002672
0.001378 7.1e-05 0.002661
0.001399 7e-05 0.002648
0.001419 7e-05 0.002633
0.001438 7.2e-05 0.002617
0.001454 7.5e-05 0.002597
0.001461 8.6e-05 0.002564
0.001462 0.000102 0.002523
0.001462 0.000119 0.002478
0.001462 0.000135 0.002435
0.00146 0.000154 0.002389
0.001459 0.000172 0.002342
0.001399 0.000289 0.00208
0.001405 0.000301 0.002045
0.001418 0.000307 0.002019
0.001433 0.000311 0.001999
0.001452 0.000313 0.001982
0.001472 0.000313 0.001968
0.001494 0.000312 0.001956
0.001518 0.000309 0.001948
0.001545 0.000303 0.001944
0.001577 0.000293 0.001948
0.001619 0.000276 0.001965
0.00167 0.000251 0.001996
0.001721 0.000225 0.002027
0.001768 0.000203 0.002053
0.001812 0.000184 0.002073
0.001854 0.000166 0.002091
0.001892 0.000151 0.002104
0.00193 0.000137 0.002115
0.001968 0.000122 0.002127
0.002004 0.000109 0.002139
0.00204 9.6e-05 0.002148
0.001126 -3.5e-05 0.001766
0.000633 0.000548 0.002641
0.000659 0.000704 0.002404
0.001005 0.000662 0.002511
0.001079 0.000674 0.002582
0.001114 0.000739 0.002608
0.001349 5.1e-05 0.002662
0.00137 5e-05 0.00265
0.001391 4.9e-05 0.002637
0.001411 4.9e-05 0.002623
0.00143 5e-05 0.002607
0.001448 5.3e-05 0.002588
0.001459 6e-05 0.002561
0.001462 7.5e-05 0.002522
0.001462 9.2e-05 0.002479
0.001462 0.000109 0.002434
0.00146 0.000127 0.002389
0.001458 0.000145 0.002342
0.001106 -3.5e-05 0.00178
0.001399 0.000262 0.00208
0.001405 0.000273 0.002045
0.001418 0.00028 0.002019
0.001434 0.000284 0.001999
0.001452 0.000286 0.001983
0.001472 0.000286 0.001968
0.001494 0.000285 0.001956
0.001518 0.000282 0.001948
0.001545 0.000276 0.001944
0.001578 0.000266 0.001948
0.001618 0.000249 0.001964
0.00167 0.000224 0.001995
0.00172 0.000199 0.002026
0.001769 0.000175 0.002053
0.001812 0.000156 0.002073
0.001853 0.000139 0.00209
0.001892 0.000124 0.002103
0.00193 0.000109 0.002116
0.001968 9.5e-05 0.002127
0.002004 8.2e-05 0.002139
0.002038 7e-05 0.002146
0.001085 -3.5e-05 0.001794
0.001064 -3.4e-05 0.001806
0.000632 0.000441 0.002639
0.00135 0.000503 0.002697
0.001246 0.000571 0.0027
0.000433 0.000614 0.002985
0.000571 0.000709 0.002852
0.000544 0.00068 0.002926
0.000482 0.000611 0.002977
0.001181 0.00068 0.002657
0.001402 3e-05 0.002609
0.001421 3.1e-05 0.002594
0.001439 3.3e-05 0.002576
0.001454 3.8e-05 0.002553
0.001461 4.9e-05 0.00252
0.001462 6.5e-05 0.002478
0.001461 8.2e-05 0.002433
0.00146 0.0001 0.002388
0.001459 0.000118 0.002342
0.001044 -3.4e-05 0.00182
0.001023 -3.4e-05 0.001833
0.001399 0.000235 0.00208
0.001405 0.000246 0.002045
0.001418 0.000253 0.00202
0.001434 0.000257 0.001999
0.001452 0.000258 0.001983
0.001472 0.000259 0.001968
0.001494 0.000258 0.001956
0.001518 0.000255 0.001948
0.001545 0.000249 0.001944
0.001577 0.000239 0.001948
0.001617 0.000223 0.001963
0.00167 0.000196 0.001995
0.00172 0.000172 0.002026
0.001769 0.000148 0.002054
0.001812 0.000129 0.002073
0.001853 0.000112 0.00209
0.001892 9.7e-05 0.002103
0.00193 8.2e-05 0.002116
0.001967 6.8e-05 0.002127
0.002003 5.5e-05 0.002138
0.001002 -3.3e-05 0.001846
0.000597 0.00036 0.002771
0.000584 0.000345 0.00281
0.001148 0.00056 0.002634
0.000597 0.000658 0.002772
0.00137 0.00067 0.00268
0.000558 0.000693 0.00289
0.001325 0.000668 0.002701
0.001079 0.000647 0.002581
0.000543 0.000544 0.002925
0.000571 0.000654 0.002852
0.000584 0.000643 0.002812
0.000571 0.0006 0.002851
0.001444 1.9e-05 0.002538
0.001456 2.6e-05 0.002512
0.00146 3.9e-05 0.002475
0.00146 5.6e-05 0.002432
0.00146 7.2e-05 0.002388
0.001458 9.1e-05 0.002342
0.00098 -3.2e-05 0.001858
0.000959 -3.2e-05 0.001871
0.001398 0.000208 0.002079
0.001405 0.000219 0.002045
0.001418 0.000226 0.002019
0.001434 0.00023 0.001999
0.001452 0.000231 0.001982
0.001472 0.000232 0.001968
0.001494 0.000231 0.001956
0.001518 0.000227 0.001948
0.001545 0.000222 0.001944
0.001578 0.000212 0.001948
0.001617 0.000196 0.001963
0.00167 0.000169 0.001997
0.001721 0.000143 0.002028
0.001769 0.000121 0.002054
0.001812 0.000102 0.002074
0.001854 8.4e-05 0.002091
0.001892 7e-05 0.002103
0.00193 5.5e-05 0.002115
0.001966 4.2e-05 0.002126
0.000938 -3.1e-05 0.001884
0.001247 0.000435 0.002699
0.000609 0.000621 0.00273
0.000597 0.000713 0.002772
0.000634 0.000737 0.002645
0.001215 0.000611 0.002679
0.001214 0.000693 0.002678
0.000543 0.000598 0.002925
0.000964 0.00047 0.002467
0.00135 0.000286 0.002697
0.000621 0.000639 0.002686
0.001388 5e-06 0.002544
0.001407 7e-06 0.002529
0.001427 6e-06 0.002514
0.001443 9e-06 0.002494
0.001454 1.7e-05 0.002467
0.001458 3e-05 0.002429
0.001459 4.6e-05 0.002387
0.001459 6.4e-05 0.002342
0.001182 0.000436 0.002657
0.001398 0.000181 0.002079
0.001405 0.000192 0.002045
0.001417 0.000199 0.002019
0.001434 0.000203 0.001999
0.001452 0.000204 0.001982
0.001472 0.000204 0.001968
0.001494 0.000204 0.001956
0.001518 0.0002 0.001948
0.001545 0.000194 0.001944
0.001577 0.000185 0.001947
0.001618 0.000168 0.001963
0.00167 0.000141 0.001997
0.001721 0.000117 0.002026
0.001768 9.4e-05 0.002053
0.001812 7.4e-05 0.002074
0.001853 5.8e-05 0.00209
0.001891 4.3e-05 0.002101
0.001928 3e-05 0.002112
0.00196 1.9e-05 0.002117
0.000767 0.000637 0.002337
0.000698 0.000635 0.002363
0.001171 5e-06 0.00262
0.001194 3e-06 0.00261
0.000677 0.000631 0.00238
0.000636 0.000552 0.002571
0.000632 0.000522 0.00264
0.000528 0.000587 0.002956
0.001005 0.000444 0.002511
0.001114 0.000494 0.002609
0.001356 3e-06 0.002497
0.001376 3e-06 0.002484
0.001418 3e-06 0.002457
0.001436 4e-06 0.00244
0.00145 1e-05 0.002416
0.001457 2.1e-05 0.002383
0.001457 3.8e-05 0.00234
0.000609 0.000513 0.002729
0.001398 0.000154 0.002078
0.001405 0.000165 0.002044
0.001418 0.000172 0.002019
0.001434 0.000175 0.001999
0.001452 0.000177 0.001982
0.001472 0.000177 0.001968
0.001494 0.000176 0.001957
0.001518 0.000173 0.001948
0.001545 0.000167 0.001944
0.001577 0.000158 0.001947
0.001618 0.000141 0.001964
0.00167 0.000114 0.001997
0.00172 9e-05 0.002026
0.001812 4.8e-05 0.002073
0.001851 3.2e-05 0.002087
0.001888 1.9e-05 0.002097
0.001919 1e-05 0.002098
0.001945 5e-06 0.002093
0.001966 4e-06 0.002081
0.000409 0.000426 0.002989
0.000571 0.000465 0.00285
0.001043 0.000558 0.00255
0.000965 0.000605 0.002468
0.001145 -1e-06 0.002581
0.001167 -2e-06 0.00257
0.001185 -1e-06 0.002553
0.001326 1e-06 0.002453
0.001345 2e-06 0.002438
0.001248 0.000299 0.0027
0.001427 2e-06 0.002383
0.001443 5e-06 0.002363
0.001452 1.5e-05 0.002333
0.00072 0.000529 0.002351
0.001398 0.000127 0.002078
0.001405 0.000138 0.002045
0.001417 0.000145 0.002019
0.001434 0.000148 0.001999
0.001452 0.00015 0.001982
0.001472 0.00015 0.001968
0.001494 0.000149 0.001956
0.001518 0.000146 0.001948
0.001545 0.00014 0.001944
0.001577 0.000131 0.001947
0.001671 8.7e-05 0.001997
0.00172 6.3e-05 0.002026
0.001769 3.9e-05 0.002054
0.00181 2.2e-05 0.002071
0.001845 1e-05 0.002078
0.001874 3e-06 0.002077
0.001897 1e-06 0.002067
0.001918 0.0 0.002054
0.001938 1e-06 0.002039
0.000571 0.000329 0.002849
0.001149 0.000369 0.002635
0.000698 0.000554 0.002363
0.001005 0.00058 0.002511
0.000645 0.000527 0.002439
0.001149 2e-06 0.002499
0.001168 3e-06 0.002485
0.00108 0.000429 0.002583
0.000453 0.000701 0.002967
0.001388 0.000706 0.002656
0.000557 0.000368 0.002888
0.001292 2e-06 0.002403
0.001312 2e-06 0.002389
0.001353 2e-06 0.002362
0.001373 2e-06 0.002348
0.001394 2e-06 0.002334
0.001415 2e-06 0.002321
0.001434 2e-06 0.002306
0.001447 9e-06 0.00228
0.001398 0.0001 0.002078
0.001405 0.000111 0.002044
0.001417 0.000117 0.002019
0.001433 0.000121 0.001998
0.001452 0.000123 0.001982
0.001472 0.000123 0.001968
0.001494 0.000122 0.001956
0.001518 0.000119 0.001948
0.001545 0.000113 0.001943
0.001577 0.000104 0.001947
0.001617 8.7e-05 0.001962
0.00167 6e-05 0.001996
0.001767 1.4e-05 0.002051
0.001822 1e-06 0.002044
0.001843 2e-06 0.002031
0.001863 2e-06 0.002016
0.001882 3e-06 0.002001
0.001903 2e-06 0.001988
0.00088 0.000608 0.002366
0.00108 0.000375 0.002583
0.00135 0.000313 0.002697
0.001328 0.000311 0.002708
0.000819 0.000548 0.002337
0.000767 0.000556 0.002337
0.001119 -0.0 0.002456
0.00114 -1e-06 0.002443
0.000528 0.000315 0.002957
0.001327 0.000447 0.002707
0.001305 0.000446 0.002717
0.001303 -0.0 0.002332
0.001324 -1e-06 0.00232
0.001344 -1e-06 0.002305
0.001366 -2e-06 0.002293
0.001386 -1e-06 0.002278
0.001405 -0.0 0.002262
0.001423 1e-06 0.002246
0.001398 7.3e-05 0.002078
0.001405 8.4e-05 0.002044
0.001417 9.1e-05 0.002018
0.001433 9.4e-05 0.001998
0.001452 9.6e-05 0.001982
0.001472 9.6e-05 0.001968
0.001494 9.5e-05 0.001956
0.001518 9.2e-05 0.001947
0.001545 8.6e-05 0.001943
0.001577 7.7e-05 0.001946
0.001617 6e-05 0.001962
0.001815 -2e-06 0.001989
0.001834 -1e-06 0.001974
0.001853 0.0 0.001958
0.001873 0.0 0.001944
0.001893 1e-06 0.001929
0.001657 -9e-06 0.001407
0.001638 -1e-05 0.001423
0.000985 -1e-06 0.002478
0.001006 -2e-06 0.002466
0.001026 -1e-06 0.002451
0.001045 -0.0 0.002435
0.000743 0.000556 0.002343
0.001165 2e-06 0.002349
0.000645 0.000608 0.002441
0.000483 0.000312 0.002978
0.001279 0.000287 0.002717
0.001268 1e-06 0.002281
0.001288 2e-06 0.002266
0.001309 1e-06 0.002254
0.001349 2e-06 0.002224
0.00137 1e-06 0.002212
0.00139 1e-06 0.002197
0.00141 2e-06 0.002183
0.001397 4.6e-05 0.002076
0.001405 5.7e-05 0.002044
0.001417 6.4e-05 0.002018
0.001433 6.7e-05 0.001998
0.001452 6.9e-05 0.001982
0.001472 6.9e-05 0.001968
0.001494 6.8e-05 0.001956
0.001518 6.5e-05 0.001947
0.001544 5.9e-05 0.001943
0.001576 5e-05 0.001945
0.001616 3.3e-05 0.001961
0.001841 0.0 0.001896
0.001861 -0.0 0.001882
0.001903 -1e-06 0.001856
0.001922 -0.0 0.001841
0.001943 -1e-06 0.001828
0.00158 -1.2e-05 0.00147
0.000952 -1e-06 0.00243
0.00097 1e-06 0.002412
0.000991 1e-06 0.002399
0.001011 1e-06 0.002384
0.001032 1e-06 0.002372
0.001328 0.000338 0.002708
0.001043 0.000449 0.00255
0.001136 -1e-06 0.002306
0.001158 -2e-06 0.002294
0.000507 0.000311 0.002972
0.001198 -2e-06 0.002265
0.001219 -2e-06 0.002253
0.00124 -2e-06 0.00224
0.001148 0.000396 0.002634
0.000767 0.000583 0.002337
0.000819 0.000575 0.002337
0.000645 0.000554 0.002441
0.001343 -4e-06 0.002172
0.001364 -4e-06 0.002159
0.001384 -4e-06 0.002145
0.001561 -1.3e-05 0.001485
0.001404 3e-05 0.002043
0.001416 3.7e-05 0.002017
0.001433 4e-05 0.001998
0.001452 4.2e-05 0.001981
0.001472 4.2e-05 0.001967
0.001494 4.1e-05 0.001956
0.001517 3.8e-05 0.001948
0.001544 3.2e-05 0.001942
0.001577 2.2e-05 0.001946
0.001541 -1.4e-05 0.0015
0.001522 -1.5e-05 0.001516
0.001687 -1e-06 0.001933
0.001867 2e-06 0.001803
0.001886 2e-06 0.001788
0.001908 1e-06 0.001776
0.001928 1e-06 0.001762
0.001503 -1.6e-05 0.001531
0.000907 -1e-06 0.002397
0.000924 -5e-06 0.002389
0.000944 -4e-06 0.002373
0.000963 -4e-06 0.002359
0.000984 -4e-06 0.002345
0.001004 -3e-06 0.002331
0.001023 -3e-06 0.002315
0.001044 -2e-06 0.002301
0.001064 -2e-06 0.002287
0.001165 -2e-06 0.002217
0.001187 -3e-06 0.002205
0.001207 -3e-06 0.002191
0.000404 0.000705 0.002975
0.000571 0.00041 0.002851
0.000507 0.000556 0.002972
0.001307 -2e-06 0.00212
0.001328 -2e-06 0.002107
0.00135 -3e-06 0.002095
0.001402 5e-06 0.002039
0.001416 1e-05 0.002016
0.001432 1.4e-05 0.001996
0.001451 1.5e-05 0.00198
0.001471 1.5e-05 0.001966
0.001544 5e-06 0.001943
0.001575 -4e-06 0.001944
0.001484 -1.7e-05 0.001547
0.001658 -5e-06 0.001891
0.001678 -4e-06 0.001876
0.001717 -3e-06 0.001846
0.001738 -3e-06 0.001833
0.001841 -4e-06 0.001765
0.00186 -3e-06 0.00175
0.00188 -3e-06 0.001735
0.0019 -2e-06 0.00172
0.001425 -1.9e-05 0.001592
0.000871 -5e-06 0.002354
0.000888 -2e-06 0.002335
0.000906 -0.0 0.002318
0.000931 -4e-06 0.00231
0.000969 -2e-06 0.002279
0.000989 -1e-06 0.002265
0.001008 -0.0 0.00225
0.001028 0.0 0.002235
0.001048 0.0 0.002221
0.001068 0.0 0.002207
0.001109 1e-06 0.002179
0.001129 0.0 0.002164
0.001149 1e-06 0.00215
0.001171 0.0 0.002138
0.000377 0.00071 0.002973
0.000677 0.000685 0.00238
0.000409 0.000399 0.002989
0.000483 0.000502 0.002978
0.001246 0.000597 0.002702
0.000922 0.000607 0.002415
0.001333 1e-06 0.002026
0.001355 -0.0 0.002014
0.001417 -1e-06 0.001974
0.001436 -0.0 0.001959
0.001458 -1e-06 0.001947
0.001498 -1e-06 0.001918
0.001519 -1e-06 0.001905
0.001619 1e-06 0.001833
0.00164 -0.0 0.001821
0.00166 -0.0 0.001806
0.001681 -1e-06 0.001794
0.001702 -1e-06 0.001781
0.001722 -1e-06 0.001766
0.001742 -1e-06 0.001751
0.001765 -2e-06 0.001742
0.001785 -2e-06 0.001727
0.001805 -2e-06 0.001712
0.001825 -1e-06 0.001698
0.001848 -3e-06 0.001688
0.001868 -3e-06 0.001674
0.000813 -1e-06 0.002312
0.000831 1e-06 0.002296
0.000853 -0.0 0.002284
0.000913 0.0 0.002241
0.000934 0.0 0.002228
0.000955 -0.0 0.002215
0.001345 0.000701 0.002681
0.000557 0.00045 0.002889
0.001148 0.000505 0.002634
0.001038 -1e-06 0.002161
0.00141 0.000709 0.002642
0.00108 -3e-06 0.002137
0.001101 -3e-06 0.002123
0.001122 -3e-06 0.002109
0.001143 -4e-06 0.002097
0.001114 0.000358 0.002608
0.000659 0.000677 0.002404
0.000621 0.000558 0.002685
0.000528 0.000505 0.002957
0.001215 0.000313 0.002678
0.000881 0.000498 0.002368
0.000848 0.000513 0.002346
0.001308 -5e-06 0.001989
0.001328 -5e-06 0.001975
0.001348 -5e-06 0.001961
0.001389 -4e-06 0.001933
0.00141 -5e-06 0.00192
0.001429 -5e-06 0.001905
0.001469 -4e-06 0.001876
0.00151 -4e-06 0.001848
0.00153 -4e-06 0.001834
0.00155 -4e-06 0.00182
0.00165 -2e-06 0.001747
0.001669 -1e-06 0.001732
0.00169 -1e-06 0.001718
0.00171 -1e-06 0.001705
0.001729 0.0 0.001689
0.001749 0.0 0.001675
0.00177 0.0 0.001661
0.001405 -2e-05 0.001607
0.001386 -2e-05 0.001622
0.000782 -3e-06 0.002268
0.000803 -3e-06 0.002254
0.00064 0.000472 0.002504
0.000622 0.000393 0.002688
0.000867 -5e-06 0.002217
0.000888 -5e-06 0.002205
0.00091 -7e-06 0.002192
0.000931 -7e-06 0.002179
0.001043 0.000421 0.00255
0.001031 -6e-06 0.002108
0.00105 -5e-06 0.002092
0.001072 -6e-06 0.002081
0.001094 -7e-06 0.002068
0.001113 -6e-06 0.002053
0.001132 -5e-06 0.002037
0.001174 -6e-06 0.002012
0.001194 -6e-06 0.001996
0.00064 0.000526 0.002506
0.001215 0.000394 0.002679
0.001182 0.000409 0.002657
0.001294 -5e-06 0.001925
0.001357 -6e-06 0.001887
0.001377 -5e-06 0.001872
0.001479 -6e-06 0.001803
0.001499 -5e-06 0.001789
0.001623 -6e-06 0.001707
0.001644 -7e-06 0.001695
0.001664 -7e-06 0.001681
0.001685 -7e-06 0.001668
0.001704 -7e-06 0.001652
0.001725 -6e-06 0.001638
0.001743 -5e-06 0.001622
0.001763 -5e-06 0.001607
0.001782 -4e-06 0.001592
0.001801 -2e-06 0.001576
0.001821 -2e-06 0.001561
0.000848 0.000594 0.002346
0.000819 0.000603 0.002337
0.000596 0.000443 0.002769
0.000834 -6e-06 0.002169
0.000854 -5e-06 0.002155
0.000872 -3e-06 0.002137
0.000409 0.000371 0.00299
0.000434 0.00037 0.002986
0.000507 0.000284 0.002972
0.001213 0.000722 0.002676
0.000994 -2e-06 0.002053
0.001014 -3e-06 0.00204
0.001035 -3e-06 0.002027
0.001054 -1e-06 0.00201
0.001075 -2e-06 0.001997
0.001096 -2e-06 0.001984
0.001115 -2e-06 0.001969
0.001137 -2e-06 0.001956
0.001156 -1e-06 0.001941
0.00035 0.000716 0.002967
0.000965 0.000578 0.002467
0.001004 0.000554 0.002509
0.001366 -2.1e-05 0.001636
0.001319 -1e-06 0.00183
0.001339 -2e-06 0.001817
0.001346 -2.1e-05 0.001651
0.00163 -6e-06 0.001631
0.00165 -5e-06 0.001616
0.001669 -4e-06 0.0016
0.001712 -6e-06 0.001575
0.001733 -7e-06 0.001563
0.001753 -7e-06 0.001549
0.001773 -6e-06 0.001534
0.001795 -7e-06 0.001523
0.001326 -2.2e-05 0.001666
0.001306 -2.2e-05 0.00168
0.001286 -2.2e-05 0.001695
0.000584 0.00048 0.002811
0.000797 -2e-06 0.002115
0.000817 -2e-06 0.0021
0.000458 0.000368 0.002982
0.00072 0.000692 0.002352
0.001005 0.000418 0.00251
0.000483 0.000285 0.002978
0.000939 -1e-06 0.002017
0.00096 -1e-06 0.002003
0.00098 -1e-06 0.001989
0.001002 -2e-06 0.001977
0.001022 -2e-06 0.001963
0.001043 -3e-06 0.00195
0.001063 -3e-06 0.001936
0.001084 -3e-06 0.001922
0.001104 -3e-06 0.001909
0.001125 -3e-06 0.001896
0.001146 -3e-06 0.001882
0.001166 -4e-06 0.001869
0.000792 0.000662 0.002334
0.001207 -4e-06 0.001842
0.001289 -4e-06 0.001786
0.001309 -4e-06 0.001772
0.001511 -2e-06 0.001631
0.001531 -2e-06 0.001617
0.001552 -2e-06 0.001603
0.001572 -2e-06 0.00159
0.001593 -2e-06 0.001576
0.001613 -2e-06 0.001562
0.001675 -2e-06 0.001521
0.001695 -2e-06 0.001507
0.001716 -3e-06 0.001494
0.001737 -3e-06 0.001481
0.001757 -4e-06 0.001468
0.001266 -2.2e-05 0.001708
0.000703 -2e-06 0.002108
0.000557 0.000722 0.002888
0.000483 0.00042 0.002978
0.000766 -3e-06 0.002069
0.000788 -4e-06 0.002056
0.000819 0.000684 0.002337
0.000819 0.000521 0.002337
0.000384 0.000591 0.002992
0.000914 0.000746 0.002473
0.000384 0.000618 0.002992
0.000526 0.000672 0.00295
0.000935 -8e-06 0.001967
0.000956 -8e-06 0.001954
0.000977 -9e-06 0.00194
0.000998 -1e-05 0.001927
0.001019 -1e-05 0.001915
0.001039 -1e-05 0.001901
0.00106 -1e-05 0.001888
0.001081 -1.1e-05 0.001874
0.001102 -1.1e-05 0.001862
0.001122 -1.1e-05 0.001848
0.001143 -1.1e-05 0.001835
0.001163 -1.2e-05 0.001821
0.001184 -1.2e-05 0.001808
0.001205 -1.2e-05 0.001794
0.001226 -1.3e-05 0.001781
0.001246 -1.2e-05 0.001767
0.001265 -1.2e-05 0.001752
0.001286 -1.2e-05 0.001738
0.001306 -1.1e-05 0.001723
0.001326 -1.1e-05 0.001709
0.001485 -8e-06 0.001593
0.001505 -8e-06 0.001577
0.001524 -6e-06 0.001562
0.001544 -6e-06 0.001548
0.001563 -5e-06 0.001533
0.001583 -4e-06 0.001518
0.001603 -4e-06 0.001503
0.001623 -4e-06 0.001489
0.001642 -3e-06 0.001473
0.001661 -2e-06 0.001458
0.001682 -2e-06 0.001444
0.001702 -2e-06 0.00143
0.001005 0.000526 0.002511
0.000965 0.000551 0.002467
0.000678 -9e-06 0.002071
0.0007 -9e-06 0.002059
0.000543 0.00071 0.002921
0.000559 0.000667 0.00289
0.000585 0.000697 0.002813
0.000572 0.000682 0.002852
0.000409 0.000589 0.002989
0.001394 0.000616 0.002674
0.000633 0.000711 0.002643
0.000597 0.000632 0.002772
0.000638 0.000712 0.002578
0.00061 0.000648 0.00273
0.000935 -1.8e-05 0.001923
0.000956 -1.9e-05 0.001911
0.000977 -2e-05 0.001898
0.000998 -2e-05 0.001884
0.00102 -2.1e-05 0.001872
0.00104 -2.1e-05 0.001859
0.001062 -2.2e-05 0.001846
0.001082 -2.2e-05 0.001832
0.001102 -2.2e-05 0.001819
0.001123 -2.2e-05 0.001805
0.001144 -2.2e-05 0.001792
0.001165 -2.3e-05 0.001779
0.001185 -2.3e-05 0.001765
0.001205 -2.3e-05 0.001751
0.001226 -2.3e-05 0.001737
0.001246 -2.3e-05 0.001723
0.000459 0.000258 0.002985
0.000483 0.000257 0.002978
0.000507 0.000257 0.002972
0.000528 0.000261 0.002956
0.000543 0.000273 0.002924
0.000558 0.000287 0.002888
0.000571 0.000302 0.00285
0.000584 0.000317 0.00281
0.000597 0.000333 0.002771
0.000609 0.00035 0.002729
0.000622 0.000367 0.002687
0.000632 0.000386 0.00264
0.000638 0.000413 0.002577
0.00064 0.000445 0.002505
0.000659 0.000488 0.002402
0.000677 0.000495 0.00238
0.000698 0.0005 0.002363
0.00072 0.000502 0.002351
0.000743 0.000502 0.002343
0.000767 0.000501 0.002336
0.000792 0.000499 0.002334
0.000819 0.000494 0.002337
0.000848 0.000485 0.002346
0.000881 0.000471 0.002369
0.000965 0.000416 0.002466
0.001005 0.000391 0.00251
0.001044 0.000366 0.002552
0.00108 0.000347 0.002584
0.001114 0.000331 0.002608
0.001149 0.000315 0.002635
0.001182 0.0003 0.002657
0.001215 0.000286 0.002679
0.001248 0.000271 0.0027
0.001279 0.00026 0.002716
0.001305 0.000256 0.002717
0.001328 0.000257 0.002708
0.00135 0.000259 0.002697
0.000384 0.000238 0.002992
0.00041 0.000235 0.002991
0.000435 0.000232 0.002989
0.000459 0.000231 0.002984
0.000483 0.00023 0.002978
0.000507 0.00023 0.002971
0.000528 0.000233 0.002957
0.000543 0.000245 0.002924
0.000558 0.000259 0.002888
0.000571 0.000275 0.002849
0.000584 0.00029 0.00281
0.000598 0.000305 0.002772
0.00061 0.000322 0.002729
0.000622 0.000339 0.002687
0.000633 0.000359 0.002641
0.000638 0.000386 0.002576
0.000644 0.000447 0.002438
0.000659 0.00046 0.002402
0.000677 0.000468 0.002379
0.000698 0.000472 0.002363
0.00072 0.000475 0.00235
0.000743 0.000475 0.002342
0.000767 0.000474 0.002336
0.000792 0.000472 0.002334
0.000819 0.000467 0.002337
0.000848 0.000458 0.002347
0.000881 0.000443 0.002369
0.001005 0.000363 0.002511
0.001044 0.000339 0.002552
0.00108 0.00032 0.002584
0.001114 0.000305 0.002607
0.001148 0.000288 0.002634
0.001182 0.000273 0.002657
0.001215 0.000258 0.002679
0.001247 0.000245 0.0027
0.001279 0.000233 0.002716
0.001305 0.000229 0.002716
0.001328 0.00023 0.002708
0.00135 0.000231 0.002697
0.000359 0.000213 0.002994
0.000384 0.000211 0.002992
0.000409 0.000209 0.002989
0.000434 0.000207 0.002986
0.000458 0.000205 0.002982
0.000483 0.000203 0.002978
0.000507 0.000203 0.002971
0.000528 0.000206 0.002956
0.000543 0.000219 0.002924
0.000557 0.000233 0.002888
0.000571 0.000247 0.00285
0.000584 0.000263 0.002811
0.000597 0.000279 0.002771
0.000609 0.000296 0.002729
0.000622 0.000312 0.002688
0.000632 0.000332 0.00264
0.000637 0.00036 0.002574
0.000641 0.00039 0.002506
0.000645 0.000419 0.002439
0.000659 0.000433 0.002403
0.000677 0.000441 0.002379
0.000698 0.000445 0.002362
0.00072 0.000448 0.002351
0.000743 0.000448 0.002342
0.000767 0.000447 0.002336
0.000792 0.000444 0.002334
0.000819 0.00044 0.002336
0.000848 0.000431 0.002346
0.000881 0.000416 0.00237
0.000965 0.000361 0.002468
0.001005 0.000336 0.002511
0.001044 0.000312 0.002552
0.00108 0.000293 0.002583
0.001114 0.000277 0.002608
0.001149 0.00026 0.002634
0.001182 0.000245 0.002658
0.001215 0.000231 0.002679
0.001247 0.000217 0.0027
0.001279 0.000206 0.002716
0.001304 0.000202 0.002716
0.001328 0.000203 0.002707
0.00135 0.000204 0.002696
0.001372 0.000206 0.002685
0.000384 0.000184 0.002992
0.000409 0.000182 0.002989
0.000434 0.00018 0.002985
0.000458 0.000178 0.002981
0.000483 0.000177 0.002977
0.000506 0.000176 0.00297
0.000528 0.00018 0.002955
0.000543 0.000191 0.002924
0.000557 0.000206 0.002887
0.000571 0.00022 0.00285
0.000584 0.000236 0.00281
0.000597 0.000252 0.002771
0.000609 0.000269 0.002729
0.000622 0.000284 0.002689
0.000633 0.000304 0.002642
0.000638 0.000332 0.002576
0.000641 0.000363 0.002506
0.000645 0.000391 0.002441
0.000659 0.000406 0.002403
0.000677 0.000414 0.002379
0.000698 0.000418 0.002363
0.00072 0.00042 0.002351
0.000743 0.000421 0.002342
0.000767 0.00042 0.002336
0.000792 0.000417 0.002334
0.000819 0.000412 0.002337
0.000848 0.000404 0.002346
0.000882 0.000389 0.00237
0.000965 0.000334 0.002466
0.001005 0.000308 0.002512
0.001044 0.000285 0.002552
0.00108 0.000266 0.002584
0.001114 0.000249 0.002609
0.001148 0.000234 0.002634
0.001182 0.000218 0.002658
0.001215 0.000204 0.00268
0.001247 0.00019 0.0027
0.001278 0.000179 0.002715
0.001304 0.000176 0.002715
0.001327 0.000176 0.002707
0.00135 0.000177 0.002696
0.001372 0.000179 0.002685
0.000409 0.000155 0.002988
0.000433 0.000153 0.002984
0.000458 0.000151 0.00298
0.000482 0.00015 0.002975
0.000506 0.00015 0.002968
0.000527 0.000153 0.002954
0.000543 0.000164 0.002924
0.000557 0.000179 0.002887
0.000571 0.000193 0.00285
0.000584 0.000208 0.002811
0.000597 0.000224 0.002771
0.000609 0.000241 0.002729
0.000622 0.000257 0.002689
0.000633 0.000277 0.002641
0.000638 0.000305 0.002576
0.000641 0.000336 0.002506
0.000646 0.000364 0.002441
0.000659 0.000379 0.002403
0.000677 0.000386 0.00238
0.000698 0.000391 0.002363
0.00072 0.000393 0.002351
0.000743 0.000393 0.002343
0.000767 0.000393 0.002336
0.000792 0.00039 0.002334
0.000819 0.000385 0.002336
0.000848 0.000377 0.002346
0.000881 0.000362 0.002368
0.000965 0.000306 0.002468
0.001005 0.000281 0.002512
0.001044 0.000257 0.002552
0.001081 0.000238 0.002584
0.001114 0.000222 0.002609
0.001148 0.000206 0.002634
0.001182 0.000191 0.002657
0.001215 0.000177 0.00268
0.001248 0.000163 0.0027
0.001278 0.000152 0.002714
0.001304 0.000149 0.002713
0.001327 0.000149 0.002706
0.00135 0.00015 0.002696
0.001372 0.000152 0.002685
0.000433 0.000127 0.002982
0.000457 0.000125 0.002978
0.000481 0.000124 0.002972
0.000505 0.000125 0.002964
0.000526 0.000127 0.002952
0.000543 0.000137 0.002923
0.000558 0.000151 0.002888
0.000571 0.000166 0.00285
0.000584 0.000181 0.002811
0.000597 0.000197 0.002772
0.00061 0.000214 0.002729
0.000622 0.00023 0.002688
0.000632 0.00025 0.002639
0.000638 0.000277 0.002577
0.000645 0.000338 0.002438
0.000659 0.000351 0.002403
0.000678 0.000359 0.00238
0.000698 0.000364 0.002363
0.00072 0.000366 0.002351
0.000743 0.000366 0.002343
0.000767 0.000365 0.002336
0.000792 0.000363 0.002334
0.000819 0.000358 0.002337
0.000848 0.00035 0.002346
0.000881 0.000335 0.002369
0.000923 0.000308 0.002417
0.000965 0.000279 0.002467
0.001005 0.000254 0.002512
0.001044 0.00023 0.002552
0.001081 0.000211 0.002585
0.001115 0.000195 0.002609
0.001148 0.000179 0.002634
0.001182 0.000164 0.002657
0.001215 0.000149 0.00268
0.001247 0.000136 0.002699
0.001277 0.000126 0.002711
0.001302 0.000124 0.002709
0.001326 0.000124 0.002702
0.001349 0.000124 0.002693
0.001372 0.000126 0.002683
0.000431 0.000102 0.002978
0.000456 0.0001 0.002973
0.00048 0.0001 0.002967
0.000503 0.0001 0.002959
0.000525 0.000102 0.002947
0.000543 0.00011 0.002923
0.000557 0.000124 0.002887
0.000571 0.000138 0.00285
0.000584 0.000154 0.00281
0.000597 0.00017 0.002771
0.00061 0.000186 0.00273
0.000622 0.000203 0.002688
0.000633 0.000223 0.00264
0.000638 0.00025 0.002576
0.00091 -3.1e-05 0.001897
0.000645 0.00031 0.00244
0.000659 0.000324 0.002403
0.000678 0.000332 0.00238
0.000698 0.000336 0.002363
0.00072 0.000339 0.002351
0.000743 0.000339 0.002343
0.000767 0.000338 0.002337
0.000792 0.000336 0.002335
0.000819 0.000331 0.002337
0.000848 0.000322 0.002346
0.000882 0.000307 0.002371
0.000923 0.00028 0.002417
0.000965 0.000252 0.002468
0.001005 0.000226 0.002512
0.00108 0.000184 0.002584
0.001114 0.000168 0.002608
0.001148 0.000152 0.002634
0.001182 0.000137 0.002657
0.001215 0.000122 0.00268
0.001247 0.000109 0.002699
0.001276 0.000101 0.002707
0.001301 9.9e-05 0.002703
0.001324 9.9e-05 0.002697
0.001347 0.0001 0.002688
0.000429 7.9e-05 0.00297
0.000453 7.7e-05 0.002965
0.000477 7.7e-05 0.002959
0.0005 7.7e-05 0.002951
0.000523 7.9e-05 0.00294
0.000542 8.4e-05 0.002921
0.000557 9.7e-05 0.002887
0.000571 0.000112 0.002849
0.000584 0.000127 0.002811
0.000597 0.000143 0.002771
0.00061 0.000159 0.00273
0.000622 0.000176 0.002689
0.000633 0.000196 0.00264
0.000637 0.000224 0.002576
0.000645 0.000283 0.00244
0.000659 0.000297 0.002403
0.000678 0.000305 0.00238
0.000698 0.000309 0.002363
0.00072 0.000311 0.002351
0.000743 0.000312 0.002343
0.000767 0.000311 0.002337
0.000792 0.000308 0.002335
0.000819 0.000303 0.002337
0.000848 0.000295 0.002346
0.000882 0.00028 0.00237
0.000922 0.000254 0.002416
0.000965 0.000224 0.002468
0.001005 0.0002 0.002511
0.001045 0.000175 0.002553
0.00108 0.000157 0.002583
0.001115 0.00014 0.002609
0.001149 0.000125 0.002634
0.001182 0.00011 0.002657
0.001215 9.5e-05 0.002679
0.001247 8.3e-05 0.002697
0.001273 7.8e-05 0.0027
0.001298 7.6e-05 0.002696
0.001322 7.6e-05 0.002689
0.001345 7.6e-05 0.00268
0.000887 -3.2e-05 0.001907
0.000449 5.6e-05 0.002954
0.000473 5.5e-05 0.002947
0.000497 5.5e-05 0.00294
0.000519 5.6e-05 0.00293
0.00054 6e-05 0.002914
0.000557 7e-05 0.002886
0.000571 8.5e-05 0.002849
0.000584 0.0001 0.00281
0.000597 0.000116 0.00277
0.00061 0.000132 0.00273
0.000623 0.000148 0.00269
0.000638 0.000196 0.002576
0.000641 0.000227 0.002506
0.000645 0.000255 0.00244
0.00066 0.000269 0.002404
0.000678 0.000278 0.00238
0.000698 0.000282 0.002363
0.00072 0.000284 0.002351
0.000743 0.000284 0.002343
0.000767 0.000284 0.002337
0.000792 0.000281 0.002335
0.000819 0.000276 0.002337
0.000848 0.000268 0.002346
0.000881 0.000253 0.002369
0.000923 0.000226 0.002416
0.000966 0.000196 0.00247
0.001005 0.000172 0.002512
0.001044 0.000148 0.002553
0.00108 0.00013 0.002583
0.001115 0.000113 0.00261
0.001149 9.7e-05 0.002635
0.001182 8.3e-05 0.002657
0.001215 6.9e-05 0.002678
0.001244 5.9e-05 0.00269
0.00127 5.5e-05 0.00269
0.001295 5.4e-05 0.002685
0.001318 5.4e-05 0.002677
0.001341 5.5e-05 0.002669
0.00042 3.7e-05 0.002944
0.000445 3.6e-05 0.002938
0.000468 3.5e-05 0.002932
0.000492 3.5e-05 0.002925
0.000515 3.6e-05 0.002916
0.000536 3.9e-05 0.002902
0.000555 4.6e-05 0.002881
0.00057 5.8e-05 0.002847
0.000584 7.3e-05 0.002809
0.000597 8.9e-05 0.002771
0.00061 0.000105 0.00273
0.000622 0.000121 0.002688
0.000637 0.00017 0.002574
0.00064 0.000201 0.002503
0.000646 0.000228 0.002441
0.00066 0.000242 0.002404
0.000678 0.00025 0.00238
0.000698 0.000255 0.002363
0.00072 0.000257 0.002351
0.000743 0.000257 0.002343
0.000767 0.000256 0.002337
0.000793 0.000254 0.002335
0.000819 0.000249 0.002337
0.000848 0.000241 0.002346
0.000882 0.000226 0.00237
0.000923 0.000199 0.002417
0.001006 0.000145 0.002513
0.001045 0.000121 0.002553
0.00108 0.000103 0.002583
0.001115 8.6e-05 0.002609
0.001148 7.1e-05 0.002634
0.001182 5.5e-05 0.002657
0.001213 4.4e-05 0.002673
0.001241 3.7e-05 0.002679
0.001266 3.5e-05 0.002676
0.00129 3.4e-05 0.00267
0.001313 3.4e-05 0.002663
0.001336 3.5e-05 0.002654
0.001359 3.6e-05 0.002644
0.001381 3.8e-05 0.002632
0.00039 2.2e-05 0.002928
0.000414 2e-05 0.002924
0.000438 1.9e-05 0.002918
0.000462 1.8e-05 0.002912
0.000485 1.8e-05 0.002905
0.000509 1.8e-05 0.002896
0.000531 2e-05 0.002885
0.000551 2.5e-05 0.002868
0.000569 3.3e-05 0.002843
0.000583 4.7e-05 0.002808
0.000597 6.1e-05 0.00277
0.00061 7.8e-05 0.002729
0.000622 9.4e-05 0.002689
0.000864 -3.2e-05 0.001916
0.000645 0.000201 0.00244
0.000659 0.000215 0.002404
0.000678 0.000223 0.00238
0.000698 0.000228 0.002363
0.00072 0.00023 0.002351
0.000743 0.00023 0.002343
0.000767 0.000229 0.002337
0.000793 0.000227 0.002335
0.000819 0.000222 0.002337
0.000848 0.000214 0.002346
0.000881 0.000199 0.002368
0.001006 0.000117 0.002513
0.001045 9.4e-05 0.002553
0.00108 7.6e-05 0.002583
0.001114 6e-05 0.002608
0.001148 4.4e-05 0.002632
0.00118 3.1e-05 0.002651
0.001209 2.3e-05 0.00266
0.001235 1.9e-05 0.00266
0.001259 1.7e-05 0.002656
0.001283 1.7e-05 0.00265
0.00133 1.8e-05 0.002633
0.001352 1.9e-05 0.002624
0.001375 2e-05 0.002613
0.001397 2.3e-05 0.002601
0.001418 2.5e-05 0.002588
0.001439 3e-05 0.002572
0.000404 8e-06 0.002893
0.000429 6e-06 0.002889
0.000452 6e-06 0.002882
0.000475 6e-06 0.002873
0.000498 7e-06 0.002865
0.000522 7e-06 0.002857
0.000544 9e-06 0.002844
0.000564 1.4e-05 0.002827
0.000581 2.3e-05 0.002801
0.000596 3.5e-05 0.002768
0.00061 5.1e-05 0.002729
0.000622 6.7e-05 0.002688
0.000841 -3.3e-05 0.001924
0.000645 0.000174 0.00244
0.000659 0.000188 0.002403
0.000678 0.000196 0.00238
0.000698 0.000201 0.002363
0.00072 0.000203 0.002351
0.000743 0.000203 0.002343
0.000767 0.000202 0.002337
0.000793 0.000199 0.002335
0.000819 0.000195 0.002337
0.000848 0.000186 0.002346
0.000881 0.000172 0.002369
0.001006 9e-05 0.002513
0.001044 6.7e-05 0.002552
0.00108 4.9e-05 0.002581
0.001114 3.3e-05 0.002606
0.001146 2e-05 0.002625
0.001175 1.2e-05 0.002634
0.001201 7e-06 0.002636
0.001226 6e-06 0.002631
0.001249 5e-06 0.002625
0.001273 5e-06 0.002618
0.001296 6e-06 0.002609
0.001319 6e-06 0.002601
0.001342 7e-06 0.002592
0.001365 8e-06 0.002584
0.001388 9e-06 0.002574
0.00141 1.1e-05 0.002563
0.001431 1.4e-05 0.002549
0.000436 3e-06 0.002833
0.000459 3e-06 0.002823
0.000482 3e-06 0.002816
0.000506 3e-06 0.002809
0.00053 2e-06 0.002804
0.000553 3e-06 0.002794
0.000574 6e-06 0.00278
0.000593 1.4e-05 0.002757
0.000608 2.6e-05 0.002725
0.000622 4.1e-05 0.002686
0.000818 -3.3e-05 0.001933
0.000645 0.000148 0.002438
0.000659 0.000161 0.002403
0.000678 0.000169 0.00238
0.000698 0.000173 0.002363
0.00072 0.000175 0.002351
0.000743 0.000176 0.002343
0.000767 0.000175 0.002337
0.000792 0.000173 0.002334
0.000819 0.000167 0.002337
0.000848 0.000159 0.002346
0.000882 0.000144 0.00237
0.000795 -3.4e-05 0.001941
0.000966 8.8e-05 0.002469
0.001006 6.2e-05 0.002514
0.001044 4.1e-05 0.00255
0.001078 2.4e-05 0.002577
0.00111 1.2e-05 0.002595
0.001211 1e-06 0.002586
0.001237 -3e-06 0.002586
0.001263 -7e-06 0.002588
0.001305 0.0 0.002559
0.00133 -2e-06 0.002555
0.001351 2e-06 0.002539
0.001374 4e-06 0.002529
0.000443 1e-06 0.002773
0.000467 -1e-06 0.002768
0.00049 0.0 0.002759
0.000513 0.0 0.002751
0.000536 1e-06 0.002743
0.00056 1e-06 0.002734
0.000583 2e-06 0.002725
0.000603 7e-06 0.002708
0.000622 1.5e-05 0.002681
0.000633 3.2e-05 0.00264
0.000772 -3.5e-05 0.00195
0.000748 -3.5e-05 0.001958
0.000645 0.00012 0.002438
0.000659 0.000134 0.002403
0.000678 0.000142 0.002379
0.000698 0.000146 0.002363
0.00072 0.000148 0.002351
0.000743 0.000149 0.002343
0.000767 0.000148 0.002337
0.000792 0.000145 0.002334
0.000819 0.00014 0.002337
0.000848 0.000132 0.002347
0.000882 0.000117 0.00237
0.000965 6.2e-05 0.002467
0.001006 3.5e-05 0.002515
0.001042 1.6e-05 0.002545
0.001072 5e-06 0.002559
0.001099 2e-06 0.00256
0.001123 -0.0 0.002556
0.000725 -3.5e-05 0.001967
0.000702 -3.5e-05 0.001974
0.000679 -3.6e-05 0.001982
0.000425 1e-06 0.002717
0.000448 2e-06 0.002708
0.000471 2e-06 0.0027
0.000494 2e-06 0.002692
0.000518 2e-06 0.002686
0.000541 2e-06 0.002677
0.000565 2e-06 0.00267
0.000588 2e-06 0.002663
0.000611 3e-06 0.002652
0.000629 1e-05 0.00263
0.000645 9.4e-05 0.002437
0.000659 0.000107 0.002402
0.000677 0.000115 0.002379
0.000698 0.000119 0.002362
0.00072 0.000121 0.002351
0.000743 0.000122 0.002343
0.000767 0.000121 0.002336
0.000792 0.000118 0.002334
0.000819 0.000113 0.002337
0.000848 0.000105 0.002347
0.000882 9e-05 0.00237
0.000655 -3.6e-05 0.00199
0.001005 1e-05 0.002509
0.001033 2e-06 0.002517
0.001057 1e-06 0.002512
0.001081 2e-06 0.002504
0.001104 2e-06 0.002496
0.001175 2e-06 0.002474
0.001198 1e-06 0.002468
0.001221 2e-06 0.002458
0.001244 3e-06 0.002448
0.000632 -3.6e-05 0.001997
0.000608 -3.5e-05 0.002004
0.000584 -3.5e-05 0.002012
0.000561 -3.5e-05 0.002019
0.000242 1e-06 0.002714
0.000266 1e-06 0.002706
0.000289 1e-06 0.002699
0.000313 1e-06 0.002691
0.000337 1e-06 0.002685
0.000537 -3.5e-05 0.002026
0.000408 0.0 0.002665
0.000455 -1e-06 0.00265
0.000478 -1e-06 0.002643
0.000501 0.0 0.002633
0.000524 0.0 0.002626
0.000548 1e-06 0.002617
0.000572 -0.0 0.002611
0.000596 -1e-06 0.002605
0.000618 1e-06 0.002594
0.000636 8e-06 0.002571
0.000645 6.6e-05 0.002438
0.000659 8e-05 0.002402
0.000677 8.8e-05 0.002379
0.000698 9.2e-05 0.002362
0.00072 9.4e-05 0.002351
0.000743 9.5e-05 0.002342
0.000767 9.4e-05 0.002336
0.000792 9.1e-05 0.002334
0.000819 8.6e-05 0.002337
0.000848 7.8e-05 0.002346
0.000881 6.4e-05 0.002368
0.001065 -0.0 0.002455
0.001088 -1e-06 0.002447
0.001112 -2e-06 0.00244
0.001135 -2e-06 0.002433
0.001159 -2e-06 0.002426
0.001205 -1e-06 0.00241
0.001229 -1e-06 0.002401
0.001252 -1e-06 0.002393
0.001274 1e-06 0.002383
0.000514 -3.5e-05 0.002034
0.00049 -3.4e-05 0.00204
0.000466 -3.4e-05 0.002046
0.000202 -0.0 0.00267
0.000226 -1e-06 0.002663
0.000249 -1e-06 0.002655
0.000272 -0.0 0.002647
0.000296 -0.0 0.002639
0.000318 1e-06 0.002628
0.000458 2e-06 0.002582
0.000482 2e-06 0.002575
0.000505 2e-06 0.002566
0.000528 2e-06 0.002558
0.000552 2e-06 0.002552
0.000576 1e-06 0.002545
0.0006 1e-06 0.002538
0.000623 2e-06 0.002529
0.000644 4e-05 0.002436
0.000659 5.3e-05 0.002401
0.000677 6.1e-05 0.002379
0.000698 6.5e-05 0.002362
0.00072 6.7e-05 0.00235
0.000743 6.8e-05 0.002342
0.000767 6.7e-05 0.002336
0.000792 6.4e-05 0.002333
0.000819 5.9e-05 0.002337
0.000848 5.1e-05 0.002346
0.000881 3.6e-05 0.002368
0.000924 7e-06 0.00242
0.001068 1e-06 0.002386
0.001092 1e-06 0.00238
0.001115 1e-06 0.002372
0.001138 2e-06 0.002363
0.001186 1e-06 0.002349
0.001209 1e-06 0.002342
0.001233 0.0 0.002336
0.001257 0.0 0.002328
0.000161 1e-06 0.002621
0.000183 2e-06 0.00261
0.000206 2e-06 0.002601
0.000229 2e-06 0.002594
0.000253 1e-06 0.002588
0.000276 2e-06 0.002579
0.0003 1e-06 0.002573
0.000324 1e-06 0.002565
0.000442 -1e-06 0.002531
0.000466 -1e-06 0.002525
0.00049 -0.0 0.002518
0.000514 -2e-06 0.002512
0.000537 -3e-06 0.002505
0.000561 -3e-06 0.002498
0.000584 -3e-06 0.002491
0.000608 -3e-06 0.002483
0.00063 -1e-06 0.002472
0.000659 2.6e-05 0.002401
0.000677 3.4e-05 0.002377
0.000698 3.8e-05 0.002361
0.00072 4e-05 0.00235
0.000743 4.1e-05 0.002342
0.000767 4e-05 0.002335
0.000792 3.7e-05 0.002333
0.000819 3.2e-05 0.002336
0.000848 2.3e-05 0.002346
0.000442 -3.3e-05 0.002053
0.000419 -3.3e-05 0.002059
0.001052 -2e-06 0.002337
0.001076 -2e-06 0.00233
0.001099 -2e-06 0.002322
0.001122 -1e-06 0.002313
0.000395 -3.2e-05 0.002065
0.001168 -1e-06 0.002295
0.001191 -0.0 0.002286
0.001215 1e-06 0.002279
0.001238 1e-06 0.002271
0.000144 -2e-06 0.00257
0.000167 -1e-06 0.00256
0.000191 -2e-06 0.002554
0.000214 -2e-06 0.002547
0.000285 -3e-06 0.002526
0.000308 -3e-06 0.002518
0.00037 -3.1e-05 0.00207
0.000472 -2e-06 0.002464
