0.002358 -9e-06 -7.7e-05
0.002359 -7e-06 -0.000102
0.00236 -6e-06 -0.000126
0.002362 -7e-06 -0.000151
0.002036 -3e-05 0.000529
0.002709 0.000655 0.001306
0.002395 0.000755 0.000609
0.002618 0.000588 0.000999
0.002183 -8e-06 0.000894
0.002183 -9e-06 0.000869
0.002186 -9e-06 0.000845
0.002188 -8e-06 0.00082
0.002191 -8e-06 0.000796
0.0022 -7e-06 0.000698
0.002201 -6e-06 0.000673
0.002204 -6e-06 0.000649
0.00247 0.000731 0.001381
0.002711 0.000518 0.001307
0.0027 0.000492 0.001329
0.002003 0.000716 0.001433
0.001991 0.000713 0.001481
0.002222 -5e-06 0.000477
0.002226 -5e-06 0.000453
0.002575 0.000661 0.000552
0.002413 0.000724 0.000591
0.002438 0.000716 0.000574
0.002756 0.000466 0.001193
0.002248 -5e-06 0.000282
0.002251 -5e-06 0.000257
0.002256 -7e-06 0.000233
0.002475 0.000702 0.000563
0.002685 0.000517 0.001082
0.002378 0.000759 0.000629
0.002276 -5e-06 3.7e-05
0.002281 -6e-06 1.3e-05
0.002286 -7e-06 -1.1e-05
0.002289 -7e-06 -3.6e-05
0.002297 -8e-06 -8.4e-05
0.002302 -8e-06 -0.000109
0.002304 -8e-06 -0.000133
0.002307 -8e-06 -0.000158
0.002742 0.000518 0.00124
0.002329 -8e-06 -0.000304
0.002331 -9e-06 -0.000329
0.002652 0.000566 0.001041
0.002116 -6e-06 0.000886
0.002119 -6e-06 0.000862
0.002121 -5e-06 0.000837
0.002124 -5e-06 0.000813
0.002359 0.000753 0.000701
0.002721 0.000518 0.001285
0.0027 0.000519 0.001329
0.002666 0.000625 0.000538
0.001292 0.000671 0.00271
0.002165 -5e-06 0.00047
0.002167 -5e-06 0.000446
0.00217 -5e-06 0.000421
0.002622 0.000697 0.000545
0.002666 0.00068 0.000538
0.00144 0.000727 0.002
0.002524 0.000709 0.000557
0.002704 0.000717 0.001278
0.002193 -5e-06 0.00025
0.002195 -5e-06 0.000226
0.002212 -4e-06 7.9e-05
0.002214 -4e-06 5.4e-05
0.002217 -5e-06 3e-05
0.002227 -3e-06 -6.8e-05
0.002232 -4e-06 -9.2e-05
0.002233 -3e-06 -0.000117
0.002237 -4e-06 -0.000141
0.002243 -4e-06 -0.00019
0.002247 -4e-06 -0.000215
0.002135 0.000603 0.002125
0.002265 -6e-06 -0.000336
0.002711 0.000464 0.001307
0.00101 0.000654 0.002527
0.002359 0.000749 0.000728
0.002065 -5e-06 0.000806
0.002068 -5e-06 0.000781
0.002706 0.000609 0.000528
0.002075 -6e-06 0.000732
0.00208 -6e-06 0.000708
0.002084 -7e-06 0.000684
0.002088 -7e-06 0.000659
0.002091 -7e-06 0.000635
0.002095 -8e-06 0.000611
0.002621 0.00067 0.000545
0.002118 0.000441 0.002143
0.001999 0.000699 0.001538
0.00262 0.000643 0.000545
0.002669 0.000552 0.00137
0.002629 0.000649 0.001378
0.002123 -1.1e-05 0.00044
0.002127 -1.1e-05 0.000416
0.00213 -1.1e-05 0.000392
0.002731 0.000627 0.001262
0.002223 0.000498 0.002007
0.002437 0.000743 0.000574
0.002413 0.000751 0.00059
0.002145 -1.2e-05 0.000269
0.002148 -1.2e-05 0.000245
0.002152 -1.2e-05 0.00022
0.002153 -1.2e-05 0.000196
0.002157 -1.2e-05 0.000172
0.002167 -1.1e-05 7.3e-05
0.00217 -1.1e-05 4.9e-05
0.00218 -8e-06 -7.4e-05
0.002181 -8e-06 -9.9e-05
0.002183 -7e-06 -0.000123
0.002185 -7e-06 -0.000148
0.002187 -6e-06 -0.000172
0.002189 -5e-06 -0.000197
0.002191 -5e-06 -0.000221
0.002752 0.000463 0.001217
0.002206 -5e-06 -0.000344
0.002205 -3e-06 -0.000369
0.002732 0.000491 0.001262
0.002472 0.000567 0.001381
0.002136 0.00044 0.002126
0.002742 0.000463 0.00124
0.002652 0.000593 0.001041
0.002754 0.000603 0.001192
0.002742 0.000614 0.00116
0.002033 -1.3e-05 0.000727
0.002038 -1.4e-05 0.000703
0.002042 -1.5e-05 0.000679
0.002047 -1.5e-05 0.000654
0.002052 -1.6e-05 0.00063
0.002056 -1.7e-05 0.000606
0.00273 0.000655 0.001262
0.00272 0.000655 0.001284
0.002069 -1.8e-05 0.000533
0.002074 -1.9e-05 0.000509
0.002077 -2e-05 0.000484
0.002081 -2e-05 0.00046
0.002085 -2e-05 0.000436
0.002089 -2.1e-05 0.000411
0.002092 -2.1e-05 0.000387
0.002096 -2.1e-05 0.000363
0.002099 -2.1e-05 0.000338
0.002102 -2.2e-05 0.000314
0.002105 -2.1e-05 0.000289
0.002108 -2.2e-05 0.000265
0.002112 -2.2e-05 0.00024
0.002114 -2.2e-05 0.000216
0.002117 -2.1e-05 0.000191
0.002119 -2.1e-05 0.000167
0.002122 -2.1e-05 0.000142
0.002124 -2.1e-05 0.000118
0.002126 -2e-05 9.3e-05
0.002129 -2e-05 6.9e-05
0.00213 -1.9e-05 4.4e-05
0.002132 -1.9e-05 2e-05
0.002134 -1.8e-05 -5e-06
0.002145 -1.4e-05 -0.000177
0.002711 0.000437 0.001307
0.002742 0.00049 0.00124
0.00267 0.000443 0.00137
0.002732 0.000463 0.001262
0.002395 0.000701 0.00061
0.002413 0.000697 0.000591
0.002438 0.000689 0.000574
0.002475 0.000675 0.000563
0.002527 0.000654 0.000558
0.002574 0.000634 0.000552
0.002621 0.000616 0.000545
0.002665 0.000598 0.000537
0.002708 0.000582 0.000529
0.002744 0.000569 0.00052
0.002 0.000671 0.001539
0.00199 0.000681 0.001508
0.00199 0.000686 0.001481
0.001995 0.000689 0.001456
0.002003 0.000689 0.001433
0.002015 0.000688 0.001411
0.002153 0.000723 0.001789
0.002186 0.000657 0.00188
0.00217 0.000676 0.001835
0.002582 0.000556 0.001376
0.002187 0.000464 0.002072
0.000434 0.000451 0.002985
0.00217 0.000601 0.00209
0.002627 0.000433 0.001378
0.002671 0.000415 0.00137
0.002689 0.000411 0.001351
0.0027 0.00041 0.001329
0.002711 0.00041 0.001307
0.002721 0.000409 0.001285
0.002732 0.000409 0.001262
0.002742 0.000409 0.00124
0.002751 0.000409 0.001217
0.002756 0.000412 0.001192
0.002742 0.000424 0.001159
0.002714 0.000443 0.001121
0.002685 0.000462 0.001081
0.002652 0.000484 0.001041
0.002356 0.000668 0.000727
0.002357 0.000673 0.0007
0.002362 0.000675 0.000676
0.00237 0.000676 0.000652
0.00238 0.000676 0.00063
0.002393 0.000674 0.000609
0.002414 0.000669 0.000591
0.002439 0.000661 0.000574
0.002476 0.000647 0.000563
0.002526 0.000627 0.000558
0.002573 0.000608 0.000551
0.002621 0.000589 0.000545
0.002666 0.000571 0.000538
0.002707 0.000555 0.000529
0.002745 0.000541 0.000521
0.002016 0.000631 0.001572
0.001999 0.000645 0.001538
0.00199 0.000654 0.001508
0.00199 0.000659 0.001481
0.001995 0.000662 0.001456
0.002003 0.000662 0.001433
0.001456 0.000484 0.002382
0.002508 0.00069 0.001381
0.002218 0.000546 0.002034
0.002203 0.000545 0.002054
0.002187 0.000546 0.002072
0.002509 0.000554 0.00138
0.000544 0.000519 0.002922
0.002575 0.000426 0.00138
0.002626 0.000406 0.001377
0.00267 0.000388 0.00137
0.002689 0.000384 0.001351
0.0027 0.000383 0.001329
0.002711 0.000383 0.001307
0.002721 0.000382 0.001285
0.002732 0.000382 0.001262
0.002742 0.000382 0.00124
0.002752 0.000382 0.001217
0.002756 0.000384 0.001192
0.002742 0.000396 0.001159
0.002713 0.000416 0.00112
0.002685 0.000435 0.001082
0.002652 0.000457 0.001041
0.00262 0.000478 0.001
0.002356 0.000646 0.0007
0.002362 0.000649 0.000675
0.00237 0.00065 0.000652
0.00238 0.000649 0.00063
0.002393 0.000647 0.000609
0.002413 0.000642 0.00059
0.002438 0.000634 0.000574
0.002475 0.00062 0.000563
0.002525 0.0006 0.000558
0.002574 0.00058 0.000552
0.002619 0.000562 0.000544
0.002666 0.000543 0.000538
0.002708 0.000527 0.000529
0.002745 0.000514 0.00052
0.002015 0.000604 0.001572
0.001999 0.000617 0.001539
0.00199 0.000627 0.001508
0.00199 0.000632 0.001481
0.001995 0.000635 0.001456
0.002003 0.000635 0.001433
0.001458 0.000686 0.002561
0.002223 0.000607 0.002006
0.002009 0.000512 0.002147
0.002045 0.000499 0.002156
0.002134 0.00063 0.002124
0.002627 0.000378 0.001378
0.00267 0.000361 0.00137
0.002689 0.000356 0.001351
0.0027 0.000356 0.001329
0.002711 0.000355 0.001307
0.002721 0.000355 0.001284
0.002732 0.000355 0.001262
0.002742 0.000355 0.00124
0.002751 0.000355 0.001217
0.002756 0.000357 0.001192
0.002742 0.000369 0.001159
0.002713 0.000389 0.00112
0.002684 0.000408 0.001081
0.002651 0.00043 0.00104
0.002618 0.000452 0.000999
0.002362 0.000621 0.000675
0.002369 0.000622 0.000652
0.002379 0.000622 0.000629
0.002393 0.00062 0.000608
0.002413 0.000615 0.00059
0.002439 0.000607 0.000574
0.002477 0.000592 0.000564
0.002526 0.000572 0.000558
0.002574 0.000553 0.000552
0.002619 0.000535 0.000544
0.002665 0.000517 0.000537
0.002707 0.000501 0.000528
0.002744 0.000487 0.000519
0.002015 0.000577 0.001572
0.001999 0.00059 0.001538
0.00199 0.000599 0.001508
0.00199 0.000605 0.001481
0.001994 0.000608 0.001456
0.002003 0.000608 0.001433
0.001818 0.000749 0.002083
0.002169 0.000628 0.00209
0.002153 0.000466 0.002108
0.002073 0.000592 0.001356
0.002109 0.000579 0.001344
0.001441 0.00075 0.002
0.002116 0.000604 0.002142
0.002629 0.00035 0.001379
0.00267 0.000334 0.00137
0.002689 0.000329 0.001351
0.0027 0.000329 0.001329
0.002711 0.000328 0.001307
0.002721 0.000328 0.001284
0.002731 0.000328 0.001262
0.002742 0.000327 0.00124
0.002751 0.000328 0.001217
0.002756 0.00033 0.001192
0.00274 0.000343 0.001159
0.002713 0.000362 0.00112
0.002684 0.000381 0.001081
0.002651 0.000403 0.00104
0.002619 0.000424 0.001
0.002581 0.000448 0.000957
0.002362 0.000594 0.000675
0.002369 0.000595 0.000652
0.002379 0.000595 0.000629
0.002393 0.000593 0.000608
0.002413 0.000588 0.00059
0.002438 0.00058 0.000574
0.002477 0.000565 0.000564
0.002526 0.000545 0.000558
0.002574 0.000526 0.000552
0.002621 0.000507 0.000545
0.002666 0.000489 0.000538
0.002707 0.000473 0.000528
0.002744 0.00046 0.000517
0.002014 0.00055 0.001572
0.001998 0.000563 0.001538
0.00199 0.000573 0.001508
0.00199 0.000578 0.001481
0.001994 0.00058 0.001456
0.002003 0.000581 0.001433
0.002009 0.000458 0.002146
0.00203 0.000577 0.001391
0.002049 0.000572 0.001372
0.002076 0.000564 0.001357
0.002109 0.000552 0.001344
0.00217 0.000465 0.00209
0.001425 0.000753 0.00202
0.002202 0.000628 0.002053
0.002628 0.000323 0.001378
0.00267 0.000307 0.00137
0.002689 0.000302 0.001351
0.0027 0.000301 0.001329
0.002711 0.000301 0.001307
0.002722 0.000301 0.001285
0.002732 0.0003 0.001262
0.002742 0.0003 0.00124
0.002752 0.0003 0.001217
0.002756 0.000303 0.001192
0.002741 0.000315 0.001159
0.002713 0.000334 0.00112
0.002683 0.000354 0.001081
0.002651 0.000376 0.00104
0.002619 0.000397 0.001
0.002582 0.00042 0.000958
0.002362 0.000567 0.000675
0.002369 0.000568 0.000652
0.00238 0.000568 0.000629
0.002393 0.000566 0.000608
0.002413 0.000561 0.00059
0.002438 0.000553 0.000574
0.002476 0.000538 0.000563
0.002526 0.000518 0.000558
0.002576 0.000498 0.000553
0.00262 0.00048 0.000545
0.002667 0.000462 0.000538
0.002707 0.000446 0.000528
0.002744 0.000432 0.000517
0.002781 0.00042 0.000511
0.002014 0.000523 0.001571
0.001997 0.000537 0.001538
0.00199 0.000545 0.001508
0.001991 0.00055 0.001481
0.001994 0.000553 0.001456
0.002003 0.000554 0.001433
0.002015 0.000552 0.001411
0.00203 0.000549 0.001391
0.002049 0.000545 0.001372
0.002074 0.000537 0.001355
0.002134 0.000663 0.001741
0.001483 0.000747 0.001972
0.001463 0.000749 0.001987
0.002268 0.000742 0.001405
0.002576 0.000317 0.00138
0.002629 0.000296 0.001378
0.00267 0.00028 0.00137
0.002689 0.000275 0.001351
0.0027 0.000274 0.001329
0.002711 0.000274 0.001307
0.002721 0.000274 0.001284
0.002731 0.000273 0.001262
0.002742 0.000273 0.00124
0.002751 0.000273 0.001217
0.002756 0.000276 0.001192
0.002741 0.000288 0.001159
0.002712 0.000308 0.00112
0.002684 0.000327 0.001081
0.002652 0.000348 0.001041
0.002619 0.00037 0.001
0.002362 0.00054 0.000675
0.002369 0.000541 0.000652
0.00238 0.000541 0.000629
0.002393 0.000539 0.000609
0.002413 0.000533 0.00059
0.002438 0.000526 0.000574
0.002475 0.000512 0.000563
0.002525 0.000491 0.000558
0.002576 0.000471 0.000552
0.002621 0.000453 0.000545
0.002667 0.000434 0.000538
0.002708 0.000418 0.000529
0.002744 0.000405 0.000517
0.002781 0.000392 0.000511
0.002014 0.000496 0.001571
0.001998 0.000509 0.001538
0.001991 0.000518 0.001507
0.001991 0.000523 0.001481
0.001994 0.000526 0.001456
0.002002 0.000527 0.001433
0.002015 0.000525 0.001411
0.00203 0.000522 0.001391
0.002049 0.000518 0.001372
0.002073 0.00051 0.001354
0.002118 0.00055 0.002143
0.002152 0.000643 0.001788
0.002471 0.000676 0.001381
0.002206 0.000689 0.002024
0.002628 0.000269 0.001378
0.00267 0.000253 0.00137
0.002689 0.000248 0.001351
0.0027 0.000247 0.001329
0.002711 0.000247 0.001307
0.002722 0.000246 0.001285
0.002732 0.000246 0.001262
0.002742 0.000246 0.00124
0.002751 0.000246 0.001217
0.002755 0.000249 0.001192
0.00274 0.000262 0.001159
0.002712 0.00028 0.00112
0.002684 0.0003 0.001081
0.002652 0.000321 0.001041
0.002619 0.000343 0.000999
0.002577 0.000366 0.000962
0.002362 0.000513 0.000675
0.002369 0.000514 0.000652
0.00238 0.000514 0.000629
0.002393 0.000512 0.000609
0.002413 0.000506 0.00059
0.002438 0.000499 0.000574
0.002475 0.000485 0.000563
0.002526 0.000464 0.000558
0.002574 0.000444 0.000552
0.002622 0.000425 0.000545
0.002666 0.000407 0.000538
0.00271 0.00039 0.000529
0.002745 0.000377 0.000518
0.002169 0.000569 0.001834
0.001999 0.000482 0.001537
0.001992 0.000491 0.001507
0.001991 0.000496 0.001481
0.001994 0.000499 0.001456
0.002002 0.0005 0.001433
0.002015 0.000498 0.001411
0.00203 0.000495 0.00139
0.002049 0.000491 0.001371
0.002217 0.000601 0.002033
0.002347 0.000695 0.001375
0.002169 0.000623 0.001835
0.00063 0.000688 0.002634
0.002628 0.000242 0.001378
0.00267 0.000226 0.00137
0.002689 0.000221 0.001351
0.0027 0.00022 0.001329
0.002711 0.000219 0.001307
0.002722 0.000219 0.001285
0.002732 0.000219 0.001262
0.002742 0.000218 0.00124
0.002751 0.000219 0.001217
0.002755 0.000222 0.001192
0.00274 0.000234 0.001159
0.002713 0.000253 0.00112
0.002683 0.000273 0.001081
0.002652 0.000294 0.00104
0.002617 0.000317 0.000999
0.002577 0.000339 0.000961
0.002362 0.000486 0.000675
0.002369 0.000487 0.000652
0.00238 0.000486 0.00063
0.002394 0.000484 0.000609
0.002413 0.000479 0.00059
0.002437 0.000472 0.000574
0.002474 0.000458 0.000563
0.002527 0.000436 0.000558
0.002574 0.000417 0.000552
0.002622 0.000398 0.000545
0.002671 0.000378 0.000539
0.002708 0.000364 0.000528
0.002745 0.000351 0.000519
0.002186 0.000522 0.00188
0.002152 0.000629 0.002107
0.001992 0.000464 0.001507
0.00199 0.000469 0.00148
0.001994 0.000472 0.001456
0.002003 0.000472 0.001433
0.002015 0.000471 0.001411
0.002163 0.000687 0.002084
0.002101 0.00065 0.002148
0.000658 -3e-06 0.00216
0.002186 0.000603 0.00188
0.002433 0.000608 0.001381
0.002097 0.000552 0.002157
0.002215 0.000629 0.002032
0.002628 0.000214 0.001378
0.002669 0.000199 0.001369
0.002688 0.000194 0.00135
0.0027 0.000193 0.001329
0.002711 0.000192 0.001307
0.002722 0.000192 0.001285
0.002732 0.000192 0.001262
0.002742 0.000191 0.00124
0.00275 0.000192 0.001216
0.002754 0.000195 0.001191
0.002741 0.000207 0.001159
0.002713 0.000226 0.00112
0.002683 0.000246 0.00108
0.002651 0.000267 0.00104
0.002616 0.00029 0.000998
0.002577 0.000311 0.000962
0.002362 0.000458 0.000675
0.002369 0.00046 0.000652
0.00238 0.000459 0.000629
0.002394 0.000457 0.000609
0.002413 0.000452 0.00059
0.002438 0.000444 0.000574
0.002475 0.00043 0.000563
0.002526 0.000409 0.000558
0.002574 0.00039 0.000552
0.002622 0.000371 0.000545
0.002672 0.00035 0.00054
0.002707 0.000337 0.000528
0.002744 0.000324 0.000519
0.002194 0.000723 0.002015
0.001998 0.000428 0.001537
0.001991 0.000437 0.001507
0.00199 0.000442 0.00148
0.001994 0.000445 0.001456
0.002003 0.000445 0.001433
0.002015 0.000443 0.001411
0.002179 0.000687 0.002066
0.0022 0.000666 0.001924
0.002223 0.000579 0.002007
0.002218 0.000519 0.002034
0.002185 0.000576 0.00188
0.002546 0.00065 0.001382
0.002576 0.000209 0.00138
0.002629 0.000187 0.001378
0.002669 0.000172 0.001369
0.002687 0.000168 0.00135
0.0027 0.000166 0.001329
0.002711 0.000165 0.001307
0.002721 0.000165 0.001284
0.002732 0.000165 0.001262
0.002741 0.000165 0.001239
0.002749 0.000165 0.001216
0.002753 0.000168 0.001191
0.002739 0.00018 0.001158
0.002712 0.000199 0.00112
0.002683 0.000219 0.001081
0.002651 0.00024 0.00104
0.002616 0.000262 0.000998
0.002582 0.000284 0.000958
0.002362 0.000431 0.000675
0.002369 0.000432 0.000652
0.00238 0.000432 0.000629
0.002393 0.00043 0.000608
0.002413 0.000425 0.00059
0.002437 0.000417 0.000574
0.002476 0.000403 0.000563
0.002524 0.000383 0.000557
0.002575 0.000363 0.000552
0.00267 0.000324 0.000539
0.002707 0.00031 0.000528
0.002744 0.000296 0.000517
0.002014 0.000388 0.001571
0.001997 0.000401 0.001537
0.00199 0.00041 0.001507
0.00199 0.000415 0.00148
0.001994 0.000418 0.001456
0.002003 0.000418 0.001433
0.002015 0.000416 0.001411
0.002222 0.000635 0.002005
0.002214 0.000595 0.001967
0.002347 0.000722 0.001375
0.002392 0.000705 0.001379
0.002041 0.00075 0.001378
0.001444 0.000664 0.002628
0.002117 0.000577 0.002142
0.002577 0.000181 0.001381
0.00263 0.000159 0.001379
0.002667 0.000146 0.001368
0.002684 0.000142 0.001349
0.002698 0.00014 0.001328
0.00271 0.000139 0.001306
0.00272 0.000138 0.001284
0.002731 0.000138 0.001262
0.00274 0.000138 0.001239
0.002747 0.000139 0.001215
0.002751 0.000143 0.00119
0.002739 0.000153 0.001158
0.002712 0.000172 0.00112
0.002682 0.000192 0.00108
0.00265 0.000213 0.00104
0.002617 0.000235 0.000999
0.002582 0.000257 0.000957
0.002362 0.000404 0.000675
0.002369 0.000405 0.000652
0.002379 0.000405 0.000629
0.002394 0.000402 0.000609
0.002413 0.000398 0.00059
0.002438 0.00039 0.000574
0.002477 0.000375 0.000564
0.002525 0.000355 0.000558
0.002574 0.000336 0.000552
0.002625 0.000315 0.000547
0.002667 0.000298 0.000538
0.002707 0.000283 0.000528
0.002745 0.000269 0.000517
0.002014 0.00036 0.001571
0.001997 0.000374 0.001537
0.001989 0.000383 0.001507
0.001989 0.000388 0.00148
0.001994 0.000391 0.001455
0.002003 0.000391 0.001433
0.002015 0.000389 0.001411
0.002391 0.000732 0.001379
0.002301 0.000741 0.001369
0.0022 0.000504 0.001924
0.002169 0.000541 0.001834
0.002109 0.00071 0.001338
0.002111 0.000741 0.001691
0.002577 0.000154 0.001382
0.002629 0.000133 0.001379
0.002663 0.00012 0.001367
0.002681 0.000116 0.001347
0.002694 0.000114 0.001326
0.002706 0.000113 0.001305
0.002717 0.000112 0.001283
0.002727 0.000112 0.00126
0.002736 0.000113 0.001237
0.002743 0.000114 0.001213
0.002747 0.000117 0.001188
0.002738 0.000127 0.001158
0.002712 0.000145 0.001119
0.002682 0.000165 0.00108
0.002651 0.000186 0.00104
0.002616 0.000208 0.000998
0.002581 0.00023 0.000957
0.002362 0.000377 0.000675
0.002369 0.000378 0.000652
0.00238 0.000378 0.000629
0.002394 0.000375 0.000609
0.002413 0.00037 0.00059
0.002438 0.000362 0.000574
0.002477 0.000348 0.000564
0.002526 0.000328 0.000558
0.002575 0.000308 0.000552
0.002622 0.000289 0.000545
0.002667 0.000271 0.000538
0.002707 0.000256 0.000528
0.002744 0.000242 0.000517
0.002013 0.000334 0.001571
0.001997 0.000347 0.001537
0.00199 0.000356 0.001507
0.001989 0.000361 0.00148
0.001993 0.000363 0.001455
0.002003 0.000364 0.001433
0.001897 0.000717 0.002112
0.002134 0.000717 0.001741
0.002432 0.00069 0.001381
0.002582 0.000583 0.001378
0.002248 0.000709 0.001357
0.002203 0.000573 0.002054
0.001728 0.000654 0.002038
0.002578 0.000126 0.001382
0.002627 0.000106 0.001378
0.002658 9.6e-05 0.001364
0.002674 9.2e-05 0.001345
0.002688 9e-05 0.001324
0.0027 8.9e-05 0.001302
0.002711 8.8e-05 0.00128
0.002721 8.8e-05 0.001258
0.00273 8.9e-05 0.001234
0.002737 9e-05 0.001211
0.002742 9.3e-05 0.001186
0.002736 0.000101 0.001157
0.002712 0.000118 0.00112
0.002681 0.000138 0.00108
0.00265 0.000159 0.001039
0.002614 0.000182 0.000998
0.002577 0.000203 0.000962
0.002362 0.00035 0.000675
0.002369 0.000351 0.000652
0.00238 0.00035 0.00063
0.002394 0.000348 0.000609
0.002413 0.000343 0.00059
0.002438 0.000335 0.000574
0.002475 0.000321 0.000563
0.002527 0.0003 0.000558
0.002575 0.000281 0.000552
0.002622 0.000262 0.000545
0.002667 0.000244 0.000538
0.002708 0.000228 0.000528
0.002745 0.000215 0.000519
0.002013 0.000307 0.001571
0.001997 0.000319 0.001537
0.001989 0.000328 0.001507
0.001989 0.000334 0.00148
0.001994 0.000336 0.001455
0.002003 0.000336 0.001433
0.002015 0.000335 0.001411
0.002187 0.0006 0.002072
0.002066 0.000589 0.00216
0.001448 0.000606 0.002633
0.002433 0.000663 0.001381
0.002299 0.000688 0.001367
0.002096 0.00058 0.002156
0.000506 0.000584 0.002969
0.002578 9.9e-05 0.001382
0.002625 8e-05 0.001377
0.00265 7.2e-05 0.001361
0.002666 7e-05 0.001341
0.002679 6.8e-05 0.00132
0.002691 6.6e-05 0.001298
0.002702 6.6e-05 0.001276
0.002712 6.6e-05 0.001254
0.002721 6.6e-05 0.001231
0.002728 6.8e-05 0.001207
0.002733 7e-05 0.001182
0.002732 7.6e-05 0.001155
0.002711 9.1e-05 0.001119
0.002682 0.000111 0.00108
0.00265 0.000132 0.001039
0.002615 0.000154 0.000998
0.002576 0.000176 0.000962
0.002369 0.000324 0.000652
0.00238 0.000323 0.00063
0.002394 0.000321 0.000609
0.002413 0.000316 0.00059
0.002439 0.000308 0.000574
0.002477 0.000294 0.000563
0.002528 0.000272 0.000559
0.002574 0.000254 0.000552
0.002667 0.000217 0.000538
0.002708 0.000201 0.000529
0.002745 0.000187 0.000517
0.002012 0.00028 0.001571
0.001997 0.000293 0.001537
0.001989 0.000301 0.001507
0.001989 0.000306 0.00148
0.001994 0.000309 0.001455
0.002003 0.000309 0.001433
0.002015 0.000307 0.001411
0.002184 0.000656 0.00207
0.002471 0.000703 0.001381
0.000635 -3e-06 0.002167
0.002223 0.000552 0.002007
0.000637 0.000586 0.002494
0.002508 0.000718 0.00138
0.002577 7.2e-05 0.001382
0.002617 5.7e-05 0.001374
0.002639 5.1e-05 0.001356
0.002654 4.8e-05 0.001336
0.002667 4.7e-05 0.001315
0.002679 4.5e-05 0.001293
0.00269 4.5e-05 0.001271
0.0027 4.5e-05 0.001248
0.002709 4.5e-05 0.001225
0.002716 4.6e-05 0.001202
0.002722 4.8e-05 0.001177
0.002723 5.3e-05 0.001151
0.002709 6.5e-05 0.001118
0.002682 8.4e-05 0.00108
0.002649 0.000105 0.001039
0.002614 0.000128 0.000997
0.002369 0.000297 0.000652
0.00238 0.000296 0.00063
0.002394 0.000294 0.000609
0.002413 0.000289 0.00059
0.002439 0.000281 0.000574
0.002476 0.000267 0.000563
0.002527 0.000246 0.000558
0.002575 0.000226 0.000552
0.002623 0.000207 0.000546
0.002668 0.000189 0.000538
0.002708 0.000174 0.000528
0.002744 0.00016 0.000517
0.002022 0.000252 0.001564
0.001998 0.000265 0.001537
0.001989 0.000274 0.001507
0.001989 0.000279 0.00148
0.001994 0.000282 0.001455
0.002003 0.000282 0.001432
0.002015 0.00028 0.001411
0.002171 0.00073 0.001836
0.000611 -2e-06 0.002174
0.000564 -2e-06 0.00219
0.002393 0.00065 0.00138
0.002214 0.00054 0.001967
0.002009 0.000702 0.002147
0.002574 4.7e-05 0.00138
0.002604 3.7e-05 0.001368
0.002624 3.2e-05 0.00135
0.002639 2.9e-05 0.001329
0.002651 2.7e-05 0.001308
0.002663 2.6e-05 0.001286
0.002674 2.6e-05 0.001264
0.002684 2.6e-05 0.001242
0.002693 2.6e-05 0.001219
0.002701 2.7e-05 0.001195
0.002707 2.9e-05 0.001171
0.002709 3.3e-05 0.001145
0.002704 4e-05 0.001116
0.00268 5.7e-05 0.001079
0.00237 0.000269 0.000652
0.00238 0.000269 0.00063
0.002394 0.000266 0.000609
0.002414 0.000261 0.000591
0.002439 0.000253 0.000574
0.002477 0.000239 0.000563
0.002526 0.000219 0.000558
0.002576 0.000199 0.000552
0.002624 0.00018 0.000546
0.002668 0.000162 0.000538
0.002708 0.000147 0.000529
0.002745 0.000133 0.000519
0.002022 0.000225 0.001565
0.001997 0.000238 0.001537
0.00199 0.000247 0.001507
0.001989 0.000252 0.00148
0.001994 0.000255 0.001455
0.002003 0.000255 0.001433
0.002015 0.000253 0.001411
0.000527 0.000616 0.002952
0.002432 0.000717 0.001381
0.002134 0.00069 0.001741
0.002218 0.000491 0.002034
0.002347 0.000668 0.001375
0.002505 0.000747 0.001377
0.002561 2.7e-05 0.001374
0.002586 1.9e-05 0.00136
0.002604 1.5e-05 0.001341
0.002618 1.2e-05 0.00132
0.00263 1.1e-05 0.001299
0.002641 1e-05 0.001277
0.002652 1e-05 0.001254
0.002661 1e-05 0.001232
0.00267 1.1e-05 0.001209
0.002678 1.1e-05 0.001186
0.002686 1.3e-05 0.001162
0.00269 1.5e-05 0.001137
0.002689 2.1e-05 0.00111
0.002675 3.3e-05 0.001077
0.002649 5.1e-05 0.001039
0.002361 0.000241 0.000675
0.00237 0.000242 0.000652
0.00238 0.000242 0.000629
0.002394 0.000239 0.000609
0.002414 0.000234 0.000591
0.002439 0.000226 0.000574
0.002477 0.000212 0.000564
0.002526 0.000192 0.000558
0.002575 0.000172 0.000552
0.002623 0.000153 0.000545
0.002668 0.000135 0.000538
0.002707 0.00012 0.000528
0.002745 0.000106 0.00052
0.002014 0.000197 0.001571
0.001997 0.000211 0.001537
0.001989 0.00022 0.001507
0.001989 0.000225 0.00148
0.001994 0.000227 0.001455
0.002003 0.000228 0.001432
0.002015 0.000226 0.001411
0.00215 0.000657 0.002106
0.0022 0.000639 0.001924
0.002152 0.00067 0.001788
0.002146 0.000718 0.002083
0.001265 0.000677 0.002712
0.002546 0.000677 0.001381
0.002544 0.000732 0.001377
0.002559 6e-06 0.001349
0.002572 4e-06 0.001328
0.002584 2e-06 0.001306
0.002595 1e-06 0.001284
0.002606 1e-06 0.001262
0.002615 1e-06 0.001239
0.002624 2e-06 0.001216
0.002634 2e-06 0.001193
0.002643 2e-06 0.00117
0.002652 2e-06 0.001147
0.002659 3e-06 0.001124
0.002664 6e-06 0.001099
0.00266 1.3e-05 0.001071
0.002645 2.5e-05 0.001037
0.002361 0.000214 0.000675
0.002369 0.000215 0.000651
0.00238 0.000215 0.000629
0.002394 0.000212 0.000609
0.002414 0.000207 0.00059
0.002439 0.000199 0.000574
0.002477 0.000185 0.000563
0.002525 0.000165 0.000557
0.002576 0.000144 0.000552
0.002622 0.000126 0.000545
0.002669 0.000107 0.000538
0.002707 9.3e-05 0.000528
0.002745 7.9e-05 0.000519
0.002014 0.00017 0.001571
0.001996 0.000184 0.001537
0.001989 0.000193 0.001507
0.001989 0.000198 0.00148
0.001994 0.0002 0.001455
0.002003 0.0002 0.001433
0.002016 0.000199 0.001411
0.002199 0.000656 0.002051
0.002214 0.000622 0.001967
0.0022 0.000612 0.001924
0.001407 -3.1e-05 0.001565
0.002346 0.000614 0.001374
0.002145 0.000698 0.001336
0.001475 0.000691 0.001974
0.002133 0.000609 0.001741
0.002144 0.000726 0.001335
0.002592 1e-06 0.001148
0.002602 1e-06 0.001126
0.002611 1e-06 0.001103
0.00262 1e-06 0.00108
0.002628 2e-06 0.001057
0.002627 7e-06 0.00103
0.002609 2.1e-05 0.000995
0.002361 0.000187 0.000675
0.002369 0.000188 0.000651
0.002379 0.000188 0.000629
0.002394 0.000185 0.000608
0.002413 0.00018 0.00059
0.00244 0.000172 0.000574
0.002476 0.000158 0.000563
0.002525 0.000138 0.000557
0.002577 0.000117 0.000553
0.002623 9.9e-05 0.000545
0.00267 8e-05 0.000539
0.002707 6.5e-05 0.000528
0.002745 5.2e-05 0.000517
0.002012 0.000144 0.00157
0.001996 0.000157 0.001537
0.001989 0.000166 0.001507
0.00199 0.00017 0.00148
0.001994 0.000173 0.001455
0.002003 0.000173 0.001432
0.002016 0.000172 0.001411
0.000526 0.000589 0.002953
0.002095 0.000607 0.002155
0.002218 0.000573 0.002034
0.002546 0.000623 0.00138
0.002064 0.000536 0.00216
0.002136 0.000682 0.002112
0.002346 0.000641 0.001374
0.002503 -1e-06 0.001217
0.002514 -2e-06 0.001196
0.002522 -1e-06 0.001172
0.002533 -1e-06 0.00115
0.002543 -2e-06 0.001128
0.002552 -2e-06 0.001105
0.002564 -2e-06 0.001083
0.002573 -2e-06 0.00106
0.002582 -2e-06 0.001037
0.002589 -0.0 0.001013
0.002589 5e-06 0.000986
0.002362 0.00016 0.000675
0.002369 0.000161 0.000651
0.00238 0.00016 0.000629
0.002394 0.000158 0.000609
0.002413 0.000153 0.00059
0.002439 0.000144 0.000574
0.002476 0.000131 0.000563
0.002525 0.000111 0.000557
0.002576 9e-05 0.000552
0.002624 7.1e-05 0.000546
0.002669 5.3e-05 0.000539
0.002707 3.8e-05 0.000528
0.002742 2.5e-05 0.000516
0.002012 0.000117 0.00157
0.001995 0.00013 0.001536
0.00199 0.000138 0.001507
0.00199 0.000143 0.00148
0.001994 0.000146 0.001455
0.002003 0.000146 0.001432
0.002016 0.000144 0.001411
0.002193 0.000687 0.002045
0.002135 0.000744 0.001743
0.002152 0.000575 0.002108
0.002472 0.000594 0.001382
0.002393 0.000623 0.00138
0.002169 0.000574 0.00209
0.002059 0.000748 0.001361
0.002248 0.000682 0.001357
0.002299 0.000661 0.001367
0.002437 0.0 0.001216
0.002448 -0.0 0.001194
0.002455 1e-06 0.00117
0.002466 0.0 0.001148
0.002476 0.0 0.001126
0.002486 -0.0 0.001103
0.002497 -0.0 0.001081
0.002516 -0.0 0.001036
0.002526 -0.0 0.001013
0.002536 -1e-06 0.00099
0.002544 0.0 0.000967
0.002362 0.000132 0.000675
0.002369 0.000133 0.000651
0.00238 0.000133 0.000629
0.002394 0.000131 0.000608
0.002413 0.000126 0.00059
0.00244 0.000117 0.000574
0.002476 0.000104 0.000563
0.002525 8.4e-05 0.000557
0.002575 6.3e-05 0.000552
0.002624 4.4e-05 0.000546
0.002669 2.6e-05 0.000538
0.002701 1.4e-05 0.000525
0.00201 9.1e-05 0.001569
0.001995 0.000103 0.001536
0.001989 0.000111 0.001507
0.001989 0.000116 0.00148
0.001994 0.000119 0.001455
0.002003 0.000119 0.001432
0.002016 0.000117 0.001411
0.002201 0.000693 0.001924
0.002152 0.000697 0.001789
0.002186 0.000573 0.002072
0.002118 0.000522 0.002143
0.002299 3e-06 0.001371
0.002321 -3e-06 0.001354
0.002331 -2e-06 0.001331
0.002098 0.000525 0.002157
0.002028 -3e-05 0.000559
0.002362 -4e-06 0.001265
0.002372 -4e-06 0.001242
0.002402 -4e-06 0.001174
0.002411 -4e-06 0.001151
0.002466 -2e-06 0.001014
0.002477 -3e-06 0.000992
0.002488 -3e-06 0.00097
0.002497 -3e-06 0.000947
0.002506 -3e-06 0.000924
0.002362 0.000105 0.000675
0.002369 0.000106 0.000651
0.00238 0.000106 0.000629
0.002394 0.000103 0.000609
0.002413 9.9e-05 0.00059
0.00244 9e-05 0.000574
0.002475 7.7e-05 0.000563
0.002527 5.5e-05 0.000558
0.002576 3.6e-05 0.000552
0.002624 1.6e-05 0.000546
0.002655 5e-06 0.000532
0.002674 1e-06 0.000514
0.002008 6.4e-05 0.001569
0.001995 7.6e-05 0.001536
0.001988 8.4e-05 0.001507
0.001989 8.9e-05 0.00148
0.001994 9.2e-05 0.001455
0.002003 9.2e-05 0.001432
0.002015 9e-05 0.001411
0.002168 0.000656 0.002089
0.001859 0.000732 0.002099
0.002066 0.000562 0.002161
0.00146 0.000724 0.001984
0.002258 -3e-06 0.001354
0.002267 -3e-06 0.001331
0.002276 -2e-06 0.001308
0.002286 -2e-06 0.001285
0.002312 -1e-06 0.001216
0.002321 -0.0 0.001193
0.002362 -1e-06 0.001103
0.00237 -1e-06 0.00108
0.002388 0.0 0.001034
0.002398 -0.0 0.001012
0.002409 -1e-06 0.00099
0.00242 -1e-06 0.000968
0.00243 -1e-06 0.000945
0.002441 -2e-06 0.000923
0.00202 -3.1e-05 0.000582
0.002361 7.8e-05 0.000675
0.002369 7.9e-05 0.000651
0.00238 7.9e-05 0.000629
0.002395 7.6e-05 0.000609
0.002414 7.1e-05 0.00059
0.002439 6.3e-05 0.000574
0.002475 5e-05 0.000562
0.002528 2.8e-05 0.000558
0.002576 6e-06 0.000553
0.002604 -1e-06 0.000538
0.002623 -5e-06 0.000518
0.002631 -4e-06 0.000495
0.002014 3.7e-05 0.001567
0.001994 4.9e-05 0.001536
0.001988 5.8e-05 0.001506
0.001988 6.2e-05 0.00148
0.001994 6.5e-05 0.001455
0.002002 6.5e-05 0.001432
0.002015 6.3e-05 0.001411
0.00203 6e-05 0.00139
0.00146 0.000718 0.002476
0.002203 0.000491 0.002054
0.001498 0.000689 0.001963
0.002169 0.000595 0.001834
0.002223 0.000525 0.002007
0.002231 -2e-06 0.001262
0.002242 -2e-06 0.00124
0.002252 -2e-06 0.001217
0.002274 -3e-06 0.001173
0.002283 -4e-06 0.00115
0.002294 -4e-06 0.001128
0.002011 -3.1e-05 0.000605
0.002314 -4e-06 0.001083
0.002323 -4e-06 0.00106
0.002333 -4e-06 0.001038
0.002343 -4e-06 0.001015
0.002352 -4e-06 0.000992
0.002362 -4e-06 0.00097
0.002372 -4e-06 0.000947
0.002381 -4e-06 0.000924
0.002003 -3.2e-05 0.000628
0.001994 -3.3e-05 0.000651
0.002361 5.1e-05 0.000674
0.002369 5.2e-05 0.000651
0.002379 5.2e-05 0.000629
0.002394 4.9e-05 0.000608
0.002413 4.4e-05 0.000589
0.002438 3.6e-05 0.000574
0.002525 1e-06 0.000557
0.002546 -4e-06 0.000539
0.001985 -3.3e-05 0.000674
0.002011 9e-06 0.00157
0.001995 2.2e-05 0.001536
0.001987 3.1e-05 0.001506
0.001988 3.5e-05 0.001479
0.002545 0.000705 0.00138
0.002002 3.8e-05 0.001432
0.002014 3.6e-05 0.00141
0.002029 3.4e-05 0.00139
0.002048 2.9e-05 0.001371
0.002026 0.000723 0.001397
0.00206 0.000721 0.001363
0.000655 0.000749 0.00255
0.001419 0.000713 0.002023
0.002151 0.000589 0.001788
0.002196 -6e-06 0.00122
0.002224 -5e-06 0.001152
0.002236 -7e-06 0.00113
0.002245 -6e-06 0.001107
0.002274 -6e-06 0.001039
0.002285 -7e-06 0.001017
0.002294 -7e-06 0.000994
0.002304 -7e-06 0.000972
0.002313 -7e-06 0.000949
0.002321 -5e-06 0.000925
0.001976 -3.3e-05 0.000697
0.002379 2.5e-05 0.000629
0.002393 2.2e-05 0.000608
0.002414 1.7e-05 0.00059
0.002443 7e-06 0.000575
0.001967 -3.4e-05 0.00072
0.00249 -6e-06 0.000542
0.002496 -5e-06 0.000518
0.002503 -4e-06 0.000494
0.002512 -4e-06 0.000471
0.00252 -3e-06 0.000448
0.002529 -2e-06 0.000425
0.002539 -2e-06 0.000402
0.00199 -3e-06 0.001534
0.001984 5e-06 0.001505
0.001986 9e-06 0.001479
0.0022 0.000558 0.001924
0.002002 1e-05 0.001432
0.002015 9e-06 0.001411
0.00203 6e-06 0.00139
0.002049 2e-06 0.001372
0.002071 -4e-06 0.001354
0.002041 0.000723 0.001378
0.002064 0.000454 0.00216
0.002098 0.00047 0.002158
0.002065 0.000481 0.002161
0.002156 -3e-06 0.00115
0.002168 -4e-06 0.001128
0.002177 -4e-06 0.001105
0.002186 -4e-06 0.001082
0.002182 0.000721 0.002036
0.002169 0.00072 0.002057
0.002212 -2e-06 0.001012
0.002223 -3e-06 0.00099
0.002391 -4e-06 0.000607
0.002405 -6e-06 0.000586
0.002459 -9e-06 0.000475
0.002467 -8e-06 0.000452
0.002475 -7e-06 0.000428
0.002484 -6e-06 0.000405
0.002496 -6e-06 0.000384
0.001958 -3.4e-05 0.000743
0.001949 -3.4e-05 0.000766
0.001971 -1e-06 0.001419
0.001982 -1e-06 0.001396
0.001994 -3e-06 0.001375
0.001939 -3.4e-05 0.000789
0.002056 -5e-06 0.001241
0.002066 -5e-06 0.001218
0.00125 0.000539 0.00271
0.002135 0.000521 0.002125
0.002223 0.000471 0.002007
0.002509 0.000635 0.001381
0.002392 0.000677 0.00138
0.002127 -6e-06 0.001083
0.002207 0.000751 0.001356
0.002201 0.000585 0.001924
0.002151 0.000721 0.002075
0.002167 -6e-06 0.000993
0.002176 -6e-06 0.00097
0.002186 -6e-06 0.000948
0.002194 -5e-06 0.000925
0.00193 -3.5e-05 0.000812
0.002308 -4e-06 0.000652
0.002316 -3e-06 0.000629
0.002327 -3e-06 0.000606
0.002345 -3e-06 0.00056
0.002355 -3e-06 0.000538
0.002428 -5e-06 0.000381
0.002436 -4e-06 0.000358
0.00192 -3.4e-05 0.000834
0.00217 0.000547 0.00209
0.002153 0.000547 0.002108
0.002204 0.000518 0.002054
0.002134 0.000636 0.001741
0.001929 -6e-06 0.001401
0.00194 -6e-06 0.001378
0.001952 -9e-06 0.001357
0.001962 -9e-06 0.001334
0.001972 -7e-06 0.001312
0.001983 -8e-06 0.00129
0.001993 -8e-06 0.001267
0.001911 -3.5e-05 0.000857
0.002022 -9e-06 0.001199
0.002029 -8e-06 0.001176
0.002151 0.000562 0.001787
0.002218 0.000464 0.002034
0.002213 0.000486 0.001966
0.001448 0.000551 0.002284
0.002509 0.000581 0.001381
0.002618 0.000544 0.001377
0.002116 -8e-06 0.000971
0.002125 -7e-06 0.000948
0.002137 -8e-06 0.000927
0.002149 -9e-06 0.000905
0.002192 -7e-06 0.00079
0.002203 -7e-06 0.000768
0.002213 -7e-06 0.000745
0.002277 -1e-05 0.000612
0.002286 -1e-05 0.000589
0.002293 -9e-06 0.000565
0.002302 -8e-06 0.000542
0.002312 -8e-06 0.000519
0.002343 -4e-06 0.000426
0.002353 -4e-06 0.000403
0.001901 -3.5e-05 0.000879
0.001891 -3.4e-05 0.000902
0.002135 0.000548 0.002126
0.002187 0.000519 0.002072
0.002151 0.000616 0.001788
0.001905 -7e-06 0.00131
0.001914 -7e-06 0.001287
0.001925 -7e-06 0.001265
0.001934 -7e-06 0.001242
0.001974 -7e-06 0.001152
0.00188 -3.4e-05 0.000924
0.001269 0.000647 0.002717
0.002582 0.00061 0.001379
0.002299 0.000715 0.001367
0.002249 0.000735 0.001358
0.002056 -5e-06 0.000946
0.002065 -4e-06 0.000923
0.002074 -4e-06 0.0009
0.002086 -5e-06 0.000878
0.002097 -5e-06 0.000856
0.002136 -6e-06 0.000766
0.002147 -6e-06 0.000744
0.002155 -6e-06 0.00072
0.00187 -3.4e-05 0.000947
0.00186 -3.4e-05 0.000969
0.002213 -5e-06 0.000584
0.002226 -7e-06 0.000563
0.002234 -6e-06 0.00054
0.002245 -7e-06 0.000518
0.002287 -8e-06 0.000429
0.002296 -8e-06 0.000405
0.002307 -9e-06 0.000384
0.001849 -3.3e-05 0.000991
0.002617 0.000517 0.001377
0.002581 0.000529 0.001376
0.001432 0.00044 0.002653
0.001836 -4e-06 0.001307
0.001844 -3e-06 0.001284
0.001856 -5e-06 0.001262
0.001865 -4e-06 0.001239
0.001875 -4e-06 0.001217
0.001884 -4e-06 0.001194
0.00217 0.000704 0.001835
0.001257 0.000711 0.002704
0.002118 0.000495 0.002143
0.002219 0.000663 0.002003
0.001943 -4e-06 0.001058
0.002434 0.000581 0.001382
0.001408 0.000632 0.002663
0.002135 0.000576 0.002125
0.002214 0.000676 0.001967
0.001992 -4e-06 0.000945
0.002002 -4e-06 0.000923
0.002012 -5e-06 0.0009
0.002024 -5e-06 0.000878
0.002033 -5e-06 0.000855
0.002042 -5e-06 0.000833
0.002051 -4e-06 0.00081
0.002071 -5e-06 0.000765
0.002081 -5e-06 0.000742
0.00209 -4e-06 0.000719
0.001839 -3.3e-05 0.001014
0.002137 -3e-06 0.000605
0.002144 -3e-06 0.000582
0.002154 -3e-06 0.000559
0.002165 -3e-06 0.000537
0.002174 -3e-06 0.000514
0.002186 -4e-06 0.000493
0.002226 -5e-06 0.000402
0.002238 -6e-06 0.000381
0.002248 -5e-06 0.000358
0.002269 -6e-06 0.000314
0.002281 -7e-06 0.000292
0.002186 0.000549 0.00188
0.001458 0.000441 0.002561
0.002546 0.000541 0.001379
0.001482 0.00072 0.00197
0.002152 0.000493 0.002108
0.002083 0.000717 0.00135
0.000607 0.000571 0.002722
0.001786 -6e-06 0.001286
0.001797 -7e-06 0.001264
0.001808 -7e-06 0.001241
0.001818 -7e-06 0.001219
0.001829 -8e-06 0.001197
0.00184 -8e-06 0.001175
0.002186 0.000685 0.00188
0.002617 0.000599 0.001378
0.002098 0.000443 0.002158
0.002098 0.000497 0.002158
0.002212 0.000658 0.00203
0.001903 -1.1e-05 0.001041
0.001912 -1.1e-05 0.001018
0.001923 -1.1e-05 0.000996
0.001933 -1.2e-05 0.000974
0.001943 -1.2e-05 0.000951
0.001953 -1.2e-05 0.000929
0.001963 -1.2e-05 0.000906
0.001974 -1.2e-05 0.000884
0.001983 -1.2e-05 0.000861
0.001993 -1.2e-05 0.000838
0.002002 -1.2e-05 0.000816
0.002011 -1.1e-05 0.000793
0.002021 -1.2e-05 0.00077
0.00203 -1.2e-05 0.000747
0.002095 -1e-05 0.000587
0.002104 -9e-06 0.000564
0.002113 -9e-06 0.000541
0.002121 -8e-06 0.000518
0.00213 -8e-06 0.000495
0.002139 -7e-06 0.000472
0.002173 -5e-06 0.00038
0.002183 -5e-06 0.000357
0.002192 -4e-06 0.000334
0.002199 -3e-06 0.00031
0.002211 -4e-06 0.000289
0.0022 0.000531 0.001924
0.001459 0.000512 0.002519
0.001449 0.000442 0.002635
0.002195 0.000731 0.001345
0.002135 0.000494 0.002125
0.002214 0.000649 0.001967
0.002186 0.000628 0.002072
0.00146 0.000701 0.00252
0.001759 -1.4e-05 0.001248
0.00177 -1.5e-05 0.001225
0.00178 -1.5e-05 0.001203
0.001792 -1.6e-05 0.001181
0.001803 -1.7e-05 0.001159
0.002199 0.000721 0.001923
0.002211 0.000705 0.001965
0.001836 -1.9e-05 0.001093
0.001847 -1.9e-05 0.001071
0.001858 -2e-05 0.001049
0.001868 -2e-05 0.001026
0.001879 -2.1e-05 0.001004
0.001889 -2.1e-05 0.000982
0.001899 -2.1e-05 0.000959
0.00191 -2.2e-05 0.000937
0.00192 -2.2e-05 0.000915
0.00193 -2.2e-05 0.000892
0.00194 -2.2e-05 0.000869
0.00195 -2.2e-05 0.000847
0.001959 -2.2e-05 0.000824
0.001969 -2.2e-05 0.000801
0.001978 -2.2e-05 0.000779
0.001988 -2.2e-05 0.000756
0.001997 -2.2e-05 0.000733
0.002006 -2.1e-05 0.00071
0.002015 -2.1e-05 0.000687
0.002024 -2.1e-05 0.000664
0.002033 -2e-05 0.000641
0.002042 -2e-05 0.000618
0.00205 -1.9e-05 0.000595
0.002059 -1.9e-05 0.000572
0.002067 -1.8e-05 0.000549
0.002075 -1.7e-05 0.000525
0.002084 -1.7e-05 0.000502
0.002092 -1.6e-05 0.000479
0.0021 -1.5e-05 0.000455
0.002133 -1.1e-05 0.000362
0.002141 -1e-05 0.000339
0.002148 -9e-06 0.000315
0.002157 -9e-06 0.000292
0.002166 -9e-06 0.000269
0.002132 0.000582 0.00174
0.002546 0.000568 0.001379
0.002433 0.000635 0.001382
0.002145 0.000752 0.001336
0.002109 0.000737 0.001338
0.002118 0.000468 0.002143
0.002618 0.000571 0.001378
0.002064 0.000782 0.001333
0.002082 0.000744 0.00135
0.00217 0.000492 0.00209
0.002136 0.000467 0.002126
0.002393 0.000596 0.00138
0.002582 0.000638 0.00138
0.00141 0.000386 0.002665
0.002213 0.000694 0.001998
0.001807 -3.1e-05 0.00108
0.001818 -3.2e-05 0.001058
0.001828 -3.2e-05 0.001036
0.002153 0.000439 0.002108
0.00217 0.000438 0.00209
0.002187 0.000437 0.002072
0.002204 0.000436 0.002054
0.002218 0.000437 0.002034
0.002224 0.000443 0.002007
0.002214 0.000459 0.001967
0.0022 0.000476 0.001924
0.002185 0.000495 0.001879
0.002169 0.000514 0.001834
0.002152 0.000534 0.001788
0.002132 0.000556 0.00174
0.00211 0.000578 0.00169
0.002026 0.000696 0.001397
0.002042 0.000696 0.001379
0.00206 0.000694 0.001363
0.002083 0.00069 0.00135
0.002109 0.000683 0.001338
0.002145 0.000671 0.001336
0.002193 0.000651 0.001344
0.002347 0.000586 0.001375
0.002392 0.000569 0.00138
0.002433 0.000554 0.001381
0.002472 0.00054 0.001382
0.00251 0.000526 0.001381
0.002547 0.000514 0.001379
0.002582 0.000502 0.001376
0.002617 0.00049 0.001377
0.00201 0.000565 0.002148
0.002044 0.000662 0.002156
0.001459 0.000697 0.001984
0.002109 0.000714 0.002116
0.001429 0.000632 0.002649
0.000384 0.000592 0.002991
0.001972 0.000498 0.002137
0.00127 0.000619 0.002719
0.002074 0.000683 0.002152
0.002065 0.000427 0.00216
0.002098 0.000416 0.002158
0.002118 0.000414 0.002143
0.002135 0.000412 0.002126
0.002153 0.000412 0.002108
0.00217 0.000411 0.00209
0.002187 0.00041 0.002072
0.002204 0.000409 0.002054
0.002218 0.00041 0.002034
0.002223 0.000416 0.002006
0.002213 0.000432 0.001966
0.0022 0.000449 0.001923
0.002186 0.000468 0.00188
0.002168 0.000487 0.001834
0.002151 0.000507 0.001787
0.002132 0.000528 0.00174
0.002108 0.000552 0.001688
0.002011 0.000668 0.001417
0.002025 0.000669 0.001397
0.002041 0.000669 0.001378
0.00206 0.000667 0.001362
0.002083 0.000662 0.001349
0.002109 0.000655 0.001338
0.002147 0.000642 0.001337
0.002195 0.000623 0.001345
0.002249 0.0006 0.001357
0.002299 0.000579 0.001367
0.002347 0.00056 0.001374
0.002392 0.000541 0.00138
0.002433 0.000526 0.001382
0.002472 0.000512 0.001382
0.00251 0.000499 0.001381
0.002546 0.000487 0.00138
0.002582 0.000475 0.001378
0.002617 0.000463 0.001378
0.001859 0.000515 0.002098
0.001973 0.000634 0.002136
0.001935 0.00073 0.002124
0.002129 0.000715 0.002101
0.000556 0.000643 0.002882
0.001859 0.000542 0.002099
0.00141 0.000441 0.002665
0.001678 0.000705 0.002009
0.001297 0.000613 0.002718
0.001459 0.000736 0.002431
0.002099 0.000388 0.002157
0.002118 0.000386 0.002143
0.002136 0.000385 0.002126
0.002153 0.000384 0.002108
0.00217 0.000383 0.00209
0.002187 0.000383 0.002072
0.002204 0.000382 0.002054
0.002218 0.000383 0.002034
0.002223 0.000389 0.002006
0.002213 0.000405 0.001966
0.0022 0.000422 0.001923
0.002185 0.00044 0.001879
0.002169 0.00046 0.001834
0.002151 0.00048 0.001787
0.002132 0.000501 0.00174
0.002108 0.000525 0.001688
0.002011 0.00064 0.001417
0.002025 0.000642 0.001397
0.002041 0.000641 0.001378
0.002059 0.00064 0.001361
0.002082 0.000636 0.001348
0.002109 0.000629 0.001338
0.002146 0.000616 0.001337
0.002194 0.000596 0.001345
0.002248 0.000573 0.001357
0.002299 0.000552 0.001367
0.002346 0.000533 0.001374
0.002393 0.000514 0.001381
0.002433 0.000499 0.001381
0.002472 0.000485 0.001382
0.00251 0.000472 0.001381
0.002546 0.00046 0.00138
0.002583 0.000447 0.001379
0.001475 0.000664 0.001973
0.002079 0.000597 0.00216
0.001459 0.000709 0.00243
0.002097 0.00068 0.002142
0.001457 0.0007 0.002384
0.001456 0.000507 0.002602
0.001453 0.000584 0.002335
0.000851 0.000562 0.002356
0.001459 0.000692 0.002475
0.000636 0.000722 0.002493
0.002118 0.000359 0.002143
0.002135 0.000358 0.002125
0.002153 0.000357 0.002108
0.00217 0.000356 0.00209
0.002187 0.000356 0.002072
0.002204 0.000355 0.002054
0.002219 0.000355 0.002034
0.002223 0.000362 0.002006
0.002212 0.000378 0.001965
0.0022 0.000395 0.001923
0.002185 0.000414 0.001879
0.002168 0.000433 0.001833
0.002151 0.000453 0.001787
0.002131 0.000474 0.001739
0.002109 0.000497 0.001689
0.002011 0.000613 0.001417
0.002025 0.000614 0.001397
0.002041 0.000614 0.001378
0.002059 0.000612 0.001361
0.002081 0.000609 0.001347
0.002109 0.000601 0.001338
0.002145 0.000589 0.001336
0.002195 0.000568 0.001345
0.002248 0.000546 0.001357
0.002298 0.000525 0.001366
0.002347 0.000505 0.001374
0.002392 0.000487 0.00138
0.002433 0.000472 0.001381
0.002472 0.000458 0.001382
0.00251 0.000445 0.001381
0.002545 0.000433 0.00138
0.001898 0.000608 0.002112
0.001431 0.000549 0.002652
0.00101 0.0006 0.002527
0.001458 0.000726 0.002386
0.001819 0.000721 0.002084
0.000555 0.000562 0.002882
0.001582 0.000724 0.001955
0.001388 0.000496 0.002677
0.001859 0.000623 0.002099
0.001449 0.000714 0.002284
0.000526 0.000562 0.002952
0.002118 0.000332 0.002143
0.002136 0.000331 0.002125
0.002152 0.00033 0.002107
0.00217 0.000329 0.00209
0.002187 0.000329 0.002072
0.002203 0.000328 0.002054
0.002218 0.000328 0.002034
0.002223 0.000335 0.002006
0.002212 0.000351 0.001965
0.002199 0.000368 0.001923
0.002184 0.000387 0.001879
0.002168 0.000406 0.001833
0.002151 0.000426 0.001787
0.002131 0.000447 0.001739
0.002011 0.000586 0.001417
0.002025 0.000587 0.001397
0.002041 0.000587 0.001378
0.002113 0.000572 0.001342
0.002145 0.000562 0.001336
0.002194 0.000542 0.001344
0.002248 0.000519 0.001357
0.002299 0.000498 0.001366
0.002348 0.000478 0.001375
0.002393 0.00046 0.00138
0.002433 0.000445 0.001381
0.002472 0.000431 0.001382
0.00251 0.000417 0.001381
0.002546 0.000405 0.001379
0.002582 0.000393 0.001379
0.001459 0.000502 0.002474
0.001366 0.000525 0.002688
0.000769 0.000607 0.002342
0.002139 0.000652 0.002117
0.001458 0.000655 0.002429
0.001935 0.000594 0.002124
0.001431 0.000494 0.002653
0.00141 0.000495 0.002665
0.001453 0.00053 0.002335
0.001448 0.000579 0.002634
0.000526 0.000535 0.002952
0.002118 0.000305 0.002143
0.002135 0.000304 0.002125
0.002153 0.000303 0.002108
0.00217 0.000302 0.00209
0.002187 0.000301 0.002072
0.002204 0.000301 0.002054
0.002218 0.000301 0.002034
0.002222 0.000308 0.002005
0.002212 0.000324 0.001965
0.002199 0.000341 0.001923
0.002184 0.00036 0.001878
0.002169 0.000379 0.001834
0.002151 0.000399 0.001787
0.002131 0.00042 0.001739
0.002108 0.000443 0.001688
0.002026 0.00056 0.001397
0.00211 0.000547 0.001339
0.002145 0.000535 0.001336
0.002194 0.000515 0.001344
0.002248 0.000491 0.001357
0.002299 0.00047 0.001367
0.002348 0.00045 0.001375
0.002393 0.000433 0.00138
0.002433 0.000418 0.001381
0.002473 0.000403 0.001382
0.00251 0.00039 0.001381
0.002546 0.000378 0.001379
0.002582 0.000366 0.001379
0.001449 0.000605 0.002285
0.00093 0.000758 0.00244
0.001456 0.000616 0.002602
0.002121 0.000651 0.002133
0.001898 0.000662 0.002112
0.001456 0.000592 0.002383
0.001456 0.000538 0.002383
0.001458 0.000519 0.002429
0.001399 0.000669 0.002081
0.001774 0.000714 0.002062
0.001426 0.000661 0.002646
0.002118 0.000278 0.002143
0.002135 0.000277 0.002125
0.002153 0.000276 0.002108
0.00217 0.000275 0.00209
0.002187 0.000274 0.002072
0.002203 0.000274 0.002054
0.002218 0.000274 0.002034
0.002223 0.000281 0.002006
0.002212 0.000297 0.001965
0.002199 0.000314 0.001923
0.002184 0.000333 0.001878
0.002168 0.000352 0.001833
0.00215 0.000372 0.001786
0.002132 0.000393 0.00174
0.002107 0.000417 0.001687
0.00206 0.000455 0.001617
0.002082 0.000527 0.00135
0.002109 0.00052 0.001338
0.002144 0.000508 0.001335
0.002195 0.000487 0.001345
0.002247 0.000465 0.001356
0.002299 0.000443 0.001367
0.002348 0.000423 0.001375
0.002393 0.000405 0.00138
0.002433 0.000391 0.001381
0.002473 0.000376 0.001382
0.00251 0.000363 0.001381
0.002546 0.000351 0.001379
0.002582 0.000339 0.001379
0.001459 0.000447 0.002474
0.000851 0.000698 0.002356
0.001458 0.000682 0.00243
0.001458 0.000631 0.002561
0.001366 0.000552 0.002687
0.001549 0.00068 0.001951
0.001436 0.00069 0.002003
0.001366 0.000443 0.002688
0.001453 0.000557 0.002335
0.001456 0.000589 0.002602
0.000433 0.000533 0.002985
0.002118 0.00025 0.002143
0.002136 0.000249 0.002126
0.002153 0.000248 0.002108
0.00217 0.000248 0.00209
0.002187 0.000247 0.002072
0.002204 0.000246 0.002054
0.002218 0.000247 0.002034
0.002222 0.000254 0.002005
0.002212 0.00027 0.001965
0.002199 0.000287 0.001923
0.002183 0.000306 0.001878
0.002168 0.000325 0.001833
0.00215 0.000345 0.001786
0.002132 0.000365 0.00174
0.002105 0.000391 0.001685
0.00206 0.000427 0.001617
0.002002 0.00047 0.001541
0.002081 0.0005 0.001348
0.002109 0.000492 0.001338
0.002144 0.000481 0.001335
0.002195 0.00046 0.001345
0.002247 0.000438 0.001356
0.002299 0.000416 0.001367
0.002348 0.000396 0.001375
0.002392 0.000378 0.00138
0.002433 0.000363 0.001382
0.002472 0.000349 0.001382
0.00251 0.000336 0.001381
0.002546 0.000324 0.00138
0.00141 0.000468 0.002665
0.000582 0.000484 0.002804
0.001366 0.00058 0.002687
0.001388 0.000578 0.002676
0.001388 0.000551 0.002676
0.001774 0.000632 0.002063
0.00155 0.000707 0.001951
0.001819 0.00064 0.002084
0.001296 0.000641 0.002715
0.002098 0.000226 0.002157
0.002118 0.000223 0.002143
0.002136 0.000222 0.002126
0.002153 0.000221 0.002108
0.00217 0.00022 0.00209
0.002187 0.00022 0.002072
0.002204 0.000219 0.002054
0.002218 0.00022 0.002033
0.002222 0.000227 0.002005
0.002212 0.000243 0.001965
0.002199 0.00026 0.001922
0.002184 0.000279 0.001878
0.002168 0.000297 0.001833
0.00215 0.000318 0.001786
0.002132 0.000338 0.00174
0.002058 0.000402 0.001615
0.002002 0.000443 0.001541
0.002025 0.000479 0.001396
0.002041 0.000479 0.001378
0.00206 0.000477 0.001362
0.002081 0.000473 0.001348
0.002109 0.000465 0.001338
0.002144 0.000454 0.001335
0.002195 0.000433 0.001345
0.002248 0.00041 0.001357
0.0023 0.000388 0.001367
0.002348 0.000369 0.001375
0.002393 0.000351 0.00138
0.002434 0.000336 0.001382
0.002472 0.000322 0.001381
0.00251 0.000309 0.001381
0.002546 0.000296 0.00138
0.002583 0.000284 0.00138
0.001344 0.000418 0.002699
0.001218 0.000553 0.002689
0.00141 0.000577 0.002665
0.001431 0.000576 0.002652
0.001936 0.000621 0.002124
0.000555 0.000616 0.002882
0.001819 0.000531 0.002084
0.001522 0.000713 0.001955
