0.001139 0.00021 -0.002245
0.001135 0.000195 -0.002285
0.001142 0.000171 -0.002343
0.001151 0.000126 -0.002451
0.001152 0.000107 -0.002499
0.001149 9e-05 -0.002542
0.001145 7.6e-05 -0.002582
0.00114 6.1e-05 -0.002621
0.001135 4.8e-05 -0.002658
0.001125 3.7e-05 -0.00269
0.00111 3.2e-05 -0.002713
0.001091 3e-05 -0.002729
0.001295 -2.9e-05 -0.001653
0.002369 0.000575 -0.001687
0.002368 0.00063 -0.001687
0.001948 0.000622 -0.00227
0.002369 0.000657 -0.001687
0.002595 0.000718 -0.000964
0.001863 6e-06 -0.002244
0.001842 5e-06 -0.002258
0.001823 4e-06 -0.002273
0.001802 4e-06 -0.002286
0.001781 4e-06 -0.002299
0.001759 5e-06 -0.002311
0.001738 5e-06 -0.002323
0.001716 6e-06 -0.002334
0.001691 9e-06 -0.002342
0.001663 1.6e-05 -0.002342
0.001628 2.8e-05 -0.002333
0.00159 4.4e-05 -0.002317
0.001549 6.1e-05 -0.002299
0.001507 8e-05 -0.002277
0.001457 0.000105 -0.002244
0.001396 0.000141 -0.002191
0.001341 0.000171 -0.002149
0.001304 0.000185 -0.002137
0.001275 0.000193 -0.002137
0.001249 0.000197 -0.002141
0.001226 0.000199 -0.002151
0.001204 0.0002 -0.002163
0.001184 0.000199 -0.002177
0.001166 0.000197 -0.002194
0.00115 0.000192 -0.002215
0.001139 0.000183 -0.002245
0.001136 0.000168 -0.002286
0.001142 0.000144 -0.002342
0.001148 0.00012 -0.002399
0.00115 0.0001 -0.002449
0.001151 8e-05 -0.002499
0.001149 6.3e-05 -0.002542
0.001145 4.9e-05 -0.002581
0.001139 3.5e-05 -0.002619
0.001131 2.4e-05 -0.002652
0.001117 1.7e-05 -0.002677
0.0011 1.4e-05 -0.002696
0.00108 1.3e-05 -0.002712
0.001059 1.3e-05 -0.002725
0.001038 1.3e-05 -0.002737
0.001315 -2.8e-05 -0.001639
0.001934 0.000566 -0.00229
0.002522 0.000595 -0.001626
0.001919 0.000647 -0.002045
0.001872 0.000707 -0.001903
0.002103 0.000707 -0.001647
0.00184 -1e-06 -0.002207
0.00182 -2e-06 -0.002221
0.001799 -2e-06 -0.002235
0.001779 -3e-06 -0.002249
0.001758 -3e-06 -0.002262
0.001737 -3e-06 -0.002275
0.001716 -2e-06 -0.002287
0.001694 -2e-06 -0.002299
0.001672 -1e-06 -0.00231
0.001649 1e-06 -0.00232
0.001621 7e-06 -0.002321
0.001587 1.9e-05 -0.002313
0.001548 3.5e-05 -0.002297
0.001507 5.3e-05 -0.002277
0.001339 0.000145 -0.002147
0.001304 0.000158 -0.002137
0.001275 0.000165 -0.002136
0.001249 0.00017 -0.002141
0.001226 0.000172 -0.002151
0.001204 0.000173 -0.002163
0.001184 0.000172 -0.002177
0.001166 0.000169 -0.002194
0.00115 0.000165 -0.002216
0.001139 0.000156 -0.002245
0.001135 0.000141 -0.002285
0.001141 0.000117 -0.002342
0.001147 9.3e-05 -0.002399
0.00115 7.2e-05 -0.00245
0.001151 5.2e-05 -0.002499
0.001148 3.7e-05 -0.002541
0.001143 2.3e-05 -0.002578
0.001134 1.2e-05 -0.00261
0.00112 6e-06 -0.002636
0.001103 3e-06 -0.002655
0.001083 2e-06 -0.002669
0.001062 2e-06 -0.002683
0.001041 2e-06 -0.002695
0.00102 2e-06 -0.002707
0.000998 3e-06 -0.00272
0.001336 -2.8e-05 -0.001626
0.002369 0.000521 -0.001687
0.001911 2e-06 -0.002089
0.002549 0.000626 -0.001584
0.001951 0.000511 -0.002272
0.001934 0.000511 -0.00229
0.001809 -2e-06 -0.002158
0.001788 -1e-06 -0.00217
0.001767 -1e-06 -0.002182
0.001746 -1e-06 -0.002196
0.001726 -2e-06 -0.00221
0.001705 -2e-06 -0.002223
0.001684 -2e-06 -0.002236
0.001663 -2e-06 -0.002248
0.001642 -1e-06 -0.002261
0.001622 -2e-06 -0.002276
0.0016 -2e-06 -0.002288
0.001576 1e-06 -0.002295
0.001543 1.2e-05 -0.002289
0.001507 2.6e-05 -0.002277
0.001339 0.000118 -0.002147
0.001304 0.000131 -0.002137
0.001275 0.000139 -0.002136
0.001249 0.000143 -0.002141
0.001226 0.000145 -0.002151
0.001204 0.000145 -0.002163
0.001184 0.000145 -0.002177
0.001166 0.000142 -0.002195
0.00115 0.000137 -0.002216
0.001139 0.000129 -0.002244
0.001135 0.000114 -0.002285
0.001142 9e-05 -0.002342
0.001148 6.5e-05 -0.0024
0.00115 4.5e-05 -0.00245
0.00115 2.7e-05 -0.002496
0.001145 1.3e-05 -0.002535
0.001134 4e-06 -0.002564
0.001116 1e-06 -0.002583
0.001097 -1e-06 -0.002598
0.001078 -2e-06 -0.002614
0.001055 -0.0 -0.002624
0.001035 -1e-06 -0.002638
0.001014 -2e-06 -0.002652
0.000994 -2e-06 -0.002666
0.001945 0.0006 -0.002167
0.002327 0.000537 -0.001683
0.001903 1e-06 -0.002029
0.001884 -2e-06 -0.002045
0.002536 0.000624 -0.001605
0.001844 -4e-06 -0.002074
0.001824 -4e-06 -0.002087
0.001803 -4e-06 -0.0021
0.00176 -3e-06 -0.002124
0.001739 -3e-06 -0.002138
0.001718 -3e-06 -0.00215
0.001697 -3e-06 -0.002164
0.001676 -4e-06 -0.002177
0.001656 -4e-06 -0.00219
0.001635 -4e-06 -0.002203
0.001614 -4e-06 -0.002216
0.001593 -4e-06 -0.002229
0.001572 -4e-06 -0.002243
0.001551 -4e-06 -0.002255
0.001528 -2e-06 -0.002265
0.001499 6e-06 -0.002264
0.001338 9.3e-05 -0.002144
0.001304 0.000104 -0.002136
0.001275 0.000111 -0.002136
0.001249 0.000116 -0.002141
0.001226 0.000118 -0.00215
0.001204 0.000118 -0.002163
0.001184 0.000118 -0.002177
0.001166 0.000115 -0.002194
0.00115 0.00011 -0.002216
0.001139 0.000102 -0.002245
0.001135 8.7e-05 -0.002285
0.001141 6.3e-05 -0.002342
0.001148 3.8e-05 -0.002399
0.00115 1.7e-05 -0.00245
0.001144 5e-06 -0.002486
0.00113 -2e-06 -0.002512
0.001112 -4e-06 -0.002529
0.001091 -4e-06 -0.002542
0.00107 -4e-06 -0.002554
0.001048 -3e-06 -0.002565
0.001026 -2e-06 -0.002577
0.001004 -2e-06 -0.002589
0.000984 -2e-06 -0.002603
0.002368 0.000603 -0.001687
0.002155 0.000603 -0.001661
0.001876 -4e-06 -0.001984
0.001855 -4e-06 -0.001997
0.001812 -2e-06 -0.002021
0.001791 -3e-06 -0.002034
0.001769 -2e-06 -0.002046
0.001748 -2e-06 -0.002059
0.001728 -2e-06 -0.002073
0.001707 -2e-06 -0.002086
0.001686 -2e-06 -0.002099
0.001896 0.000542 -0.002322
0.001623 -2e-06 -0.002138
0.001602 -2e-06 -0.002151
0.001583 -3e-06 -0.002166
0.001562 -3e-06 -0.002178
0.00154 -3e-06 -0.002191
0.00152 -4e-06 -0.002205
0.001499 -3e-06 -0.002218
0.001478 -3e-06 -0.00223
0.001451 2e-06 -0.002233
0.001339 6.5e-05 -0.002146
0.001304 7.7e-05 -0.002137
0.001274 8.4e-05 -0.002136
0.001249 8.9e-05 -0.002141
0.001225 9.1e-05 -0.00215
0.001204 9.1e-05 -0.002162
0.001184 9.1e-05 -0.002177
0.001166 8.8e-05 -0.002194
0.00115 8.3e-05 -0.002216
0.001139 7.5e-05 -0.002244
0.001134 6e-05 -0.002283
0.001142 3.5e-05 -0.002342
0.001121 -2e-06 -0.00245
0.001101 -3e-06 -0.002464
0.001079 -2e-06 -0.002475
0.001058 -2e-06 -0.002488
0.001038 -3e-06 -0.002502
0.001017 -3e-06 -0.002516
0.000995 -2e-06 -0.002528
0.000975 -3e-06 -0.002542
0.002101 0.000681 -0.001645
0.001876 7e-06 -0.00189
0.001866 -4e-06 -0.001924
0.001846 -5e-06 -0.001937
0.001825 -4e-06 -0.001949
0.001929 0.000603 -0.002087
0.002457 0.000714 -0.001667
0.001764 -5e-06 -0.00199
0.001743 -6e-06 -0.002004
0.001723 -7e-06 -0.002018
0.002568 0.000475 -0.001553
0.002494 0.000715 -0.001325
0.002578 0.000486 -0.001476
0.001871 0.000681 -0.001902
0.001848 0.000706 -0.001848
0.002409 0.000642 -0.00169
0.001913 0.00065 -0.002304
0.002156 0.000684 -0.001661
0.001472 -6e-06 -0.002174
0.001448 -4e-06 -0.002182
0.001427 -4e-06 -0.002195
0.00134 3.6e-05 -0.002148
0.001304 5e-05 -0.002136
0.001274 5.7e-05 -0.002136
0.001249 6.2e-05 -0.002141
0.001225 6.4e-05 -0.00215
0.001204 6.4e-05 -0.002162
0.001184 6.4e-05 -0.002177
0.001166 6.1e-05 -0.002194
0.00115 5.6e-05 -0.002216
0.001138 4.8e-05 -0.002244
0.001132 3.5e-05 -0.002281
0.0022 0.000612 -0.001668
0.001053 -6e-06 -0.002433
0.001031 -5e-06 -0.002445
0.00101 -5e-06 -0.002458
0.000988 -4e-06 -0.002469
0.000967 -4e-06 -0.002481
0.002031 0.000688 -0.001615
0.001857 -4e-06 -0.001859
0.001839 -7e-06 -0.001877
0.001937 0.000588 -0.002127
0.001919 0.00062 -0.002044
0.001731 -4e-06 -0.001938
0.00171 -3e-06 -0.00195
0.001689 -4e-06 -0.001963
0.001669 -4e-06 -0.001977
0.001647 -4e-06 -0.001989
0.001937 0.000615 -0.002127
0.001929 0.000631 -0.002086
0.002532 0.000718 -0.001569
0.001501 -4e-06 -0.00208
0.00148 -4e-06 -0.002094
0.002038 0.000738 -0.001621
0.001417 -4e-06 -0.002132
0.001396 -3e-06 -0.002144
0.0022 0.000667 -0.001668
0.00134 9e-06 -0.002148
0.001303 2.3e-05 -0.002136
0.001274 3e-05 -0.002135
0.001248 3.5e-05 -0.00214
0.001225 3.7e-05 -0.00215
0.001204 3.7e-05 -0.002162
0.001184 3.7e-05 -0.002176
0.001166 3.4e-05 -0.002194
0.00115 2.9e-05 -0.002215
0.001138 2.1e-05 -0.002244
0.00102 -4e-06 -0.00238
0.002535 0.00057 -0.001605
0.002447 0.000574 -0.001692
0.001829 -6e-06 -0.001814
0.001806 -5e-06 -0.001824
0.001784 -3e-06 -0.001835
0.001895 0.000515 -0.002322
0.00256 0.000664 -0.001439
0.001722 -4e-06 -0.001876
0.001701 -5e-06 -0.001889
0.00168 -5e-06 -0.001902
0.00166 -6e-06 -0.001916
0.002494 0.000565 -0.001667
0.001619 -6e-06 -0.001944
0.001599 -7e-06 -0.001959
0.002368 0.000548 -0.001687
0.001848 0.000679 -0.001848
0.002492 0.000712 -0.001632
0.001516 -8e-06 -0.002012
0.001496 -8e-06 -0.002025
0.001475 -8e-06 -0.002038
0.001454 -8e-06 -0.002052
0.001834 0.000712 -0.00167
0.001872 0.000653 -0.001903
0.001866 0.000713 -0.001632
0.001327 -6e-06 -0.002126
0.001301 -2e-06 -0.002132
0.001274 4e-06 -0.002134
0.001248 8e-06 -0.002139
0.001224 1e-05 -0.002148
0.001203 1e-05 -0.002161
0.001183 9e-06 -0.002176
0.001166 6e-06 -0.002195
0.001152 0.0 -0.002219
0.001138 -6e-06 -0.002242
0.001945 0.000546 -0.002167
0.002535 0.000488 -0.001605
0.001894 0.000629 -0.001956
0.001909 0.00061 -0.002002
0.001801 -8e-06 -0.001771
0.00178 -9e-06 -0.001783
0.00176 -1e-05 -0.001797
0.002536 0.000515 -0.001605
0.001695 -8e-06 -0.001833
0.001674 -7e-06 -0.001845
0.001654 -8e-06 -0.001859
0.001632 -7e-06 -0.001871
0.00057 -8e-06 -0.00212
0.001814 0.000731 -0.001718
0.002475 0.000713 -0.00165
0.001484 -6e-06 -0.001959
0.001463 -6e-06 -0.001972
0.001441 -6e-06 -0.001984
0.001421 -6e-06 -0.001998
0.0014 -6e-06 -0.002011
0.001378 -4e-06 -0.002021
0.001357 -5e-06 -0.002034
0.001336 -5e-06 -0.002049
0.001315 -5e-06 -0.002061
0.001274 -5e-06 -0.002087
0.001253 -6e-06 -0.002102
0.001233 -6e-06 -0.002115
0.001211 -5e-06 -0.002127
0.00119 -5e-06 -0.002139
0.00117 -6e-06 -0.002154
0.001148 -5e-06 -0.002165
0.001129 -7e-06 -0.002182
0.000964 -9e-06 -0.002289
0.000943 -8e-06 -0.002302
0.00092 -7e-06 -0.002313
0.000591 -8e-06 -0.002107
0.000816 -8e-06 -0.002378
0.000794 -7e-06 -0.00239
0.000612 -9e-06 -0.002095
0.001767 -6e-06 -0.001715
0.001746 -6e-06 -0.001727
0.001726 -7e-06 -0.001742
0.002508 0.000566 -0.001647
0.002522 0.000486 -0.001626
0.001662 -5e-06 -0.001778
0.001641 -5e-06 -0.001791
0.001619 -5e-06 -0.001803
0.001597 -4e-06 -0.001815
0.001575 -3e-06 -0.001826
0.00195 0.000566 -0.002271
0.001956 0.000573 -0.002243
0.00244 0.000699 -0.001245
0.001822 0.000736 -0.001692
0.002285 0.000688 -0.001678
0.001838 0.000721 -0.002336
0.001429 -4e-06 -0.001918
0.001408 -4e-06 -0.001931
0.001388 -4e-06 -0.001944
0.001367 -4e-06 -0.001957
0.001345 -3e-06 -0.001969
0.001325 -4e-06 -0.001983
0.001304 -4e-06 -0.001996
0.001284 -4e-06 -0.00201
0.001241 -3e-06 -0.002034
0.00122 -4e-06 -0.002048
0.0012 -4e-06 -0.002062
0.001179 -4e-06 -0.002075
0.001158 -4e-06 -0.002088
0.001137 -4e-06 -0.0021
0.001116 -4e-06 -0.002113
0.001094 -3e-06 -0.002125
0.001073 -2e-06 -0.002137
0.000948 -3e-06 -0.002216
0.000928 -4e-06 -0.002231
0.000908 -5e-06 -0.002245
0.000886 -4e-06 -0.002257
0.000633 -9e-06 -0.002083
0.000782 -5e-06 -0.002324
0.000763 -6e-06 -0.002339
0.000655 -1e-05 -0.00207
0.000677 -1e-05 -0.002059
0.001733 -3e-06 -0.001659
0.001713 -3e-06 -0.001673
0.001692 -4e-06 -0.001687
0.001671 -4e-06 -0.0017
0.001651 -4e-06 -0.001714
0.001629 -4e-06 -0.001726
0.001609 -5e-06 -0.001741
0.001589 -5e-06 -0.001754
0.001568 -5e-06 -0.001767
0.001548 -6e-06 -0.001781
0.002156 0.000657 -0.001662
0.001951 0.000586 -0.002206
0.00246 0.000739 -0.000871
0.002522 0.000541 -0.001626
0.002447 0.000628 -0.001692
0.002475 0.000621 -0.001683
0.002878 0.000632 -0.0008
0.002695 0.0007 -0.000848
0.002568 0.000584 -0.001553
0.001908 0.000707 -0.001604
0.001321 -9e-06 -0.00193
0.001929 0.000576 -0.002087
0.002447 0.000492 -0.001692
0.001951 0.000531 -0.002206
0.001237 -8e-06 -0.001981
0.001216 -9e-06 -0.001995
0.001195 -9e-06 -0.002008
0.001089 -8e-06 -0.002071
0.001068 -8e-06 -0.002084
0.001047 -7e-06 -0.002096
0.001026 -7e-06 -0.002108
0.001004 -7e-06 -0.002121
0.000983 -6e-06 -0.002133
0.000962 -6e-06 -0.002146
0.00094 -5e-06 -0.002157
0.000919 -5e-06 -0.002169
0.000898 -5e-06 -0.002183
0.000876 -4e-06 -0.002194
0.000855 -3e-06 -0.002206
0.000698 -1.1e-05 -0.002047
0.00072 -1.2e-05 -0.002036
0.001707 -7e-06 -0.001617
0.001686 -7e-06 -0.001631
0.001666 -8e-06 -0.001646
0.002408 0.000507 -0.001689
0.001937 0.000561 -0.002127
0.001606 -9e-06 -0.001689
0.001585 -1.1e-05 -0.001702
0.001565 -1.1e-05 -0.001716
0.001545 -1e-05 -0.00173
0.002478 0.000483 -0.001686
0.000742 -1.3e-05 -0.002025
0.002568 0.000557 -0.001553
0.002521 0.000715 -0.001592
0.001398 -1.1e-05 -0.00182
0.0022 0.000585 -0.001668
0.002507 0.000714 -0.001612
0.001207 -9e-06 -0.001933
0.001187 -1e-05 -0.001948
0.000763 -1.3e-05 -0.002012
0.001042 -1.1e-05 -0.002041
0.00102 -1.1e-05 -0.002053
0.001 -1.1e-05 -0.002067
0.000979 -1.1e-05 -0.002079
0.000958 -1.1e-05 -0.002092
0.000937 -1.1e-05 -0.002106
0.000917 -1.1e-05 -0.002119
0.000896 -1.1e-05 -0.002133
0.000875 -1.1e-05 -0.002145
0.000854 -1.1e-05 -0.002158
0.000832 -9e-06 -0.00217
0.00068 -6e-06 -0.002252
0.000659 -6e-06 -0.002264
0.000785 -1.4e-05 -0.002
0.001679 -1e-05 -0.001572
0.00166 -1.1e-05 -0.001588
0.001638 -1e-05 -0.0016
0.001596 -1e-05 -0.001625
0.001575 -1e-05 -0.001638
0.000807 -1.4e-05 -0.001989
0.002495 0.000483 -0.001668
0.002509 0.000485 -0.001647
0.001915 0.000513 -0.002306
0.001362 -7e-06 -0.001763
0.001341 -7e-06 -0.001775
0.00132 -7e-06 -0.001788
0.00085 -1.6e-05 -0.001965
0.000872 -1.6e-05 -0.001953
0.002409 0.000587 -0.00169
0.001174 -7e-06 -0.00188
0.001131 -7e-06 -0.001904
0.00111 -6e-06 -0.001916
0.000986 -8e-06 -0.001997
0.000965 -7e-06 -0.002009
0.000944 -7e-06 -0.002023
0.000924 -8e-06 -0.002038
0.000903 -8e-06 -0.00205
0.000882 -8e-06 -0.002064
0.000862 -9e-06 -0.002078
0.000841 -9e-06 -0.002091
0.000819 -8e-06 -0.002103
0.000799 -8e-06 -0.002116
0.00078 -1e-05 -0.002132
0.000758 -9e-06 -0.002143
0.000737 -1e-05 -0.002157
0.000677 -1.2e-05 -0.0022
0.000656 -1.2e-05 -0.002213
0.000635 -1.2e-05 -0.002226
0.00254 0.000599 -0.001402
0.001648 -9e-06 -0.001522
0.001624 -7e-06 -0.00153
0.001604 -7e-06 -0.001544
0.001811 0.000722 -0.001748
0.002478 0.000511 -0.001686
0.00154 -7e-06 -0.001582
0.00152 -7e-06 -0.001595
0.001886 0.000737 -0.001617
0.001885 0.000711 -0.001616
0.001956 0.000518 -0.002244
0.00185 0.000739 -0.001651
0.001975 0.000739 -0.001598
0.002409 0.000561 -0.00169
0.001909 0.000664 -0.002002
0.001855 0.000656 -0.002351
0.001314 -1e-05 -0.001731
0.001293 -1e-05 -0.001744
0.001272 -1e-05 -0.001757
0.002285 0.000607 -0.001678
0.001849 0.000733 -0.001848
0.001209 -1e-05 -0.001796
0.001188 -1e-05 -0.001809
0.002543 0.000722 -0.001546
0.001147 -1.1e-05 -0.001836
0.001126 -1.1e-05 -0.001849
0.001106 -1.1e-05 -0.001863
0.001085 -1.1e-05 -0.001875
0.001063 -1e-05 -0.001888
0.000979 -1e-05 -0.001939
0.000958 -1e-05 -0.001951
0.000936 -9e-06 -0.001963
0.000915 -9e-06 -0.001976
0.000893 -8e-06 -0.001988
0.000872 -8e-06 -0.002
0.000851 -8e-06 -0.002012
0.000829 -8e-06 -0.002025
0.000808 -7e-06 -0.002038
0.000788 -8e-06 -0.002052
0.000767 -7e-06 -0.002065
0.000746 -7e-06 -0.002077
0.000725 -7e-06 -0.00209
0.000704 -7e-06 -0.002103
0.000683 -7e-06 -0.002117
0.000663 -8e-06 -0.00213
0.000642 -8e-06 -0.002143
0.000622 -9e-06 -0.002158
0.000601 -8e-06 -0.00217
0.002881 0.000522 -0.000801
0.001617 -9e-06 -0.001473
0.002285 0.000553 -0.001678
0.00182 0.000706 -0.00179
0.001535 -1.1e-05 -0.001527
0.001516 -1.2e-05 -0.001543
0.001496 -1.3e-05 -0.001557
0.00191 0.000733 -0.001605
0.001867 0.000739 -0.001633
0.002156 0.00063 -0.001661
0.002285 0.000634 -0.001678
0.002327 0.000618 -0.001682
0.002562 0.000628 -0.001563
0.001354 -1.7e-05 -0.001655
0.001333 -1.7e-05 -0.001669
0.001313 -1.8e-05 -0.001682
0.001292 -1.8e-05 -0.001696
0.001272 -1.8e-05 -0.00171
0.001251 -1.9e-05 -0.001723
0.001231 -1.9e-05 -0.001738
0.00121 -1.9e-05 -0.00175
0.001189 -1.9e-05 -0.001763
0.001169 -2e-05 -0.001777
0.001148 -2e-05 -0.00179
0.001127 -2e-05 -0.001803
0.001106 -1.9e-05 -0.001816
0.001085 -1.9e-05 -0.001829
0.001064 -1.9e-05 -0.001842
0.001042 -1.9e-05 -0.001854
0.001021 -1.9e-05 -0.001867
0.001 -1.9e-05 -0.001879
0.000979 -1.8e-05 -0.001892
0.000958 -1.8e-05 -0.001905
0.000936 -1.8e-05 -0.001917
0.000915 -1.7e-05 -0.001929
0.000893 -1.7e-05 -0.001941
0.001814 0.000704 -0.001718
0.001811 0.000695 -0.001749
0.00182 0.000679 -0.00179
0.001847 0.000652 -0.001847
0.001895 0.000602 -0.001956
0.001909 0.000582 -0.002003
0.001921 0.000565 -0.002046
0.001929 0.000549 -0.002087
0.001936 0.000534 -0.002127
0.001945 0.000518 -0.002168
0.001951 0.000505 -0.002206
0.001956 0.000491 -0.002244
0.001951 0.000484 -0.002272
0.001934 0.000484 -0.00229
0.001915 0.000486 -0.002306
0.001895 0.000488 -0.002322
0.002455 0.000715 -0.000869
0.002842 0.000659 -0.000485
0.002518 0.000715 -0.000872
0.002505 0.000743 -0.000893
0.002734 0.000712 -0.00084
0.002535 0.000461 -0.001605
0.002522 0.000459 -0.001626
0.002508 0.000458 -0.001647
0.002495 0.000456 -0.001668
0.002478 0.000456 -0.001686
0.002448 0.000465 -0.001692
0.002409 0.000479 -0.00169
0.002368 0.000494 -0.001687
0.002327 0.000509 -0.001683
0.002285 0.000525 -0.001678
0.002243 0.000542 -0.001673
0.0022 0.000558 -0.001668
0.002155 0.000576 -0.001661
0.002099 0.000601 -0.001644
0.001972 0.00066 -0.001596
0.001936 0.000672 -0.001596
0.001908 0.000679 -0.001604
0.001885 0.000683 -0.001616
0.001865 0.000685 -0.001632
0.001848 0.000686 -0.00165
0.001834 0.000685 -0.00167
0.001822 0.000682 -0.001692
0.001814 0.000677 -0.001718
0.001811 0.000668 -0.001749
0.001821 0.000652 -0.00179
0.001847 0.000625 -0.001847
0.001895 0.000574 -0.001957
0.00191 0.000555 -0.002003
0.001921 0.000537 -0.002046
0.001929 0.000522 -0.002087
0.001937 0.000507 -0.002127
0.001945 0.000491 -0.002167
0.001951 0.000477 -0.002206
0.001956 0.000464 -0.002244
0.001951 0.000457 -0.002272
0.001934 0.000457 -0.00229
0.001915 0.000459 -0.002306
0.001896 0.000461 -0.002322
0.002579 0.00054 -0.001476
0.002809 0.000575 -0.000821
0.002401 0.000698 -0.001199
0.002733 0.000658 -0.000839
0.002913 0.000645 0.000127
0.002535 0.000434 -0.001605
0.002522 0.000432 -0.001626
0.002508 0.00043 -0.001647
0.002495 0.000429 -0.001668
0.002478 0.000429 -0.001686
0.002448 0.000437 -0.001692
0.002408 0.000452 -0.00169
0.002369 0.000466 -0.001687
0.002327 0.000482 -0.001683
0.002286 0.000498 -0.001679
0.002243 0.000514 -0.001673
0.0022 0.000531 -0.001668
0.002156 0.000548 -0.001661
0.002098 0.000574 -0.001642
0.001973 0.000632 -0.001596
0.001936 0.000645 -0.001596
0.001908 0.000652 -0.001604
0.001885 0.000656 -0.001616
0.001865 0.000658 -0.001632
0.001848 0.000659 -0.00165
0.001834 0.000658 -0.00167
0.001822 0.000655 -0.001692
0.001813 0.00065 -0.001718
0.001811 0.000641 -0.001748
0.001821 0.000624 -0.001791
0.001847 0.000598 -0.001847
0.001895 0.000547 -0.001957
0.00191 0.000527 -0.002003
0.001921 0.00051 -0.002046
0.001929 0.000495 -0.002087
0.001937 0.000479 -0.002127
0.001946 0.000464 -0.002168
0.001951 0.00045 -0.002206
0.001955 0.000437 -0.002243
0.001951 0.00043 -0.002272
0.001934 0.00043 -0.00229
0.001915 0.000432 -0.002306
0.001896 0.000433 -0.002322
0.002304 0.00065 -0.001098
0.002929 0.000661 -0.00065
0.002879 0.000577 -0.0008
0.002879 0.000604 -0.0008
0.002655 0.000742 -0.000856
0.002535 0.000407 -0.001605
0.002522 0.000405 -0.001626
0.002508 0.000403 -0.001647
0.002495 0.000402 -0.001668
0.002478 0.000402 -0.001686
0.002448 0.00041 -0.001692
0.002408 0.000425 -0.001689
0.002369 0.000439 -0.001687
0.002328 0.000455 -0.001683
0.002285 0.000471 -0.001678
0.002242 0.000488 -0.001673
0.0022 0.000504 -0.001668
0.002155 0.000522 -0.001661
0.002099 0.000547 -0.001643
0.002036 0.000576 -0.001619
0.001973 0.000605 -0.001596
0.001936 0.000618 -0.001596
0.001908 0.000625 -0.001604
0.001885 0.000629 -0.001616
0.001865 0.000631 -0.001632
0.001848 0.000631 -0.00165
0.001834 0.00063 -0.001669
0.001822 0.000628 -0.001692
0.001813 0.000623 -0.001718
0.001811 0.000614 -0.001749
0.001821 0.000597 -0.001791
0.001847 0.000571 -0.001847
0.001896 0.000519 -0.001957
0.00191 0.0005 -0.002004
0.001921 0.000483 -0.002047
0.001929 0.000468 -0.002087
0.001938 0.000452 -0.002128
0.001946 0.000436 -0.002168
0.001951 0.000423 -0.002206
0.001956 0.000409 -0.002244
0.001951 0.000402 -0.002272
0.001934 0.000403 -0.00229
0.001915 0.000405 -0.002306
0.001896 0.000406 -0.002322
0.001876 0.000408 -0.002338
0.002518 0.000561 -0.001364
0.002542 0.000559 -0.001595
0.002846 0.000589 -0.000812
0.002666 0.000694 -7e-06
0.002468 0.000734 -0.001286
0.002535 0.00038 -0.001605
0.002522 0.000378 -0.001626
0.002508 0.000376 -0.001647
0.002495 0.000374 -0.001668
0.002478 0.000375 -0.001686
0.002448 0.000383 -0.001692
0.002408 0.000398 -0.001689
0.002368 0.000412 -0.001687
0.002327 0.000428 -0.001683
0.002285 0.000444 -0.001679
0.002243 0.00046 -0.001673
0.0022 0.000477 -0.001668
0.002155 0.000495 -0.001661
0.002099 0.000519 -0.001643
0.002034 0.00055 -0.001618
0.001974 0.000577 -0.001597
0.001936 0.000591 -0.001596
0.001908 0.000598 -0.001604
0.001885 0.000602 -0.001616
0.001865 0.000604 -0.001632
0.001848 0.000604 -0.00165
0.001834 0.000603 -0.00167
0.001822 0.0006 -0.001692
0.001813 0.000595 -0.001717
0.001811 0.000586 -0.001749
0.001821 0.00057 -0.001791
0.001848 0.000543 -0.001848
0.001874 0.000516 -0.001905
0.001895 0.000493 -0.001957
0.00191 0.000473 -0.002004
0.001921 0.000456 -0.002047
0.001929 0.00044 -0.002087
0.001938 0.000424 -0.002128
0.001945 0.00041 -0.002168
0.001952 0.000395 -0.002207
0.001956 0.000383 -0.002244
0.001951 0.000375 -0.002272
0.001934 0.000375 -0.00229
0.001915 0.000377 -0.002306
0.001896 0.000379 -0.002322
0.001876 0.000381 -0.002338
0.002568 0.000502 -0.001553
0.002734 0.000603 -0.00084
0.002314 0.000754 -0.001102
0.002469 0.000679 -0.001286
0.002905 0.000629 -0.000758
0.002535 0.000352 -0.001605
0.002522 0.000351 -0.001626
0.002508 0.000349 -0.001647
0.002495 0.000347 -0.001668
0.002478 0.000347 -0.001686
0.002447 0.000356 -0.001692
0.002407 0.000371 -0.001689
0.002368 0.000385 -0.001687
0.002327 0.000401 -0.001683
0.002285 0.000417 -0.001678
0.002243 0.000433 -0.001673
0.0022 0.00045 -0.001668
0.002155 0.000468 -0.00166
0.002101 0.000491 -0.001645
0.002033 0.000523 -0.001617
0.001974 0.00055 -0.001597
0.001936 0.000563 -0.001596
0.001908 0.000571 -0.001604
0.001885 0.000575 -0.001616
0.001865 0.000577 -0.001632
0.001848 0.000577 -0.00165
0.001833 0.000576 -0.001669
0.001821 0.000573 -0.001692
0.001813 0.000568 -0.001717
0.001811 0.00056 -0.001748
0.001821 0.000543 -0.001791
0.001848 0.000516 -0.001848
0.001873 0.000489 -0.001904
0.001895 0.000466 -0.001957
0.001911 0.000445 -0.002004
0.001921 0.000428 -0.002047
0.00193 0.000413 -0.002088
0.001938 0.000397 -0.002128
0.001945 0.000382 -0.002168
0.001951 0.000368 -0.002206
0.001956 0.000355 -0.002244
0.001951 0.000348 -0.002272
0.001934 0.000348 -0.00229
0.001915 0.00035 -0.002306
0.001895 0.000352 -0.002322
0.001876 0.000354 -0.002338
0.00254 0.000571 -0.001402
0.002899 0.000545 -0.000782
0.002693 0.000646 -0.000847
0.002772 0.000643 -0.000831
0.002695 0.000727 -0.000848
0.002535 0.000325 -0.001605
0.002522 0.000323 -0.001626
0.002508 0.000322 -0.001647
0.002495 0.00032 -0.001668
0.002478 0.00032 -0.001686
0.002447 0.000329 -0.001692
0.002407 0.000344 -0.001688
0.002368 0.000358 -0.001686
0.002327 0.000374 -0.001683
0.002285 0.00039 -0.001678
0.002242 0.000406 -0.001673
0.0022 0.000422 -0.001668
0.002155 0.00044 -0.001661
0.002099 0.000465 -0.001643
0.002033 0.000496 -0.001617
0.001974 0.000523 -0.001597
0.001936 0.000536 -0.001596
0.001908 0.000544 -0.001604
0.001885 0.000548 -0.001616
0.001865 0.00055 -0.001632
0.001848 0.00055 -0.001649
0.001833 0.000549 -0.001669
0.001821 0.000546 -0.001692
0.001813 0.000541 -0.001718
0.001811 0.000532 -0.001749
0.00182 0.000516 -0.00179
0.001847 0.000489 -0.001848
0.001873 0.000462 -0.001904
0.001895 0.000438 -0.001957
0.001911 0.000418 -0.002004
0.001921 0.000401 -0.002047
0.00193 0.000385 -0.002088
0.001938 0.00037 -0.002128
0.001945 0.000355 -0.002168
0.001952 0.000341 -0.002207
0.001956 0.000328 -0.002244
0.001951 0.000321 -0.002272
0.001934 0.000321 -0.00229
0.001915 0.000323 -0.002306
0.001895 0.000325 -0.002322
0.001876 0.000327 -0.002338
0.002588 0.00053 -0.001507
0.002772 0.000589 -0.00083
0.002227 0.00081 -0.001006
0.0024 0.000726 -0.001198
0.002583 0.000642 -0.001505
0.002535 0.000298 -0.001605
0.002522 0.000296 -0.001626
0.002508 0.000295 -0.001647
0.002495 0.000293 -0.001668
0.002478 0.000293 -0.001686
0.002448 0.000302 -0.001692
0.002407 0.000317 -0.001689
0.002368 0.000331 -0.001687
0.002327 0.000346 -0.001683
0.002284 0.000363 -0.001678
0.002243 0.000379 -0.001673
0.002199 0.000395 -0.001668
0.002155 0.000413 -0.001661
0.001974 0.000496 -0.001597
0.001937 0.000509 -0.001597
0.001908 0.000516 -0.001604
0.001885 0.000521 -0.001616
0.001865 0.000523 -0.001631
0.001848 0.000523 -0.001649
0.001833 0.000522 -0.001669
0.001822 0.000519 -0.001692
0.001813 0.000514 -0.001718
0.001811 0.000505 -0.001749
0.001821 0.000489 -0.001791
0.001848 0.000461 -0.001848
0.001873 0.000435 -0.001904
0.001894 0.000411 -0.001956
0.001911 0.000391 -0.002004
0.001921 0.000374 -0.002047
0.00193 0.000358 -0.002088
0.001939 0.000343 -0.002129
0.001945 0.000328 -0.002168
0.001952 0.000314 -0.002207
0.001956 0.000301 -0.002244
0.00195 0.000294 -0.002272
0.001934 0.000294 -0.00229
0.001914 0.000296 -0.002306
0.001895 0.000298 -0.002322
0.001876 0.0003 -0.002338
0.002337 0.000732 -0.000894
0.002932 0.000578 -0.00065
0.002809 0.000602 -0.000821
0.002906 0.000601 -0.000759
0.002772 0.000698 -0.00083
0.002535 0.000271 -0.001605
0.002522 0.000269 -0.001627
0.002509 0.000267 -0.001648
0.002495 0.000265 -0.001669
0.002478 0.000266 -0.001686
0.002448 0.000274 -0.001693
0.002406 0.00029 -0.001688
0.002368 0.000304 -0.001687
0.002327 0.000319 -0.001683
0.002284 0.000336 -0.001678
0.002243 0.000351 -0.001674
0.002199 0.000368 -0.001667
0.002155 0.000386 -0.001661
0.001974 0.000468 -0.001597
0.001936 0.000482 -0.001596
0.001908 0.000489 -0.001604
0.001885 0.000493 -0.001616
0.001865 0.000495 -0.001632
0.001848 0.000496 -0.00165
0.001833 0.000495 -0.001669
0.001822 0.000492 -0.001692
0.001813 0.000487 -0.001718
0.001811 0.000478 -0.001749
0.001821 0.000461 -0.001791
0.001847 0.000434 -0.001848
0.001874 0.000408 -0.001905
0.001894 0.000384 -0.001956
0.00191 0.000364 -0.002004
0.001921 0.000347 -0.002047
0.001931 0.000331 -0.002089
0.001938 0.000315 -0.002129
0.001946 0.0003 -0.002169
0.001951 0.000287 -0.002207
0.001956 0.000273 -0.002244
0.00195 0.000267 -0.002272
0.001934 0.000267 -0.00229
0.001915 0.000269 -0.002306
0.001895 0.00027 -0.002322
0.00299 0.000464 0.000322
0.002786 0.000643 4.8e-05
0.002734 0.00063 -0.00084
0.002752 0.000711 2.9e-05
0.00281 0.000684 -0.000822
0.002535 0.000243 -0.001606
0.002522 0.000242 -0.001627
0.002508 0.00024 -0.001648
0.002495 0.000238 -0.001668
0.002477 0.000239 -0.001686
0.002448 0.000247 -0.001692
0.002406 0.000263 -0.001688
0.002367 0.000277 -0.001686
0.002327 0.000292 -0.001683
0.002285 0.000308 -0.001678
0.002242 0.000325 -0.001673
0.002199 0.000341 -0.001667
0.002154 0.000359 -0.00166
0.002034 0.000414 -0.001618
0.001973 0.000442 -0.001597
0.001936 0.000455 -0.001596
0.001908 0.000462 -0.001604
0.001885 0.000466 -0.001617
0.001865 0.000468 -0.001632
0.001849 0.000468 -0.00165
0.001834 0.000467 -0.00167
0.001822 0.000465 -0.001692
0.001813 0.000459 -0.001718
0.001811 0.000451 -0.001749
0.001821 0.000434 -0.001791
0.001847 0.000407 -0.001847
0.001874 0.00038 -0.001905
0.001894 0.000357 -0.001956
0.001911 0.000337 -0.002004
0.00192 0.00032 -0.002046
0.001931 0.000303 -0.002089
0.001939 0.000288 -0.002129
0.001946 0.000273 -0.002169
0.001952 0.000259 -0.002207
0.001956 0.000246 -0.002244
0.00195 0.00024 -0.002271
0.001934 0.00024 -0.00229
0.001915 0.000241 -0.002306
0.001896 0.000243 -0.002322
0.002516 0.000688 -0.000872
0.002846 0.000562 -0.000812
0.002616 0.000675 -0.000865
0.002615 0.000703 -0.000864
0.00254 0.00068 -0.001402
0.002535 0.000216 -0.001606
0.002522 0.000215 -0.001626
0.002508 0.000213 -0.001647
0.002494 0.000211 -0.001668
0.002477 0.000212 -0.001686
0.002447 0.00022 -0.001692
0.002407 0.000235 -0.001689
0.002367 0.00025 -0.001686
0.002327 0.000265 -0.001683
0.002284 0.000282 -0.001677
0.002242 0.000298 -0.001672
0.002199 0.000314 -0.001667
0.002155 0.000331 -0.001661
0.002033 0.000387 -0.001617
0.001973 0.000415 -0.001596
0.001936 0.000428 -0.001596
0.001908 0.000435 -0.001604
0.001885 0.000439 -0.001616
0.001865 0.000441 -0.001632
0.001849 0.000441 -0.00165
0.001834 0.00044 -0.00167
0.001822 0.000437 -0.001692
0.001813 0.000432 -0.001718
0.001811 0.000423 -0.001749
0.001821 0.000407 -0.001791
0.001847 0.00038 -0.001848
0.001875 0.000352 -0.001906
0.001894 0.00033 -0.001956
0.00191 0.00031 -0.002004
0.00192 0.000293 -0.002046
0.001931 0.000276 -0.002089
0.001938 0.000261 -0.002128
0.001946 0.000246 -0.002169
0.001952 0.000232 -0.002208
0.001956 0.000219 -0.002244
0.001949 0.000213 -0.002271
0.001933 0.000213 -0.00229
0.001915 0.000214 -0.002306
0.001895 0.000216 -0.002322
0.00277 0.000508 -0.00083
0.00288 0.00055 -0.000801
0.002572 0.000692 -0.000871
0.002573 0.000719 -0.000871
0.002577 0.00065 -0.001475
0.002535 0.000189 -0.001605
0.002522 0.000188 -0.001626
0.002508 0.000186 -0.001647
0.002494 0.000185 -0.001667
0.002476 0.000186 -0.001685
0.002447 0.000193 -0.001692
0.002407 0.000208 -0.001688
0.002367 0.000223 -0.001686
0.002327 0.000238 -0.001683
0.002284 0.000254 -0.001678
0.002241 0.000271 -0.001672
0.002199 0.000287 -0.001668
0.002155 0.000305 -0.00166
0.002098 0.000329 -0.001643
0.001971 0.000389 -0.001594
0.001935 0.000401 -0.001596
0.001908 0.000408 -0.001604
0.001885 0.000412 -0.001616
0.001865 0.000414 -0.001632
0.001848 0.000414 -0.00165
0.001833 0.000413 -0.00167
0.001822 0.00041 -0.001692
0.001813 0.000405 -0.001718
0.001811 0.000396 -0.001749
0.001822 0.000379 -0.001792
0.001847 0.000353 -0.001848
0.001874 0.000326 -0.001905
0.001894 0.000303 -0.001957
0.00191 0.000283 -0.002004
0.00192 0.000266 -0.002046
0.001931 0.000249 -0.002089
0.001938 0.000234 -0.002129
0.001947 0.000219 -0.002169
0.001952 0.000205 -0.002207
0.001956 0.000192 -0.002244
0.001949 0.000186 -0.002271
0.001933 0.000186 -0.00229
0.001915 0.000187 -0.002306
0.001896 0.000189 -0.002322
0.002921 0.000606 -0.000698
0.002555 0.000558 -0.001574
0.002772 0.000616 -0.000831
0.00281 0.000629 -0.000821
0.002876 0.000661 -0.000798
0.002535 0.000162 -0.001605
0.002521 0.000161 -0.001626
0.002508 0.000159 -0.001647
0.002493 0.000158 -0.001667
0.002475 0.000159 -0.001684
0.002447 0.000166 -0.001692
0.002407 0.000181 -0.001689
0.002367 0.000196 -0.001686
0.002326 0.000211 -0.001682
0.002285 0.000227 -0.001678
0.002241 0.000244 -0.001672
0.002199 0.00026 -0.001667
0.002155 0.000277 -0.001661
0.002099 0.000302 -0.001643
0.001973 0.00036 -0.001596
0.001935 0.000374 -0.001596
0.001908 0.000381 -0.001604
0.001884 0.000385 -0.001616
0.001865 0.000387 -0.001632
0.001848 0.000387 -0.00165
0.001833 0.000386 -0.001669
0.001821 0.000383 -0.001692
0.001813 0.000378 -0.001718
0.001811 0.000369 -0.001749
0.00182 0.000353 -0.001791
0.001874 0.000298 -0.001905
0.001894 0.000276 -0.001956
0.001911 0.000255 -0.002004
0.001921 0.000238 -0.002047
0.001931 0.000222 -0.002089
0.001939 0.000206 -0.002129
0.001946 0.000192 -0.002169
0.001952 0.000178 -0.002207
0.001956 0.000165 -0.002244
0.001948 0.00016 -0.00227
0.001932 0.000159 -0.002289
0.001914 0.00016 -0.002306
0.001895 0.000162 -0.002322
0.002365 0.00075 -0.000881
0.00258 0.000556 -0.001531
0.002898 0.000573 -0.000782
0.002845 0.000616 -0.000811
0.002517 0.000698 -0.001364
0.002535 0.000135 -0.001605
0.002521 0.000134 -0.001626
0.002506 0.000133 -0.001646
0.002491 0.000132 -0.001665
0.002473 0.000133 -0.001682
0.002446 0.00014 -0.001691
0.002408 0.000153 -0.00169
0.002367 0.000168 -0.001686
0.002326 0.000184 -0.001682
0.002284 0.0002 -0.001678
0.002242 0.000216 -0.001673
0.002198 0.000233 -0.001667
0.002155 0.00025 -0.001661
0.002098 0.000275 -0.001643
0.001973 0.000333 -0.001597
0.001935 0.000346 -0.001596
0.001907 0.000354 -0.001604
0.001884 0.000358 -0.001616
0.001865 0.00036 -0.001632
0.001848 0.00036 -0.00165
0.001833 0.000359 -0.001669
0.001821 0.000356 -0.001692
0.001813 0.000351 -0.001718
0.001811 0.000342 -0.001749
0.001821 0.000325 -0.001791
0.001848 0.000298 -0.001848
0.001874 0.000271 -0.001905
0.001894 0.000249 -0.001956
0.00191 0.000228 -0.002004
0.00192 0.000212 -0.002046
0.001931 0.000194 -0.002089
0.001939 0.000179 -0.002129
0.001946 0.000165 -0.002169
0.001952 0.00015 -0.002208
0.001955 0.000138 -0.002243
0.001946 0.000134 -0.002268
0.00193 0.000133 -0.002287
0.001913 0.000134 -0.002305
0.001895 0.000135 -0.002321
0.002615 0.000594 -0.000864
0.002588 0.000558 -0.001507
0.00258 0.000583 -0.001531
0.002579 0.000611 -0.00153
0.002567 0.000639 -0.001552
0.002532 0.00011 -0.001603
0.002518 0.000108 -0.001624
0.002503 0.000107 -0.001643
0.002487 0.000107 -0.001662
0.002469 0.000108 -0.001679
0.002445 0.000113 -0.00169
0.002408 0.000126 -0.001689
0.002367 0.000141 -0.001686
0.002326 0.000157 -0.001683
0.002285 0.000172 -0.001678
0.002242 0.000189 -0.001673
0.002199 0.000206 -0.001667
0.002155 0.000223 -0.001661
0.002098 0.000248 -0.001642
0.001973 0.000306 -0.001596
0.001935 0.000319 -0.001596
0.001907 0.000326 -0.001604
0.001884 0.000331 -0.001616
0.001865 0.000332 -0.001632
0.001848 0.000333 -0.00165
0.001833 0.000332 -0.001669
0.001821 0.000329 -0.001692
0.001813 0.000324 -0.001718
0.001811 0.000315 -0.001749
0.001821 0.000298 -0.001791
0.001847 0.000271 -0.001848
0.001873 0.000245 -0.001905
0.001894 0.000221 -0.001957
0.00191 0.000201 -0.002004
0.00192 0.000184 -0.002046
0.001931 0.000167 -0.002089
0.001939 0.000152 -0.00213
0.001946 0.000137 -0.002169
0.001952 0.000123 -0.002207
0.001953 0.000112 -0.002241
0.001942 0.000109 -0.002265
0.001927 0.000108 -0.002285
0.00191 0.000108 -0.002302
0.001892 0.000109 -0.002319
0.002913 0.000663 -0.000722
0.002469 0.000652 -0.001286
0.002518 0.000643 -0.001364
0.002616 0.00073 -0.000867
0.002577 0.000639 -0.001529
0.002528 8.5e-05 -0.001599
0.002514 8.4e-05 -0.001619
0.002498 8.3e-05 -0.001639
0.002482 8.3e-05 -0.001657
0.002464 8.4e-05 -0.001674
0.002442 8.8e-05 -0.001687
0.002408 9.9e-05 -0.00169
0.002367 0.000114 -0.001686
0.002326 0.00013 -0.001682
0.002284 0.000145 -0.001678
0.002242 0.000161 -0.001673
0.002199 0.000178 -0.001667
0.002155 0.000196 -0.001661
0.002097 0.000222 -0.001642
0.002034 0.000251 -0.001618
0.001973 0.000279 -0.001596
0.001935 0.000292 -0.001595
0.001907 0.000299 -0.001604
0.001884 0.000303 -0.001616
0.001865 0.000305 -0.001632
0.001848 0.000305 -0.00165
0.001833 0.000305 -0.001669
0.001821 0.000302 -0.001692
0.001813 0.000296 -0.001718
0.001811 0.000288 -0.001749
0.00182 0.000271 -0.00179
0.001848 0.000244 -0.001848
0.001872 0.000218 -0.001904
0.001895 0.000194 -0.001957
0.001911 0.000173 -0.002004
0.00192 0.000157 -0.002046
0.00193 0.00014 -0.002089
0.001939 0.000125 -0.002129
0.001946 0.00011 -0.002169
0.001952 9.6e-05 -0.002207
0.001949 8.7e-05 -0.002238
0.001937 8.5e-05 -0.002261
0.001922 8.4e-05 -0.00228
0.001906 8.4e-05 -0.002298
0.001888 8.5e-05 -0.002315
0.002771 0.000562 -0.00083
0.00244 0.000672 -0.001245
0.002897 0.0006 -0.000781
0.002846 0.000643 -0.000811
0.002766 0.000726 -0.000423
0.002562 0.000669 -0.00155
0.002506 6.2e-05 -0.001612
0.002491 6.1e-05 -0.001632
0.002474 6.1e-05 -0.00165
0.002457 6.1e-05 -0.001668
0.002436 6.4e-05 -0.001682
0.002407 7.2e-05 -0.001689
0.002368 8.7e-05 -0.001687
0.002326 0.000102 -0.001682
0.002284 0.000118 -0.001678
0.002242 0.000134 -0.001673
0.002198 0.000151 -0.001667
0.002155 0.000168 -0.001661
0.002097 0.000194 -0.001642
0.002034 0.000224 -0.001618
0.001973 0.000252 -0.001596
0.001935 0.000265 -0.001596
0.001907 0.000272 -0.001604
0.001884 0.000276 -0.001616
0.001865 0.000278 -0.001632
0.001848 0.000278 -0.00165
0.001833 0.000277 -0.001669
0.001821 0.000274 -0.001692
0.001813 0.000269 -0.001718
0.001811 0.00026 -0.001749
0.001821 0.000244 -0.001791
0.001847 0.000217 -0.001848
0.001872 0.000191 -0.001904
0.001911 0.000146 -0.002005
0.00192 0.00013 -0.002046
0.001931 0.000113 -0.002089
0.001938 9.8e-05 -0.002129
0.001946 8.3e-05 -0.002169
0.001951 7e-05 -0.002206
0.001943 6.4e-05 -0.002233
0.00193 6.2e-05 -0.002254
0.001915 6.1e-05 -0.002273
0.001898 6.1e-05 -0.002291
0.002282 0.000684 -0.000977
0.002655 0.000606 -0.000856
0.002928 0.000524 -0.000674
0.002656 0.000714 -0.000856
0.002537 4.6e-05 -0.001541
0.00291 0.000487 -0.000547
0.002914 0.000699 0.000126
0.002846 0.000671 -0.000812
0.002572 0.000669 -0.001527
0.002464 4e-05 -0.001641
0.002447 4e-05 -0.001659
0.002427 4.2e-05 -0.001674
0.002402 4.8e-05 -0.001685
0.002367 6e-05 -0.001687
0.002326 7.5e-05 -0.001682
0.002284 9.1e-05 -0.001677
0.002242 0.000107 -0.001673
0.0022 0.000123 -0.001668
0.002155 0.000141 -0.001661
0.002096 0.000168 -0.001641
0.002033 0.000197 -0.001618
0.001972 0.000225 -0.001596
0.001935 0.000237 -0.001596
0.001907 0.000245 -0.001604
0.001884 0.000249 -0.001616
0.001865 0.000251 -0.001632
0.001848 0.000251 -0.00165
0.001833 0.00025 -0.001669
0.001821 0.000247 -0.001692
0.001813 0.000242 -0.001718
0.001811 0.000233 -0.001749
0.00182 0.000217 -0.001791
0.001848 0.00019 -0.001848
0.001874 0.000162 -0.001906
0.001895 0.000139 -0.001957
0.00191 0.00012 -0.002004
0.00192 0.000103 -0.002046
0.001931 8.6e-05 -0.002089
0.001938 7.1e-05 -0.002129
0.001945 5.6e-05 -0.002168
0.001945 4.6e-05 -0.002201
0.001934 4.2e-05 -0.002225
0.00192 4.1e-05 -0.002245
0.001905 4e-05 -0.002264
0.001888 4.1e-05 -0.002282
0.002291 0.000685 -0.000954
0.002906 0.000574 -0.000758
0.002578 0.000672 -0.001503
0.002537 2.9e-05 -0.001508
0.002524 2.7e-05 -0.00153
0.002511 2.5e-05 -0.001551
0.002734 0.000685 -0.000839
0.002584 0.000729 -0.000931
0.002773 0.00067 -0.000831
0.002902 0.000658 -0.000756
0.002434 2.2e-05 -0.001647
0.002415 2.3e-05 -0.001663
0.002392 2.7e-05 -0.001676
0.002363 3.5e-05 -0.001684
0.002326 4.8e-05 -0.001682
0.002283 6.5e-05 -0.001677
0.002242 8e-05 -0.001673
0.002199 9.7e-05 -0.001668
0.002155 0.000114 -0.001661
0.002095 0.000141 -0.00164
0.002032 0.000171 -0.001616
0.001971 0.000198 -0.001595
0.001935 0.00021 -0.001596
0.001907 0.000218 -0.001604
0.001884 0.000222 -0.001616
0.001865 0.000224 -0.001632
0.001848 0.000224 -0.00165
0.001833 0.000223 -0.001669
0.001821 0.00022 -0.001692
0.001813 0.000215 -0.001718
0.00181 0.000206 -0.001749
0.00182 0.00019 -0.001791
0.001847 0.000163 -0.001848
0.001874 0.000135 -0.001905
0.001895 0.000112 -0.001957
0.001911 9.2e-05 -0.002005
0.00192 7.6e-05 -0.002046
0.001931 5.9e-05 -0.002089
0.001938 4.4e-05 -0.002129
0.00194 3.2e-05 -0.002164
0.001934 2.5e-05 -0.002192
0.001922 2.3e-05 -0.002214
0.001907 2.2e-05 -0.002234
0.001891 2.1e-05 -0.002252
0.00291 0.000677 -0.000546
0.002578 0.000622 -0.001475
0.002533 1.6e-05 -0.001471
0.00252 1.3e-05 -0.001493
0.002508 1e-05 -0.001515
0.002493 1e-05 -0.001535
0.002655 0.000687 -0.000856
0.00256 0.00061 -0.00144
0.002493 0.000661 -0.001325
0.002432 6e-06 -0.001612
0.002415 6e-06 -0.00163
0.002397 7e-06 -0.001647
0.002377 9e-06 -0.001662
0.002352 1.4e-05 -0.001674
0.002321 2.4e-05 -0.001679
0.002283 3.8e-05 -0.001677
0.002242 5.3e-05 -0.001673
0.0022 6.9e-05 -0.001668
0.001971 0.000171 -0.001595
0.001936 0.000183 -0.001596
0.001907 0.000191 -0.001604
0.001884 0.000195 -0.001616
0.001865 0.000196 -0.001632
0.001848 0.000197 -0.00165
0.001833 0.000196 -0.001669
0.001821 0.000193 -0.001692
0.001813 0.000188 -0.001718
0.00181 0.000179 -0.001749
0.00182 0.000163 -0.00179
0.001847 0.000136 -0.001848
0.001873 0.000109 -0.001905
0.001895 8.5e-05 -0.001957
0.00191 6.5e-05 -0.002004
0.001919 4.9e-05 -0.002046
0.001929 3.3e-05 -0.002087
0.001933 2e-05 -0.002124
0.001928 1.2e-05 -0.002153
0.001918 8e-06 -0.002177
0.001904 7e-06 -0.002198
0.001888 7e-06 -0.002217
0.001872 6e-06 -0.002235
0.002358 0.000726 -0.000877
0.002586 0.000613 -0.001506
0.002511 2e-06 -0.001451
0.002495 1e-06 -0.00147
0.002479 1e-06 -0.001489
0.002542 0.000532 -0.001595
0.002913 0.000618 0.000127
0.002303 0.000733 -0.001097
0.002518 0.000616 -0.001364
0.0024 -2e-06 -0.001584
0.002385 -2e-06 -0.001603
0.002369 -2e-06 -0.001622
0.002352 -2e-06 -0.00164
0.002331 1e-06 -0.001654
0.002308 4e-06 -0.001667
0.002277 1.4e-05 -0.001672
0.002239 2.7e-05 -0.001671
0.002198 4.3e-05 -0.001667
0.001971 0.000144 -0.001595
0.001935 0.000156 -0.001596
0.001907 0.000164 -0.001603
0.001884 0.000167 -0.001616
0.001865 0.000169 -0.001632
0.001848 0.00017 -0.001649
0.001833 0.000169 -0.001669
0.001821 0.000166 -0.001692
0.001813 0.000161 -0.001717
0.00181 0.000152 -0.001749
0.00182 0.000136 -0.00179
0.001846 0.000109 -0.001847
0.001872 8.2e-05 -0.001904
0.001896 5.7e-05 -0.001958
0.001909 3.8e-05 -0.002003
0.001917 2.3e-05 -0.002044
0.001921 1e-05 -0.00208
0.001916 3e-06 -0.002109
0.001905 0.0 -0.002132
0.00189 -1e-06 -0.002152
0.001875 -2e-06 -0.002172
0.001858 -2e-06 -0.002189
0.002473 -2e-06 -0.001417
0.002457 -3e-06 -0.001436
0.002441 -2e-06 -0.001454
0.002555 0.00045 -0.001574
0.002471 0.000542 -0.001287
0.002335 0.000679 -0.000893
0.002302 0.000685 -0.000932
0.002518 0.000606 -0.000872
0.002325 -2e-06 -0.001583
0.002308 -1e-06 -0.0016
0.002276 -2e-06 -0.001637
0.002256 -0.0 -0.001653
0.00223 6e-06 -0.001662
0.002194 1.8e-05 -0.001663
0.001971 0.000117 -0.001595
0.001935 0.000129 -0.001595
0.001907 0.000137 -0.001603
0.001884 0.00014 -0.001616
0.001865 0.000142 -0.001632
0.001847 0.000143 -0.001649
0.001832 0.000142 -0.001669
0.001821 0.000139 -0.001692
0.001813 0.000134 -0.001718
0.00181 0.000125 -0.001749
0.00182 0.000109 -0.00179
0.001873 5.5e-05 -0.001904
0.001896 3e-05 -0.001958
0.001905 1.4e-05 -0.002
0.001906 3e-06 -0.002033
0.001864 -3e-06 -0.002095
0.001849 -3e-06 -0.002115
0.001832 -2e-06 -0.002133
0.001815 -2e-06 -0.002151
0.002462 -2e-06 -0.001341
0.002446 -2e-06 -0.00136
0.00243 -2e-06 -0.001379
0.002414 -3e-06 -0.001397
0.002399 -3e-06 -0.001417
0.002555 0.000504 -0.001574
0.00288 0.000495 -0.000801
0.002303 0.000706 -0.001097
0.002268 -4e-06 -0.001564
0.002615 0.000648 -0.000864
0.002236 -4e-06 -0.001601
0.002218 -4e-06 -0.001619
0.002899 0.000518 -0.000782
0.002567 0.000704 -0.001497
0.00256 0.000702 -0.001521
0.002283 0.000694 -0.00106
0.00197 9e-05 -0.001594
0.001934 0.000102 -0.001595
0.001906 0.000109 -0.001603
0.001884 0.000113 -0.001616
0.001864 0.000115 -0.001632
0.001847 0.000116 -0.001649
0.001832 0.000115 -0.001669
0.001821 0.000112 -0.001692
0.001812 0.000107 -0.001717
0.00181 9.8e-05 -0.001749
0.001874 2.7e-05 -0.001905
0.001889 7e-06 -0.001952
0.002422 -4e-06 -0.001305
0.002406 -4e-06 -0.001324
0.002389 -4e-06 -0.001341
0.002372 -4e-06 -0.00136
0.002355 -3e-06 -0.001377
0.002338 -3e-06 -0.001395
0.002587 0.000585 -0.001507
0.002578 0.000595 -0.001476
0.002539 0.000708 -0.001402
0.002275 0.000758 -0.001029
0.002588 0.000449 -0.001508
0.002656 0.000633 -0.000856
0.002453 0.000634 -0.000868
0.002542 0.000478 -0.001595
0.002494 0.000688 -0.001325
0.002335 0.000706 -0.000893
0.002304 0.000678 -0.001097
8.5e-05 -6e-06 0.002228
0.00197 6.3e-05 -0.001594
0.001934 7.5e-05 -0.001595
0.001906 8.2e-05 -0.001603
0.001884 8.6e-05 -0.001616
0.001864 8.8e-05 -0.001631
0.001847 8.9e-05 -0.001649
0.001832 8.8e-05 -0.001668
0.001821 8.5e-05 -0.001692
0.001812 7.9e-05 -0.001717
0.00181 7e-05 -0.001749
0.001828 -3e-06 -0.001964
0.001812 -3e-06 -0.001983
0.001796 -3e-06 -0.002001
0.001358 -2.8e-05 -0.001607
0.001376 -2.9e-05 -0.00159
0.00168 -3e-06 -0.002129
0.001666 -4e-06 -0.002149
0.002379 -4e-06 -0.001266
0.002362 -4e-06 -0.001284
0.002344 -3e-06 -0.001301
0.00233 -4e-06 -0.001321
0.002313 -4e-06 -0.00134
0.002557 0.000715 -3.9e-05
0.002809 0.000548 -0.000821
0.002556 0.000721 -0.001437
0.002251 -6e-06 -0.001416
0.002235 -7e-06 -0.001435
0.002275 0.000763 -0.001001
0.002578 0.000459 -0.001476
0.00258 0.000447 -0.001531
0.002316 0.00071 -0.000912
0.002359 0.000698 -0.000878
0.001393 -2.9e-05 -0.001572
0.00123 -9e-06 0.001928
0.001207 -8e-06 0.001935
0.001968 3.7e-05 -0.001592
0.001934 4.8e-05 -0.001595
0.001906 5.6e-05 -0.001603
0.001883 5.9e-05 -0.001616
0.001864 6.1e-05 -0.001631
0.001847 6.2e-05 -0.001649
0.001831 6.1e-05 -0.001668
0.00182 5.7e-05 -0.001691
0.001812 5.2e-05 -0.001717
0.00181 4.3e-05 -0.001749
0.00141 -2.9e-05 -0.001555
0.001823 -6e-06 -0.001893
0.001806 -6e-06 -0.00191
0.00179 -5e-06 -0.001929
0.001775 -7e-06 -0.001949
0.001757 -6e-06 -0.001966
0.001693 -7e-06 -0.002041
0.001676 -6e-06 -0.002058
0.001659 -6e-06 -0.002077
0.001641 -5e-06 -0.002094
0.001624 -5e-06 -0.002111
0.002614 0.000717 -2.3e-05
0.002542 0.000451 -0.001595
0.002539 0.000653 -0.001402
0.002517 0.00067 -0.001364
0.002277 0.000735 -0.001003
0.002528 0.000726 -5.9e-05
0.002202 -3e-06 -0.001372
0.002187 -3e-06 -0.001391
0.002572 0.000638 -0.000871
0.002614 0.000621 -0.000864
0.002726 0.000746 -0.000391
0.002818 0.000684 6.8e-05
0.001428 -3e-05 -0.001537
0.002734 0.000576 -0.00084
0.00256 0.000692 -0.001439
0.001445 -3e-05 -0.001519
0.00197 9e-06 -0.001594
0.001935 2.1e-05 -0.001595
0.001906 2.8e-05 -0.001602
0.001883 3.2e-05 -0.001615
0.001864 3.4e-05 -0.001631
0.001847 3.4e-05 -0.001649
0.001831 3.4e-05 -0.001668
0.00182 3.1e-05 -0.001691
0.001812 2.5e-05 -0.001717
0.001811 1.6e-05 -0.001749
0.001775 -3e-06 -0.001849
0.001759 -3e-06 -0.001868
0.001744 -4e-06 -0.001888
0.001678 -4e-06 -0.001961
0.001645 -4e-06 -0.001998
0.001628 -4e-06 -0.002016
0.001612 -4e-06 -0.002034
0.001595 -4e-06 -0.002052
0.001581 -5e-06 -0.002072
0.001567 -7e-06 -0.002093
0.00155 -6e-06 -0.002111
0.001534 -6e-06 -0.00213
0.001516 -5e-06 -0.002146
0.001499 -5e-06 -0.002165
0.002566 0.00071 -0.001469
0.00226 -4e-06 -0.001225
0.002243 -4e-06 -0.001243
0.002568 0.00053 -0.001553
0.002581 0.000529 -0.001531
0.002395 0.00074 -0.000868
0.002725 0.000584 -0.000391
0.002163 -6e-06 -0.001337
0.002147 -6e-06 -0.001356
0.00213 -5e-06 -0.001374
0.002114 -6e-06 -0.001393
0.002453 0.000688 -0.000868
0.002351 0.000648 -0.001147
0.002883 0.00063 0.000107
0.002539 0.00049 -0.001402
0.001462 -3.1e-05 -0.001502
0.002019 -8e-06 -0.001506
0.002003 -9e-06 -0.001525
0.001988 -9e-06 -0.001544
0.001929 -3e-06 -0.00159
0.001905 3e-06 -0.001601
0.001884 5e-06 -0.001616
0.001863 7e-06 -0.001631
0.001846 7e-06 -0.001649
0.001831 7e-06 -0.001668
0.00182 3e-06 -0.001692
0.001812 -2e-06 -0.001717
0.001805 -8e-06 -0.001744
0.001758 -1e-05 -0.001801
0.001742 -9e-06 -0.00182
0.001724 -8e-06 -0.001836
0.001638 -6e-06 -0.001925
0.001621 -6e-06 -0.001943
0.001587 -5e-06 -0.001979
0.00157 -5e-06 -0.001997
0.001555 -6e-06 -0.002016
0.001537 -5e-06 -0.002033
0.001519 -4e-06 -0.00205
0.001471 -4e-06 -0.002106
0.001454 -4e-06 -0.002124
0.001437 -4e-06 -0.002142
0.001479 -3.1e-05 -0.001484
0.002238 -7e-06 -0.001172
0.002222 -8e-06 -0.001192
0.002207 -9e-06 -0.001211
0.002555 0.000531 -0.001574
0.002439 0.000645 -0.001245
0.00256 0.000637 -0.001439
0.00214 -8e-06 -0.001283
0.002124 -8e-06 -0.001302
0.002108 -8e-06 -0.00132
0.002091 -8e-06 -0.001338
0.002894 0.000689 -0.000752
0.002439 0.000591 -0.001244
0.0024 0.000617 -0.001198
0.002518 0.000507 -0.001365
0.001974 -7e-06 -0.001465
0.001958 -7e-06 -0.001484
0.00194 -6e-06 -0.001501
0.001923 -6e-06 -0.001518
0.002573 0.000583 -0.000871
0.002395 0.000713 -0.000868
0.001857 -6e-06 -0.001592
0.001839 -5e-06 -0.001609
0.001824 -6e-06 -0.001629
0.001496 -3.2e-05 -0.001466
0.001513 -3.2e-05 -0.001448
0.001709 -6e-06 -0.001757
0.001692 -6e-06 -0.001775
0.001676 -6e-06 -0.001794
0.001612 -7e-06 -0.001869
0.001594 -6e-06 -0.001885
0.001579 -7e-06 -0.001905
0.001547 -7e-06 -0.001942
0.001531 -7e-06 -0.001961
0.001529 -3.2e-05 -0.00143
0.001432 -7e-06 -0.002071
0.001415 -7e-06 -0.002089
0.001397 -6e-06 -0.002106
0.002193 -7e-06 -0.001132
0.002177 -7e-06 -0.00115
0.002158 -5e-06 -0.001167
0.002277 0.000676 -0.00103
0.002109 -6e-06 -0.001222
0.002091 -5e-06 -0.001239
0.002985 0.000518 0.000371
0.002895 0.000628 -0.000781
0.002539 0.000626 -0.001402
0.002284 0.000667 -0.00106
0.002495 0.000524 -0.001326
0.002614 0.000567 -0.000864
0.002655 0.000551 -0.000856
0.002581 0.000501 -0.001531
0.00191 -4e-06 -0.00144
0.001894 -5e-06 -0.001459
0.001878 -5e-06 -0.001478
0.002572 0.000665 -0.000871
0.002588 0.000503 -0.001508
0.002396 0.000658 -0.000868
0.00181 -4e-06 -0.00155
0.001793 -3e-06 -0.001567
