-0.002597 0.000746 -7.2e-05
-0.002915 0.00062 -0.000612
-0.002925 0.000614 -0.000639
-0.00259 0.000677 -0.000903
-0.002887 0.000526 -0.000584
-0.00247 0.000716 -0.000204
-0.002787 0.000469 -0.000496
-0.002035 -3.3e-05 0.000562
-0.00268 0.000505 -0.000889
-0.00291 0.000612 8.4e-05
-0.002977 0.000105 0.000133
-0.002986 0.0001 0.000158
-0.002988 9.8e-05 0.000183
-0.002989 9.6e-05 0.000208
-0.002988 9.4e-05 0.000232
-0.002986 9.4e-05 0.000257
-0.002983 9.3e-05 0.000281
-0.002979 9.4e-05 0.000306
-0.002973 9.5e-05 0.00033
-0.002965 9.7e-05 0.000353
-0.002946 0.000104 0.000375
-0.002905 0.000122 0.000394
-0.002863 0.00014 0.000413
-0.002819 0.000159 0.000431
-0.002773 0.000178 0.000449
-0.002727 0.000199 0.000467
-0.002676 0.000221 0.000484
-0.002403 0.000338 0.000617
-0.002399 0.000338 0.000641
-0.002399 0.000336 0.000666
-0.002403 0.000333 0.000692
-0.002413 0.000326 0.000718
-0.002434 0.000314 0.000746
-0.002472 0.000295 0.000777
-0.002513 0.000274 0.000808
-0.002551 0.000254 0.000839
-0.002586 0.000236 0.000869
-0.00262 0.000218 0.000899
-0.002644 0.000205 0.000928
-0.002671 0.000191 0.000956
-0.002696 0.000178 0.000984
-0.001845 0.00071 -0.001941
-0.002735 0.000659 -1.6e-05
-0.002879 0.000652 6.4e-05
-0.002753 0.000677 -0.000466
-0.00276 0.000611 -0.000872
-0.002925 0.000503 -0.000663
-0.002474 0.000716 -0.00018
-0.002914 0.000397 -0.000712
-0.002123 0.000741 -0.001692
-0.002799 0.000624 -0.000863
-0.002916 0.000672 -0.000637
-0.002978 7.7e-05 0.000156
-0.00298 7.4e-05 0.000181
-0.002981 7.2e-05 0.000206
-0.00298 7.1e-05 0.000231
-0.002978 7e-05 0.000256
-0.002975 7e-05 0.00028
-0.002971 7e-05 0.000304
-0.002965 7.1e-05 0.000329
-0.002957 7.3e-05 0.000352
-0.002942 7.9e-05 0.000375
-0.002906 9.4e-05 0.000394
-0.002863 0.000112 0.000413
-0.002818 0.000132 0.000431
-0.002773 0.000152 0.000449
-0.002726 0.000172 0.000467
-0.002677 0.000193 0.000484
-0.00241 0.000309 0.000593
-0.002403 0.000311 0.000617
-0.002399 0.000311 0.000641
-0.002399 0.000309 0.000666
-0.002402 0.000306 0.000692
-0.002413 0.000299 0.000718
-0.002434 0.000287 0.000746
-0.002472 0.000268 0.000777
-0.002514 0.000246 0.000808
-0.00255 0.000228 0.000839
-0.002589 0.000207 0.00087
-0.002619 0.000191 0.000899
-0.002646 0.000177 0.000928
-0.002671 0.000164 0.000956
-0.002697 0.000151 0.000983
-0.002539 0.000725 -0.000907
-0.002845 0.000612 4.3e-05
-0.002717 0.000695 -0.000437
-0.002912 0.000666 8.2e-05
-0.002735 0.000714 -1.6e-05
-0.002837 0.00061 -0.000853
-0.002497 0.000717 -0.001617
-0.002556 0.000512 -0.001562
-0.002474 0.000742 -0.00018
-0.002716 0.000614 -0.000436
-0.002942 0.000599 0.000103
-0.002967 5.5e-05 0.000155
-0.00297 5.2e-05 0.00018
-0.00297 5e-05 0.000205
-0.002969 4.9e-05 0.000229
-0.002967 4.8e-05 0.000254
-0.002964 4.8e-05 0.000278
-0.002959 4.9e-05 0.000303
-0.002954 4.9e-05 0.000327
-0.002946 5.1e-05 0.000351
-0.002934 5.6e-05 0.000374
-0.002905 6.7e-05 0.000394
-0.002863 8.5e-05 0.000413
-0.002818 0.000105 0.000431
-0.002773 0.000124 0.000449
-0.002726 0.000145 0.000467
-0.002678 0.000166 0.000484
-0.00241 0.000282 0.000593
-0.002403 0.000283 0.000617
-0.002399 0.000284 0.000641
-0.002398 0.000282 0.000666
-0.002402 0.000278 0.000692
-0.002413 0.000272 0.000718
-0.002434 0.00026 0.000747
-0.002472 0.000241 0.000777
-0.002514 0.000219 0.000808
-0.00255 0.0002 0.000839
-0.002591 0.000179 0.00087
-0.002619 0.000164 0.000899
-0.002646 0.00015 0.000928
-0.002672 0.000136 0.000956
-0.002696 0.000124 0.000983
-0.002308 0.000639 -0.00172
-0.002822 0.000587 -0.000525
-0.002969 0.00067 0.000125
-0.002918 0.000641 -0.000687
-0.00292 0.000586 -0.000688
-0.002942 0.000572 0.000104
-0.002886 0.000445 -0.000583
-0.002943 0.00049 0.000103
-0.002469 0.000687 -0.000229
-0.002854 0.000489 -0.000554
-0.002879 0.000598 6.4e-05
-0.002879 0.00068 6.2e-05
-0.002955 3.2e-05 0.000178
-0.002955 3e-05 0.000202
-0.002954 2.9e-05 0.000227
-0.002952 2.8e-05 0.000252
-0.002948 2.8e-05 0.000276
-0.002944 2.9e-05 0.0003
-0.002939 2.9e-05 0.000325
-0.002932 3.1e-05 0.000348
-0.002921 3.4e-05 0.000372
-0.0029 4.3e-05 0.000393
-0.002862 5.9e-05 0.000413
-0.002818 7.8e-05 0.000431
-0.002773 9.7e-05 0.000449
-0.002726 0.000118 0.000467
-0.00241 0.000255 0.000593
-0.002403 0.000256 0.000617
-0.002399 0.000256 0.000642
-0.002399 0.000255 0.000666
-0.002403 0.000251 0.000692
-0.002413 0.000245 0.000718
-0.002434 0.000233 0.000747
-0.002472 0.000213 0.000777
-0.002514 0.000192 0.000808
-0.002551 0.000173 0.000839
-0.002589 0.000153 0.00087
-0.00262 0.000137 0.000899
-0.002645 0.000123 0.000928
-0.002671 0.000109 0.000957
-0.002697 9.6e-05 0.000984
-0.002472 0.000634 -0.00018
-0.002855 0.000597 -0.000555
-0.002921 0.000641 -0.000663
-0.002913 0.000642 -0.000712
-0.00254 0.000651 -0.001582
-0.002539 0.000671 -0.000907
-0.002505 0.000504 -0.001431
-0.002039 -3.3e-05 0.000538
-0.002471 0.000657 -0.000254
-0.002689 0.000679 -3.5e-05
-0.0029 0.000644 -0.00076
-0.002936 1.4e-05 0.000175
-0.002935 1.2e-05 0.0002
-0.002934 1.1e-05 0.000224
-0.002932 1.1e-05 0.000249
-0.002928 1.1e-05 0.000273
-0.002924 1.1e-05 0.000297
-0.002919 1.1e-05 0.000322
-0.002913 1.3e-05 0.000346
-0.002903 1.5e-05 0.000369
-0.002888 2.1e-05 0.000392
-0.002859 3.3e-05 0.000412
-0.002816 5.2e-05 0.000431
-0.002773 7e-05 0.000449
-0.002727 9e-05 0.000467
-0.002044 -3.3e-05 0.000514
-0.002403 0.000229 0.000617
-0.002399 0.000229 0.000642
-0.002399 0.000228 0.000666
-0.002403 0.000224 0.000692
-0.002413 0.000217 0.000718
-0.002433 0.000206 0.000746
-0.002472 0.000186 0.000777
-0.002516 0.000164 0.000809
-0.002551 0.000146 0.000839
-0.002589 0.000126 0.00087
-0.002619 0.00011 0.000899
-0.002646 9.5e-05 0.000928
-0.002671 8.2e-05 0.000957
-0.002697 6.9e-05 0.000984
-0.002775 0.000561 3e-06
-0.002752 0.00065 -0.000466
-0.002912 0.000693 8.3e-05
-0.002922 0.000642 -0.000638
0.000843 -1.7e-05 0.002009
-0.002288 0.000659 -0.000957
-0.002811 0.000545 2.3e-05
-0.002914 0.000478 -0.000712
-0.002532 0.000432 -0.001605
-0.00292 0.000396 -0.000687
-0.002537 0.000746 -8.9e-05
-0.002887 0.000689 -0.000584
-0.002915 0.000671 -0.000662
-0.002895 0.000591 -0.000784
-0.002902 0.000705 -0.00066
-0.002902 -3e-06 0.000244
-0.002898 -3e-06 0.000269
-0.002894 -2e-06 0.000293
-0.002889 -2e-06 0.000317
-0.002884 -1e-06 0.000341
-0.002877 1e-06 0.000365
-0.002866 4e-06 0.000388
-0.002846 1.2e-05 0.00041
-0.002812 2.6e-05 0.00043
-0.002727 6.3e-05 0.000467
-0.002676 8.5e-05 0.000484
-0.002403 0.000202 0.000617
-0.002399 0.000202 0.000642
-0.002399 0.000201 0.000666
-0.002403 0.000197 0.000692
-0.002413 0.00019 0.000719
-0.002434 0.000179 0.000747
-0.002474 0.000158 0.000777
-0.002515 0.000137 0.000809
-0.00255 0.000119 0.000839
-0.002589 9.9e-05 0.00087
-0.00262 8.2e-05 0.000899
-0.002645 6.9e-05 0.000928
-0.002671 5.5e-05 0.000956
-0.002697 4.2e-05 0.000984
-0.002718 3e-05 0.001011
-0.002734 0.000578 -1.6e-05
-0.002811 0.000654 2.3e-05
-0.002823 0.000668 -0.000525
-0.002942 0.000681 0.000104
-0.002971 0.000614 0.000124
-0.00268 0.000642 -0.000889
-0.002716 0.000587 -0.000436
-0.002908 0.000479 -0.000736
-0.00286 3e-06 6.5e-05
-0.002864 -1e-06 8.9e-05
-0.002584 0.000617 -7e-05
-0.002508 0.00065 -0.00011
-0.002471 0.000684 -0.000254
-0.002289 0.00065 -0.001147
-0.002845 -5e-06 0.000261
-0.002842 -5e-06 0.000285
-0.002838 -5e-06 0.000309
-0.002833 -4e-06 0.000334
-0.00283 -5e-06 0.000358
-0.002824 -3e-06 0.000382
-0.002817 -2e-06 0.000406
-0.0028 5e-06 0.000428
-0.002768 1.8e-05 0.000448
-0.002725 3.7e-05 0.000467
-0.002677 5.7e-05 0.000484
-0.002599 9.2e-05 0.000498
-0.002403 0.000175 0.000617
-0.002399 0.000175 0.000642
-0.002399 0.000173 0.000666
-0.002404 0.000169 0.000692
-0.002413 0.000163 0.000719
-0.002435 0.000151 0.000747
-0.002473 0.000131 0.000777
-0.002514 0.00011 0.000809
-0.002552 9.1e-05 0.000839
-0.002591 7.1e-05 0.00087
-0.002619 5.5e-05 0.000899
-0.002647 4.1e-05 0.000928
-0.002671 2.8e-05 0.000956
-0.00269 1.7e-05 0.000984
-0.002705 8e-06 0.001011
-0.002679 0.00056 -0.000889
-0.002888 0.00058 -0.000584
-0.002919 0.000613 -0.000688
-0.002846 0.000721 4.3e-05
-0.002531 0.000596 -0.001605
-0.002919 0.000504 -0.000688
-0.002545 0.000637 -0.001502
-0.002813 -1e-06 3.2e-05
-0.002821 -7e-06 5.8e-05
-0.002822 -9e-06 8.3e-05
-0.002816 -8e-06 0.000107
-0.002048 -3.4e-05 0.000489
-0.002794 -8e-06 0.000253
-0.002789 -7e-06 0.000277
-0.002783 -6e-06 0.000301
-0.002778 -7e-06 0.00035
-0.002775 -7e-06 0.000375
-0.00277 -7e-06 0.000399
-0.002749 -0.0 0.000445
-0.002718 1.3e-05 0.000466
-0.002678 3e-05 0.000484
-0.002403 0.000148 0.000617
-0.002399 0.000148 0.000642
-0.002399 0.000146 0.000666
-0.002403 0.000142 0.000692
-0.002413 0.000136 0.000719
-0.002434 0.000124 0.000747
-0.002473 0.000104 0.000777
-0.002516 8.2e-05 0.000809
-0.002553 6.3e-05 0.000839
-0.002589 4.4e-05 0.00087
-0.002619 2.8e-05 0.000899
-0.002643 1.5e-05 0.000927
-0.002661 5e-06 0.000955
-0.00267 -1e-06 0.000982
-0.002672 -3e-06 0.001007
-0.002669 -4e-06 0.001031
-0.002544 0.000582 -0.001503
-0.002925 0.000558 -0.000663
-0.00288 0.000706 6.3e-05
-0.002809 0.000736 2.3e-05
-0.002844 0.000667 4.3e-05
-0.002914 0.000505 -0.000712
-0.002892 0.000597 -0.000794
-0.002256 0.000715 -0.001024
-0.002765 -6e-06 2.4e-05
-0.002761 -6e-06 4.9e-05
-0.002754 -6e-06 9.7e-05
-0.00275 -6e-06 0.000122
-0.002879 0.000571 6.4e-05
-0.002753 0.000487 -0.000466
-0.00274 -6e-06 0.000195
-0.002735 -5e-06 0.000219
-0.002731 -5e-06 0.000243
-0.002729 -6e-06 0.000268
-0.002053 -3.4e-05 0.000465
-0.002717 -6e-06 0.000341
-0.002716 -7e-06 0.000366
-0.002713 -7e-06 0.00039
-0.002056 -3.4e-05 0.000441
-0.002694 -3e-06 0.000462
-0.002666 8e-06 0.000483
-0.002403 0.000121 0.000617
-0.002399 0.000121 0.000642
-0.002399 0.000119 0.000666
-0.002403 0.000115 0.000692
-0.002414 0.000108 0.000719
-0.002434 9.7e-05 0.000747
-0.002469 7.9e-05 0.000777
-0.002516 5.5e-05 0.000809
-0.002551 3.7e-05 0.000839
-0.002589 1.7e-05 0.00087
-0.002611 5e-06 0.000898
-0.002624 -3e-06 0.000925
-0.002628 -6e-06 0.00095
-0.002624 -6e-06 0.000975
-0.002621 -6e-06 0.000999
-0.002621 -7e-06 0.001024
-0.002735 0.000605 -1.6e-05
-0.001889 0.000698 -0.002108
-0.002887 0.000662 -0.000584
-0.002824 0.000695 -0.000526
-0.002925 0.000585 -0.000663
-0.00248 0.000695 -0.000908
-0.002821 0.000479 -0.000525
-0.002836 0.000696 -0.00085
-0.002795 0.000713 -0.00087
-0.002713 -8e-06 1.6e-05
-0.002709 -8e-06 4.1e-05
-0.002903 0.000672 -0.000735
-0.002701 -8e-06 8.9e-05
-0.002699 -9e-06 0.000114
-0.002695 -9e-06 0.000138
-0.002846 0.000585 4.3e-05
-0.00269 -1e-05 0.000187
-0.002688 -1e-05 0.000212
-0.002685 -1e-05 0.000236
-0.002682 -1e-05 0.000261
-0.002651 -1e-05 0.000456
-0.002638 -6e-06 0.000478
-0.002409 9.2e-05 0.000593
-0.002403 9.3e-05 0.000617
-0.002399 9.4e-05 0.000642
-0.002398 9.2e-05 0.000666
-0.002402 8.8e-05 0.000692
-0.002414 8.1e-05 0.000719
-0.002434 7e-05 0.000747
-0.002467 5.2e-05 0.000777
-0.002516 2.8e-05 0.000809
-0.002554 8e-06 0.000839
-0.002574 -3e-06 0.000867
-0.00257 -6e-06 0.000942
-0.002566 -6e-06 0.000966
-0.002563 -7e-06 0.00099
-0.002911 0.000557 8.4e-05
-0.002877 0.000654 -0.000815
-0.002856 0.000678 -0.000555
-0.002913 0.000648 -0.000612
-0.002792 0.000633 -0.000866
-0.002584 0.000725 -7.1e-05
-0.002544 0.000474 -0.001502
-0.002661 -6e-06 -4e-05
-0.002895 0.000674 -0.000759
-0.002062 -3.5e-05 0.000417
-0.002065 -3.5e-05 0.000392
-0.002607 -8e-06 0.000324
-0.002604 -8e-06 0.000349
-0.002599 -8e-06 0.000373
-0.002594 -7e-06 0.000397
-0.002589 -6e-06 0.000421
-0.002585 -8e-06 0.00047
-0.002572 -3e-06 0.000493
-0.002408 6.5e-05 0.000593
-0.002402 6.7e-05 0.000617
-0.002398 6.7e-05 0.000642
-0.002398 6.5e-05 0.000666
-0.002402 6.1e-05 0.000692
-0.002413 5.4e-05 0.000719
-0.002433 4.3e-05 0.000746
-0.002523 -1.1e-05 0.000935
-0.00252 -1.2e-05 0.000959
-0.002514 -1.1e-05 0.000983
-0.002479 0.00066 -0.000156
-0.002908 0.000561 -0.000736
-0.00279 0.000712 -0.000496
-0.002753 0.000731 -0.000466
-0.002848 0.000608 -0.000849
-0.002591 0.000731 -0.000903
-0.002469 0.000714 -0.000229
-0.002606 -7e-06 -7.4e-05
-0.002608 -1e-05 -4.9e-05
-0.002069 -3.5e-05 0.000368
-0.002586 -7e-06 4.7e-05
-0.002583 -7e-06 7.2e-05
-0.002508 0.000704 -0.00011
-0.002536 0.000692 -8.9e-05
-0.002073 -3.5e-05 0.000343
-0.002076 -3.5e-05 0.000319
-0.00208 -3.5e-05 0.000295
-0.002084 -3.5e-05 0.00027
-0.002497 0.000642 -0.000307
-0.002556 -8e-06 0.000267
-0.002553 -8e-06 0.000291
-0.002549 -8e-06 0.000316
-0.002546 -8e-06 0.00034
-0.002543 -9e-06 0.000365
-0.00254 -9e-06 0.000389
-0.002536 -9e-06 0.000413
-0.002087 -3.5e-05 0.000246
-0.002528 -9e-06 0.000462
-0.002524 -8e-06 0.000486
-0.002418 3.5e-05 0.00057
-0.002408 3.8e-05 0.000593
-0.002401 4e-05 0.000617
-0.002398 4e-05 0.000642
-0.002398 3.8e-05 0.000666
-0.002402 3.4e-05 0.000692
-0.002413 2.7e-05 0.000719
-0.002436 1.4e-05 0.000747
-0.002475 -9e-06 0.000828
-0.002473 -1e-05 0.000852
-0.00209 -3.5e-05 0.000222
-0.002456 -9e-06 0.000949
-0.002453 -9e-06 0.000974
-0.002251 0.000712 -0.001049
-0.002823 0.000614 -0.000525
-0.002914 0.00056 -0.000712
-0.002717 0.000641 -0.000436
-0.002925 0.000531 -0.000663
-0.002928 0.000531 -0.000639
-0.002911 0.00053 8.3e-05
-0.002559 -1.3e-05 -8.1e-05
-0.002555 -1.2e-05 -5.7e-05
-0.002549 -1.1e-05 -3.3e-05
-0.002546 -1.1e-05 -9e-06
-0.002544 -1.2e-05 1.6e-05
-0.002541 -1.2e-05 4e-05
-0.002538 -1.2e-05 6.5e-05
-0.002491 0.00071 -0.000132
-0.002584 0.000671 -7.1e-05
-0.002093 -3.4e-05 0.000197
-0.002481 0.000651 -0.00028
-0.002536 0.000719 -8.9e-05
-0.002505 -1.3e-05 0.000284
-0.002501 -1.3e-05 0.000308
-0.002494 -1.1e-05 0.000332
-0.002491 -1.1e-05 0.000357
-0.002489 -1.2e-05 0.000381
-0.002489 -1.4e-05 0.000406
-0.002417 8e-06 0.00057
-0.002407 1.1e-05 0.000593
-0.002401 1.3e-05 0.000617
-0.002397 1.3e-05 0.000641
-0.002398 1.1e-05 0.000666
-0.002403 6e-06 0.000692
-0.002415 -1e-06 0.000719
-0.002431 -1e-05 0.000746
-0.002421 -1.1e-05 0.00082
-0.002417 -1.1e-05 0.000844
-0.002411 -9e-06 0.000868
-0.002096 -3.4e-05 0.000173
-0.002099 -3.4e-05 0.000148
-0.002399 -9e-06 0.000941
-0.002392 -8e-06 0.000965
-0.002925 0.000395 -0.000663
-0.002789 0.000631 -0.000496
-0.002916 0.000538 -0.000612
-0.002854 0.000462 -0.000554
-0.00249 0.000656 -0.000132
-0.002717 0.000532 -0.000436
-0.002943 0.000517 0.000103
-0.002102 -3.3e-05 0.000124
-0.002105 -3.3e-05 9.9e-05
-0.002494 -1.3e-05 -4.1e-05
-0.002491 -1.3e-05 -1.7e-05
-0.002487 -1.3e-05 7e-06
-0.00248 -1.1e-05 3.1e-05
-0.002475 -1.2e-05 8e-05
-0.002499 0.000668 -0.000308
-0.002462 -1.1e-05 0.000153
-0.002454 -9e-06 0.000177
-0.002452 -1e-05 0.000201
-0.002929 0.000449 -0.000639
-0.00244 -1e-05 0.000274
-0.002437 -1e-05 0.000299
-0.002435 -1e-05 0.000323
-0.00243 -1e-05 0.000348
-0.00243 -1.1e-05 0.000372
-0.002409 -1e-05 0.000494
-0.002408 -1.1e-05 0.000519
-0.002394 -9e-06 0.000591
-0.002391 -1e-05 0.000616
-0.002389 -1.1e-05 0.00064
-0.002386 -1.1e-05 0.000665
-0.002107 -3.2e-05 7.5e-05
-0.00237 -1.4e-05 0.000812
-0.002365 -1.3e-05 0.000836
-0.002361 -1.3e-05 0.00086
-0.00211 -3.2e-05 5e-05
-0.00248 0.000706 -0.00028
-0.002855 0.00057 -0.000555
-0.002926 0.000476 -0.000663
-0.002112 -3.1e-05 2.5e-05
-0.002427 -8e-06 -5.2e-05
-0.002425 -9e-06 -2.7e-05
-0.002417 -9e-06 2.2e-05
-0.002413 -9e-06 4.6e-05
-0.002411 -9e-06 7.1e-05
-0.002406 -9e-06 9.5e-05
-0.002469 0.00066 -0.000229
-0.002753 0.000514 -0.000466
-0.002395 -8e-06 0.000168
-0.002394 -1e-05 0.000193
-0.00239 -9e-06 0.000217
-0.002329 0.000649 -0.000922
-0.002558 0.000461 -0.001536
-0.002908 0.000452 -0.000736
-0.002376 -1e-05 0.000314
-0.002373 -1e-05 0.000339
-0.002368 -9e-06 0.000363
-0.00288 0.00072 -0.000583
-0.002354 -1e-05 0.000461
-0.00235 -9e-06 0.000485
-0.002335 -9e-06 0.000582
-0.002331 -9e-06 0.000607
-0.002327 -9e-06 0.000631
-0.002326 -1e-05 0.000656
-0.002301 -9e-06 0.000801
-0.0023 -1e-05 0.000826
-0.002297 -1e-05 0.000851
-0.002295 -1.1e-05 0.000875
-0.002293 -1.2e-05 0.0009
-0.002288 -1.1e-05 0.000924
-0.002285 -1.1e-05 0.000948
-0.002499 0.000695 -0.000308
-0.00292 0.000477 -0.000688
-0.002885 0.000418 -0.000583
-0.002811 0.0006 2.3e-05
-0.002774 0.000534 3e-06
-0.002383 -1.1e-05 -0.000133
-0.002384 -1.1e-05 -0.000108
-0.002507 0.000716 -0.001594
-0.002377 -1.2e-05 -5.9e-05
-0.002375 -1.3e-05 -3.4e-05
-0.002372 -1.3e-05 -1e-05
-0.002369 -1.3e-05 1.4e-05
-0.002368 -1.5e-05 3.9e-05
-0.002364 -1.4e-05 6.3e-05
-0.002361 -1.4e-05 8.8e-05
-0.00236 -1.6e-05 0.000113
-0.002788 0.000496 -0.000496
-0.002908 0.000671 -0.000711
-0.002349 -1.6e-05 0.000186
-0.002345 -1.6e-05 0.00021
-0.002508 0.000677 -0.00011
-0.002787 0.00055 -0.000496
-0.002263 0.000662 -0.001
-0.002283 -1.4e-05 0.000624
-0.002277 -1.4e-05 0.000648
-0.002272 -1.4e-05 0.000672
-0.002473 0.000661 -0.00018
-0.002254 -1.2e-05 0.000769
-0.00225 -1.2e-05 0.000794
-0.002244 -1.1e-05 0.000818
-0.00224 -1.1e-05 0.000842
-0.002235 -1e-05 0.000866
-0.00223 -9e-06 0.00089
-0.002228 -1e-05 0.000915
-0.002223 -9e-06 0.000939
-0.002536 0.000665 -8.9e-05
-0.00249 0.000629 -0.000132
-0.002354 -1.5e-05 -0.000262
-0.002352 -1.5e-05 -0.000237
-0.00235 -1.6e-05 -0.000213
-0.002348 -1.7e-05 -0.000188
-0.002345 -1.7e-05 -0.000164
-0.002341 -1.7e-05 -0.000139
-0.002334 -1.5e-05 -0.000115
-0.002416 0.000723 -0.000906
-0.002775 0.000615 3e-06
-0.002325 -1.6e-05 -4.2e-05
-0.002317 -1.4e-05 -1.8e-05
-0.002314 -1.5e-05 6e-06
-0.002305 -1.4e-05 5.5e-05
-0.002303 -1.4e-05 7.9e-05
-0.002471 0.00063 -0.000254
-0.002481 0.000624 -0.00028
-0.002496 0.000615 -0.000307
-0.002916 0.000402 -0.000612
-0.002266 -1.2e-05 0.000298
-0.002261 -1.2e-05 0.000322
-0.002258 -1.2e-05 0.000347
-0.002256 -1.3e-05 0.000371
-0.002251 -1.2e-05 0.000395
-0.002247 -1.2e-05 0.00042
-0.002892 0.000461 -0.000794
-0.002217 -1.5e-05 0.000664
-0.002205 -1.4e-05 0.000737
-0.002201 -1.4e-05 0.000761
-0.002196 -1.3e-05 0.000786
-0.002197 -1.6e-05 0.000811
-0.002183 -1.6e-05 0.000908
-0.002177 -1.5e-05 0.000932
-0.002171 -1.4e-05 0.000956
-0.002478 0.000676 -0.00167
-0.002297 -1.5e-05 -0.000271
-0.00229 -1.3e-05 -0.000247
-0.002284 -1.2e-05 -0.000223
-0.002279 -1.1e-05 -0.000199
-0.002275 -1.1e-05 -0.000174
-0.002272 -1.2e-05 -0.00015
-0.002271 -1.3e-05 -0.000125
-0.002886 0.000677 -0.000783
-0.002557 0.000457 -0.001562
-0.002253 -1.1e-05 -2.8e-05
-0.002637 0.000621 -5.3e-05
-0.002243 -1.1e-05 4.5e-05
-0.002836 0.000583 -0.000852
-0.00222 -9e-06 0.000166
-0.002214 -8e-06 0.00019
-0.002972 0.000506 0.000124
-0.002636 0.000648 -5.3e-05
-0.002202 -1.1e-05 0.000313
-0.002198 -1.1e-05 0.000337
-0.002194 -1.1e-05 0.000362
-0.002191 -1.1e-05 0.000386
-0.002187 -1.1e-05 0.000411
-0.002169 -9e-06 0.000507
-0.002168 -1e-05 0.000532
-0.002164 -1.1e-05 0.000556
-0.00216 -1e-05 0.000581
-0.002156 -1e-05 0.000605
-0.002155 -1.1e-05 0.00063
-0.002146 -1e-05 0.000678
-0.002145 -1.1e-05 0.000703
-0.002141 -1.1e-05 0.000727
-0.002138 -1.2e-05 0.000752
-0.002138 -1.3e-05 0.000777
-0.002887 0.000499 -0.000584
-0.002929 0.000476 -0.000639
-0.002125 -1.4e-05 0.000875
-0.002119 -1.3e-05 0.000899
-0.002117 -1.4e-05 0.000923
-0.002115 -1.4e-05 0.000948
-0.002883 0.000707 -0.000757
-0.002903 0.000706 -0.000636
-0.002504 0.000572 -0.001646
-0.002553 0.000622 -0.001561
-0.002223 -1e-05 -0.000232
-0.002222 -1.2e-05 -0.000207
-0.002216 -1.1e-05 -0.000183
-0.002212 -1.1e-05 -0.000159
-0.002209 -1.1e-05 -0.000134
-0.002845 0.000503 4.3e-05
-0.002537 0.000637 -8.9e-05
-0.002688 0.000653 -3.5e-05
-0.00249 0.000683 -0.000132
-0.002821 0.000506 -0.000525
-0.002264 0.000716 -0.001
-0.002187 -1.2e-05 3.7e-05
-0.002184 -1.3e-05 6.1e-05
-0.002472 0.000711 -0.000254
-0.00248 0.000714 -0.000156
-0.002916 0.000484 -0.000612
-0.002173 -1.4e-05 0.000159
-0.002171 -1.5e-05 0.000184
-0.002168 -1.5e-05 0.000208
-0.002854 0.000435 -0.000554
-0.001889 0.000563 -0.002107
-0.002898 0.000709 -0.00061
-0.002154 -1.5e-05 0.000306
-0.002149 -1.5e-05 0.00033
-0.002146 -1.5e-05 0.000354
-0.002142 -1.5e-05 0.000379
-0.002138 -1.5e-05 0.000403
-0.002134 -1.5e-05 0.000427
-0.00213 -1.5e-05 0.000452
-0.002126 -1.5e-05 0.000476
-0.002122 -1.4e-05 0.0005
-0.002117 -1.4e-05 0.000525
-0.002112 -1.3e-05 0.000549
-0.002109 -1.3e-05 0.000573
-0.002104 -1.3e-05 0.000597
-0.0021 -1.3e-05 0.000622
-0.002096 -1.2e-05 0.000646
-0.002091 -1.2e-05 0.00067
-0.002086 -1.1e-05 0.000694
-0.002083 -1.1e-05 0.000719
-0.002926 0.000449 -0.000663
-0.002058 -1e-05 0.000864
-0.002054 -1e-05 0.000889
-0.002053 -1.1e-05 0.000914
-0.002891 0.000705 -0.000734
-0.002874 0.00071 -0.000781
-0.002263 0.000576 -0.001714
-0.002846 0.000694 4.1e-05
-0.002811 0.000708 2.2e-05
-0.002942 0.000654 0.000103
-0.002754 0.000704 -0.000466
-0.002971 0.000642 0.000124
-0.00259 0.00065 -0.000903
-0.002584 0.000644 -7e-05
-0.002735 0.000632 -1.6e-05
-0.002637 0.000675 -5.3e-05
-0.002752 0.000569 -0.000466
-0.002908 0.000678 -0.000612
-0.002148 -2e-05 6e-06
-0.002147 -2.1e-05 3.1e-05
-0.002144 -2.1e-05 5.5e-05
-0.002141 -2.1e-05 8e-05
-0.002139 -2.2e-05 0.000104
-0.002136 -2.2e-05 0.000129
-0.002132 -2.2e-05 0.000153
-0.00213 -2.3e-05 0.000178
-0.002127 -2.3e-05 0.000202
-0.002124 -2.4e-05 0.000227
-0.00212 -2.3e-05 0.000251
-0.002117 -2.4e-05 0.000275
-0.002114 -2.4e-05 0.0003
-0.002109 -2.3e-05 0.000324
-0.002106 -2.4e-05 0.000348
-0.002101 -2.3e-05 0.000373
-0.002098 -2.3e-05 0.000397
-0.002095 -2.3e-05 0.000422
-0.00209 -2.3e-05 0.000446
-0.002086 -2.3e-05 0.00047
-0.002082 -2.3e-05 0.000494
-0.002077 -2.2e-05 0.000519
-0.002073 -2.2e-05 0.000543
-0.002068 -2.2e-05 0.000567
-0.002064 -2.1e-05 0.000591
-0.002059 -2e-05 0.000615
-0.002054 -2e-05 0.00064
-0.00205 -1.9e-05 0.000664
-0.002045 -1.9e-05 0.000688
-0.002008 -1.3e-05 0.000857
-0.002003 -1.3e-05 0.000881
-0.001998 -1.3e-05 0.000905
-0.002637 0.000566 -5.3e-05
-0.00269 0.000543 -3.5e-05
-0.002734 0.000524 -1.6e-05
-0.002775 0.000506 3e-06
-0.002811 0.000491 2.3e-05
-0.002846 0.000476 4.3e-05
-0.002879 0.000462 6.3e-05
-0.002911 0.000449 8.3e-05
-0.002943 0.000436 0.000103
-0.002799 0.000542 -0.000861
-0.002065 0.000739 -0.001676
-0.001935 0.000745 -0.00163
-0.002251 0.000685 -0.001049
-0.002274 0.000661 -0.000978
-0.002556 0.000539 -0.001562
-0.002892 0.000569 -0.000795
-0.002544 0.000567 -0.001584
-0.002351 0.00065 -0.001724
-0.002908 0.000371 -0.000736
-0.002914 0.000369 -0.000712
-0.00292 0.000368 -0.000687
-0.002926 0.000367 -0.000663
-0.002929 0.000367 -0.000639
-0.002916 0.000375 -0.000612
-0.002885 0.000391 -0.000583
-0.002854 0.000407 -0.000554
-0.00282 0.000425 -0.000525
-0.002787 0.000442 -0.000496
-0.002752 0.00046 -0.000466
-0.002717 0.000478 -0.000436
-0.002497 0.000588 -0.000307
-0.00248 0.000597 -0.00028
-0.002471 0.000603 -0.000254
-0.002468 0.000606 -0.000229
-0.002469 0.000607 -0.000204
-0.002472 0.000607 -0.00018
-0.002478 0.000606 -0.000156
-0.00249 0.000602 -0.000132
-0.002507 0.000595 -0.00011
-0.002535 0.000584 -8.9e-05
-0.002584 0.000562 -7e-05
-0.002637 0.000539 -5.3e-05
-0.002689 0.000516 -3.5e-05
-0.002734 0.000497 -1.6e-05
-0.002775 0.000479 3e-06
-0.002812 0.000463 2.3e-05
-0.002845 0.000449 4.4e-05
-0.002879 0.000435 6.3e-05
-0.002911 0.000422 8.3e-05
-0.002943 0.000408 0.000103
-0.00268 0.000587 -0.000889
-0.002899 0.000544 -0.000771
-0.001849 0.000735 -0.001944
-0.002251 0.000658 -0.001048
-0.001606 0.000698 -0.002371
-0.001872 0.000701 -0.002028
-0.002504 0.000545 -0.001646
-0.002484 0.000628 -0.001395
-0.002524 0.000625 -0.001467
-0.002888 0.000653 -0.000793
-0.002909 0.000343 -0.000736
-0.002915 0.000342 -0.000712
-0.002921 0.000341 -0.000688
-0.002926 0.00034 -0.000663
-0.002929 0.00034 -0.000639
-0.002917 0.000347 -0.000612
-0.002886 0.000364 -0.000583
-0.002854 0.00038 -0.000554
-0.002821 0.000397 -0.000525
-0.002787 0.000415 -0.000496
-0.002751 0.000433 -0.000466
-0.002717 0.000451 -0.000436
-0.002497 0.000561 -0.000307
-0.002479 0.00057 -0.00028
-0.002471 0.000576 -0.000254
-0.002468 0.000579 -0.000229
-0.002469 0.00058 -0.000204
-0.002472 0.00058 -0.00018
-0.002478 0.000579 -0.000156
-0.002489 0.000575 -0.000132
-0.002507 0.000568 -0.00011
-0.002535 0.000557 -8.9e-05
-0.002583 0.000536 -7e-05
-0.002638 0.000512 -5.3e-05
-0.002689 0.000489 -3.5e-05
-0.002734 0.00047 -1.6e-05
-0.002776 0.000451 3e-06
-0.002811 0.000436 2.3e-05
-0.002845 0.000422 4.3e-05
-0.002879 0.000408 6.3e-05
-0.002912 0.000394 8.3e-05
-0.002943 0.000381 0.000103
-0.002905 0.000546 -0.000746
-0.002892 0.000542 -0.000795
-0.002539 0.000562 -0.000907
-0.002482 0.000586 -0.000908
-0.002252 0.000652 -0.001076
-0.002867 0.000572 -0.000838
-0.002341 0.000727 -0.001197
-0.002463 0.000644 -0.001359
-0.00222 0.000565 -0.001709
-0.00268 0.000696 -0.000889
-0.002549 0.000651 -0.001559
-0.002909 0.000316 -0.000736
-0.002915 0.000315 -0.000712
-0.002921 0.000314 -0.000688
-0.002926 0.000313 -0.000663
-0.002929 0.000313 -0.000639
-0.002916 0.000321 -0.000612
-0.002886 0.000336 -0.000583
-0.002854 0.000353 -0.000554
-0.00282 0.00037 -0.000525
-0.002787 0.000387 -0.000496
-0.002752 0.000406 -0.000466
-0.002716 0.000424 -0.000436
-0.002675 0.000445 -0.000406
-0.002609 0.000478 -0.000372
-0.002537 0.000513 -0.000337
-0.002498 0.000533 -0.000307
-0.002479 0.000543 -0.00028
-0.002471 0.000549 -0.000254
-0.002468 0.000552 -0.000229
-0.002468 0.000553 -0.000204
-0.002472 0.000553 -0.00018
-0.002479 0.000551 -0.000156
-0.00249 0.000548 -0.000132
-0.002507 0.000541 -0.00011
-0.002536 0.000529 -8.9e-05
-0.002582 0.000509 -7e-05
-0.002638 0.000484 -5.3e-05
-0.002689 0.000462 -3.5e-05
-0.002735 0.000442 -1.6e-05
-0.002776 0.000424 3e-06
-0.002811 0.000409 2.3e-05
-0.002846 0.000395 4.3e-05
-0.002879 0.000381 6.4e-05
-0.002911 0.000367 8.3e-05
-0.002943 0.000354 0.000103
-0.002559 0.000434 -0.001536
-0.002545 0.000431 -0.001584
-0.002557 0.00043 -0.001562
-0.002264 0.000743 -0.001001
-0.002637 0.000658 -0.000897
-0.002558 0.00057 -0.001536
-0.00276 0.000638 -0.000873
-0.001916 0.000671 -0.002258
-0.002679 0.000723 -0.000889
-0.002902 0.00029 -0.00076
-0.002908 0.000289 -0.000736
-0.002914 0.000288 -0.000711
-0.00292 0.000287 -0.000687
-0.002925 0.000286 -0.000663
-0.002928 0.000286 -0.000639
-0.002916 0.000293 -0.000612
-0.002884 0.00031 -0.000583
-0.002854 0.000326 -0.000554
-0.00282 0.000343 -0.000525
-0.002787 0.00036 -0.000495
-0.002752 0.000378 -0.000466
-0.002716 0.000397 -0.000436
-0.002675 0.000418 -0.000406
-0.00261 0.00045 -0.000372
-0.002537 0.000486 -0.000337
-0.002497 0.000506 -0.000307
-0.002479 0.000516 -0.00028
-0.00247 0.000522 -0.000254
-0.002468 0.000525 -0.000229
-0.002469 0.000526 -0.000204
-0.002472 0.000526 -0.00018
-0.002479 0.000524 -0.000156
-0.00249 0.00052 -0.000132
-0.002507 0.000514 -0.00011
-0.002536 0.000502 -8.9e-05
-0.002582 0.000482 -7e-05
-0.00264 0.000456 -5.3e-05
-0.002688 0.000435 -3.5e-05
-0.002735 0.000414 -1.6e-05
-0.002776 0.000397 3e-06
-0.002811 0.000382 2.3e-05
-0.002845 0.000367 4.4e-05
-0.002879 0.000353 6.4e-05
-0.002911 0.00034 8.4e-05
-0.002943 0.000327 0.000103
-0.002973 0.000315 0.000124
-0.002506 0.000531 -0.001432
-0.002524 0.000516 -0.001467
-0.002386 0.000672 -0.001244
-0.002556 0.000566 -0.001562
-0.002485 0.000655 -0.001395
-0.002543 0.000622 -0.001583
-0.002526 0.000678 -0.001468
-0.002902 0.000263 -0.00076
-0.002908 0.000262 -0.000736
-0.002914 0.000261 -0.000711
-0.00292 0.00026 -0.000687
-0.002926 0.000258 -0.000663
-0.002928 0.000259 -0.000639
-0.002916 0.000266 -0.000612
-0.002885 0.000282 -0.000583
-0.002854 0.000299 -0.000554
-0.002821 0.000316 -0.000525
-0.002787 0.000333 -0.000495
-0.002752 0.000351 -0.000466
-0.002716 0.00037 -0.000436
-0.002675 0.000391 -0.000406
-0.002609 0.000423 -0.000372
-0.002497 0.000479 -0.000307
-0.002479 0.000489 -0.00028
-0.00247 0.000495 -0.000254
-0.002468 0.000498 -0.000228
-0.002468 0.000499 -0.000204
-0.002472 0.000499 -0.000179
-0.002479 0.000497 -0.000156
-0.00249 0.000493 -0.000132
-0.002508 0.000486 -0.00011
-0.002537 0.000474 -8.9e-05
-0.00258 0.000456 -7e-05
-0.002639 0.00043 -5.3e-05
-0.002688 0.000408 -3.5e-05
-0.002735 0.000387 -1.6e-05
-0.002775 0.00037 3e-06
-0.002814 0.000354 2.3e-05
-0.002846 0.00034 4.4e-05
-0.00288 0.000326 6.4e-05
-0.002911 0.000313 8.4e-05
-0.002943 0.0003 0.000104
-0.002973 0.000287 0.000124
-0.002721 0.000517 -0.00088
-0.002544 0.000501 -0.001502
-0.002387 0.000617 -0.001244
-0.002506 0.000612 -0.001432
-0.002558 0.000598 -0.001536
-0.001913 0.000683 -0.002223
-0.002392 0.000608 -0.001727
-0.002902 0.000236 -0.00076
-0.002909 0.000235 -0.000736
-0.002914 0.000233 -0.000711
-0.00292 0.000232 -0.000687
-0.002926 0.000231 -0.000663
-0.002928 0.000232 -0.000639
-0.002915 0.00024 -0.000612
-0.002884 0.000256 -0.000583
-0.002855 0.000271 -0.000554
-0.002821 0.000289 -0.000525
-0.002787 0.000306 -0.000495
-0.002752 0.000324 -0.000466
-0.002717 0.000342 -0.000436
-0.002497 0.000452 -0.000307
-0.002479 0.000462 -0.00028
-0.002471 0.000467 -0.000254
-0.002468 0.00047 -0.000228
-0.002468 0.000472 -0.000204
-0.002472 0.000472 -0.000179
-0.002478 0.00047 -0.000155
-0.00249 0.000466 -0.000132
-0.002508 0.000459 -0.00011
-0.002536 0.000448 -8.9e-05
-0.002582 0.000427 -7e-05
-0.002639 0.000402 -5.3e-05
-0.002688 0.000381 -3.5e-05
-0.002734 0.000361 -1.6e-05
-0.002775 0.000343 3e-06
-0.002812 0.000327 2.3e-05
-0.002847 0.000313 4.3e-05
-0.00288 0.000299 6.4e-05
-0.002911 0.000286 8.4e-05
-0.002943 0.000272 0.000104
-0.002973 0.00026 0.000125
-0.00268 0.000533 -0.000889
-0.002538 0.00059 -0.000907
-0.002518 0.000461 -0.001626
-0.002525 0.000597 -0.001467
-0.002555 0.000594 -0.001561
-0.001906 0.000696 -0.002185
-0.002895 0.00021 -0.000783
-0.002902 0.000209 -0.000759
-0.002908 0.000208 -0.000735
-0.002914 0.000206 -0.000711
-0.00292 0.000205 -0.000687
-0.002926 0.000204 -0.000663
-0.002927 0.000205 -0.000639
-0.002916 0.000212 -0.000612
-0.002884 0.000228 -0.000583
-0.002854 0.000244 -0.000554
-0.002821 0.000261 -0.000525
-0.002787 0.000279 -0.000495
-0.002752 0.000297 -0.000466
-0.002716 0.000315 -0.000436
-0.002497 0.000425 -0.000307
-0.002479 0.000434 -0.00028
-0.002471 0.00044 -0.000254
-0.002468 0.000443 -0.000228
-0.002468 0.000445 -0.000204
-0.002472 0.000445 -0.000179
-0.002478 0.000443 -0.000155
-0.00249 0.000439 -0.000132
-0.002508 0.000432 -0.00011
-0.002536 0.00042 -8.9e-05
-0.002584 0.0004 -7e-05
-0.00264 0.000374 -5.3e-05
-0.002688 0.000354 -3.5e-05
-0.002734 0.000334 -1.6e-05
-0.002776 0.000316 3e-06
-0.002812 0.0003 2.3e-05
-0.002846 0.000286 4.3e-05
-0.00288 0.000271 6.4e-05
-0.002911 0.000258 8.4e-05
-0.002943 0.000245 0.000104
-0.002972 0.000233 0.000124
-0.002905 0.000464 -0.000746
-0.00276 0.000584 -0.000871
-0.002539 0.000643 -0.000907
-0.002531 0.00046 -0.001605
-0.002799 0.000597 -0.000862
-0.002721 0.000653 -0.000881
-0.002485 0.000682 -0.001396
-0.002761 0.000692 -0.000873
-0.002895 0.000183 -0.000783
-0.002902 0.000182 -0.000759
-0.002908 0.000181 -0.000735
-0.002914 0.000179 -0.000711
-0.00292 0.000178 -0.000687
-0.002925 0.000177 -0.000663
-0.002927 0.000178 -0.000638
-0.002915 0.000185 -0.000612
-0.002885 0.000201 -0.000583
-0.002854 0.000217 -0.000554
-0.002821 0.000234 -0.000525
-0.002786 0.000252 -0.000495
-0.002753 0.000269 -0.000466
-0.002716 0.000288 -0.000436
-0.002496 0.000398 -0.000307
-0.002479 0.000407 -0.00028
-0.00247 0.000413 -0.000254
-0.002468 0.000416 -0.000228
-0.002468 0.000417 -0.000204
-0.002471 0.000417 -0.000179
-0.002478 0.000416 -0.000155
-0.00249 0.000412 -0.000132
-0.002508 0.000405 -0.00011
-0.002536 0.000393 -8.9e-05
-0.002585 0.000372 -7e-05
-0.002641 0.000347 -5.3e-05
-0.002687 0.000327 -3.4e-05
-0.002735 0.000306 -1.6e-05
-0.002775 0.000289 3e-06
-0.002811 0.000273 2.3e-05
-0.002847 0.000258 4.3e-05
-0.002879 0.000245 6.4e-05
-0.002911 0.000231 8.4e-05
-0.002944 0.000218 0.000104
-0.002972 0.000206 0.000124
-0.002259 0.000725 -0.001106
-0.002721 0.000598 -0.000881
-0.00268 0.000614 -0.000889
-0.002417 0.000614 -0.000907
-0.002518 0.00057 -0.001626
-0.002721 0.00068 -0.00088
-0.002463 0.000699 -0.001359
-0.002545 0.000664 -0.001503
-0.002895 0.000156 -0.000783
-0.002902 0.000155 -0.000759
-0.002908 0.000153 -0.000735
-0.002914 0.000152 -0.000711
-0.002919 0.000151 -0.000687
-0.002924 0.000151 -0.000663
-0.002925 0.000152 -0.000638
-0.002914 0.000158 -0.000612
-0.002885 0.000174 -0.000583
-0.002853 0.00019 -0.000554
-0.002822 0.000206 -0.000525
-0.002787 0.000225 -0.000495
-0.002752 0.000242 -0.000466
-0.002716 0.000261 -0.000436
-0.002111 -3e-05 -6e-06
-0.002496 0.00037 -0.000307
-0.002479 0.00038 -0.00028
-0.00247 0.000386 -0.000254
-0.002468 0.000389 -0.000228
-0.002468 0.00039 -0.000204
-0.002471 0.00039 -0.000179
-0.002479 0.000388 -0.000155
-0.00249 0.000384 -0.000132
-0.002508 0.000377 -0.00011
-0.002537 0.000366 -8.9e-05
-0.002584 0.000345 -7e-05
-0.00264 0.00032 -5.3e-05
-0.002688 0.000299 -3.5e-05
-0.002736 0.000278 -1.6e-05
-0.002775 0.000261 3e-06
-0.002812 0.000246 2.3e-05
-0.002847 0.000231 4.3e-05
-0.00288 0.000217 6.4e-05
-0.002911 0.000204 8.4e-05
-0.002943 0.000191 0.000104
-0.002972 0.000179 0.000125
-0.002336 0.000675 -0.001195
-0.002637 0.000631 -0.000897
-0.001909 0.000665 -0.002286
-0.002363 0.000663 -0.00091
-0.00268 0.000669 -0.000889
-0.002544 0.00061 -0.001502
-0.000427 0.000753 -0.002436
-0.002421 0.000682 -0.00172
-0.002351 0.000623 -0.001724
-0.0029 0.000128 -0.000759
-0.002907 0.000127 -0.000735
-0.002913 0.000126 -0.000711
-0.002917 0.000125 -0.000687
-0.002921 0.000125 -0.000663
-0.002922 0.000126 -0.000638
-0.002913 0.000132 -0.000612
-0.002884 0.000147 -0.000583
-0.002853 0.000163 -0.000554
-0.002822 0.000179 -0.000525
-0.002787 0.000197 -0.000495
-0.002752 0.000215 -0.000466
-0.002716 0.000234 -0.000436
-0.002675 0.000255 -0.000406
-0.002608 0.000287 -0.000372
-0.002529 0.000326 -0.000336
-0.002497 0.000343 -0.000307
-0.002478 0.000353 -0.00028
-0.002471 0.000359 -0.000254
-0.002468 0.000362 -0.000228
-0.002468 0.000363 -0.000204
-0.002471 0.000363 -0.000179
-0.002479 0.000361 -0.000155
-0.00249 0.000357 -0.000132
-0.002508 0.00035 -0.00011
-0.002537 0.000339 -8.9e-05
-0.002584 0.000318 -7e-05
-0.002641 0.000292 -5.3e-05
-0.002688 0.000272 -3.4e-05
-0.002737 0.000251 -1.6e-05
-0.002775 0.000234 3e-06
-0.002812 0.000218 2.3e-05
-0.002846 0.000204 4.4e-05
-0.002879 0.00019 6.4e-05
-0.002911 0.000177 8.4e-05
-0.002943 0.000164 0.000104
-0.002972 0.000152 0.000125
-0.002484 0.000493 -0.001395
-0.002505 0.000477 -0.001431
-0.002417 0.000641 -0.000907
-0.002255 0.000688 -0.001024
-0.002449 0.000647 -0.00171
-0.002882 0.000597 -0.000817
-0.00259 0.000704 -0.000903
-0.002525 0.000652 -0.001467
-0.001897 0.000684 -0.002147
-0.002897 0.000103 -0.000759
-0.002904 0.000101 -0.000735
-0.002909 0.0001 -0.000711
-0.002913 0.0001 -0.000686
-0.002916 0.0001 -0.000662
-0.002917 0.000101 -0.000637
-0.00291 0.000106 -0.000611
-0.002884 0.00012 -0.000583
-0.002852 0.000136 -0.000554
-0.002822 0.000152 -0.000525
-0.002787 0.00017 -0.000495
-0.002752 0.000188 -0.000466
-0.002716 0.000207 -0.000436
-0.002675 0.000227 -0.000406
-0.00253 0.000299 -0.000336
-0.002496 0.000316 -0.000307
-0.002479 0.000326 -0.00028
-0.00247 0.000331 -0.000254
-0.002468 0.000334 -0.000228
-0.002468 0.000336 -0.000204
-0.002471 0.000336 -0.000179
-0.002479 0.000334 -0.000155
-0.002491 0.00033 -0.000132
-0.002508 0.000323 -0.00011
-0.002537 0.000311 -8.9e-05
-0.002585 0.00029 -7e-05
-0.002642 0.000265 -5.3e-05
-0.002738 0.000223 -1.6e-05
-0.002774 0.000208 4e-06
-0.002812 0.000191 2.3e-05
-0.002846 0.000177 4.4e-05
-0.00288 0.000163 6.4e-05
-0.002912 0.000149 8.4e-05
-0.002943 0.000136 0.000104
-0.002972 0.000124 0.000125
-0.00247 0.00059 -0.001696
-0.001862 0.00069 -0.001987
-0.002109 -3.1e-05 -3e-05
-0.002481 0.000668 -0.000908
-0.002439 0.000607 -0.001321
-0.002883 0.000569 -0.000818
-0.002481 0.000722 -0.000908
-0.002388 0.000725 -0.001244
-0.002441 0.000715 -0.001322
-0.002553 0.000654 -0.001534
-0.00289 7.9e-05 -0.000758
-0.002897 7.7e-05 -0.000734
-0.002902 7.6e-05 -0.00071
-0.002906 7.6e-05 -0.000685
-0.002909 7.6e-05 -0.000661
-0.002909 7.8e-05 -0.000636
-0.002906 8.1e-05 -0.000611
-0.002883 9.3e-05 -0.000583
-0.002852 0.000109 -0.000554
-0.002821 0.000125 -0.000525
-0.002787 0.000143 -0.000495
-0.00275 0.000162 -0.000465
-0.002716 0.00018 -0.000436
-0.002675 0.0002 -0.000406
-0.002529 0.000272 -0.000336
-0.002496 0.000289 -0.000307
-0.002479 0.000299 -0.00028
-0.002471 0.000304 -0.000254
-0.002468 0.000307 -0.000228
-0.002468 0.000309 -0.000204
-0.002472 0.000309 -0.000179
-0.002479 0.000307 -0.000155
-0.002492 0.000302 -0.000132
-0.002508 0.000296 -0.00011
-0.002537 0.000284 -8.9e-05
-0.002584 0.000263 -7e-05
-0.002642 0.000238 -5.3e-05
-0.002687 0.000218 -3.4e-05
-0.002738 0.000196 -1.6e-05
-0.002774 0.000181 4e-06
-0.002813 0.000164 2.3e-05
-0.002847 0.000149 4.3e-05
-0.00288 0.000135 6.4e-05
-0.002912 0.000122 8.4e-05
-0.002943 0.000109 0.000104
-0.00297 9.8e-05 0.000126
-0.002982 9.4e-05 0.000149
-0.00199 0.000721 -0.001644
-0.002721 0.00049 -0.00088
-0.002417 0.000624 -0.001284
-0.002461 0.000591 -0.001358
-0.00244 0.000661 -0.001322
-0.002463 0.000672 -0.001359
-0.002556 0.000626 -0.001535
-0.002529 0.000651 -0.001604
-0.00288 5.6e-05 -0.000756
-0.002886 5.5e-05 -0.000732
-0.002892 5.4e-05 -0.000708
-0.002896 5.4e-05 -0.000684
-0.002898 5.4e-05 -0.000659
-0.0029 5.5e-05 -0.000635
-0.002897 5.8e-05 -0.00061
-0.002882 6.6e-05 -0.000583
-0.002851 8.2e-05 -0.000554
-0.002821 9.8e-05 -0.000525
-0.002786 0.000116 -0.000495
-0.002751 0.000134 -0.000465
-0.002715 0.000153 -0.000436
-0.002606 0.000207 -0.000371
-0.002528 0.000245 -0.000336
-0.002496 0.000262 -0.000307
-0.002479 0.000271 -0.00028
-0.002471 0.000277 -0.000254
-0.002468 0.00028 -0.000228
-0.002469 0.000281 -0.000204
-0.002472 0.000281 -0.000179
-0.002479 0.000279 -0.000155
-0.002491 0.000275 -0.000132
-0.002508 0.000269 -0.00011
-0.002536 0.000257 -8.8e-05
-0.002586 0.000236 -7e-05
-0.002642 0.000211 -5.3e-05
-0.002687 0.000191 -3.4e-05
-0.002737 0.000169 -1.6e-05
-0.002774 0.000153 4e-06
-0.002813 0.000137 2.3e-05
-0.002847 0.000122 4.4e-05
-0.00288 0.000108 6.4e-05
-0.002913 9.5e-05 8.4e-05
-0.002943 8.2e-05 0.000105
-0.002965 7.3e-05 0.000127
-0.002974 7.1e-05 0.000151
-0.002306 0.000682 -0.000938
-0.002545 0.000458 -0.001584
-0.002107 -3.2e-05 -5.5e-05
-0.002105 -3.2e-05 -8e-05
-0.002637 0.000577 -0.000897
-0.002424 0.000746 -0.00091
-0.002637 0.000685 -0.000897
-0.001815 0.000684 -0.001883
-0.002859 3.8e-05 -0.000778
-0.002866 3.6e-05 -0.000754
-0.002872 3.5e-05 -0.00073
-0.002877 3.4e-05 -0.000706
-0.002881 3.3e-05 -0.000682
-0.002884 3.3e-05 -0.000657
-0.002886 3.4e-05 -0.000633
-0.002884 3.7e-05 -0.000608
-0.002875 4.2e-05 -0.000582
-0.002851 5.5e-05 -0.000554
-0.00282 7.2e-05 -0.000524
-0.002785 9e-05 -0.000495
-0.00275 0.000108 -0.000465
-0.002715 0.000126 -0.000436
-0.002672 0.000148 -0.000405
-0.002609 0.000178 -0.000372
-0.002495 0.000235 -0.000307
-0.002478 0.000244 -0.00028
-0.00247 0.00025 -0.000254
-0.002468 0.000253 -0.000228
-0.002469 0.000254 -0.000204
-0.002472 0.000254 -0.000179
-0.00248 0.000252 -0.000156
-0.002491 0.000248 -0.000132
-0.002508 0.000242 -0.00011
-0.002537 0.00023 -8.9e-05
-0.002642 0.000183 -5.3e-05
-0.002688 0.000164 -3.4e-05
-0.002738 0.000142 -1.6e-05
-0.002775 0.000126 4e-06
-0.002813 0.00011 2.3e-05
-0.002846 9.6e-05 4.4e-05
-0.002881 8.1e-05 6.4e-05
-0.002913 6.7e-05 8.4e-05
-0.002941 5.6e-05 0.000105
-0.002956 5e-05 0.000128
-0.002963 4.8e-05 0.000152
-0.00259 0.000595 -0.000903
-0.002539 0.000617 -0.000907
-0.002102 -3.3e-05 -0.000104
-0.002387 0.000644 -0.001244
-0.002387 0.000698 -0.001244
-0.002506 0.000639 -0.001432
-0.002485 0.000709 -0.001396
-0.002841 1.9e-05 -0.000776
-0.002848 1.7e-05 -0.000752
-0.002854 1.6e-05 -0.000728
-0.002858 1.6e-05 -0.000704
-0.002862 1.5e-05 -0.000679
-0.002865 1.5e-05 -0.000655
-0.002867 1.6e-05 -0.00063
-0.002867 1.8e-05 -0.000605
-0.002862 2.2e-05 -0.00058
-0.002846 3e-05 -0.000553
-0.002817 4.6e-05 -0.000524
-0.002784 6.3e-05 -0.000495
-0.00275 8.1e-05 -0.000465
-0.002714 9.9e-05 -0.000436
-0.002671 0.00012 -0.000405
-0.002528 0.000191 -0.000336
-0.002496 0.000208 -0.000307
-0.002479 0.000217 -0.00028
-0.002471 0.000223 -0.000254
-0.002468 0.000226 -0.000228
-0.002469 0.000227 -0.000204
-0.002473 0.000227 -0.000179
-0.002479 0.000225 -0.000155
-0.002491 0.000221 -0.000132
-0.002508 0.000215 -0.00011
-0.002537 0.000202 -8.9e-05
-0.002588 0.00018 -7.1e-05
-0.00264 0.000157 -5.3e-05
-0.002688 0.000136 -3.4e-05
-0.002738 0.000114 -1.6e-05
-0.002775 9.9e-05 4e-06
-0.002813 8.2e-05 2.3e-05
-0.002846 6.8e-05 4.4e-05
-0.00288 5.4e-05 6.4e-05
-0.002911 4.1e-05 8.5e-05
-0.002932 3.3e-05 0.000107
-0.002942 2.9e-05 0.00013
-0.002949 2.8e-05 0.000154
-0.002899 0.000462 -0.00077
-0.002481 0.000641 -0.000908
-0.002099 -3.3e-05 -0.000129
-0.00248 0.000614 -0.000908
-0.002416 0.000678 -0.001284
-0.002544 0.000594 -0.001584
-0.00281 5e-06 -0.000797
-0.002817 3e-06 -0.000773
-0.002822 2e-06 -0.000748
-0.002827 2e-06 -0.000724
-0.002832 1e-06 -0.0007
-0.002835 1e-06 -0.000676
-0.002506 0.000694 -0.001432
-0.002841 1e-06 -0.000627
-0.002842 2e-06 -0.000602
-0.00284 5e-06 -0.000577
-0.002831 1e-05 -0.000551
-0.002813 2.1e-05 -0.000523
-0.002783 3.6e-05 -0.000495
-0.00275 5.3e-05 -0.000465
-0.002715 7.1e-05 -0.000436
-0.002496 0.00018 -0.000307
-0.002479 0.00019 -0.00028
-0.002471 0.000195 -0.000254
-0.002468 0.000199 -0.000228
-0.002469 0.0002 -0.000204
-0.002472 0.0002 -0.000179
-0.002479 0.000198 -0.000155
-0.002491 0.000194 -0.000132
-0.002508 0.000187 -0.000109
-0.002537 0.000175 -8.9e-05
-0.002587 0.000153 -7e-05
-0.002641 0.00013 -5.3e-05
-0.002689 0.000108 -3.5e-05
-0.002737 8.7e-05 -1.6e-05
-0.002775 7.1e-05 4e-06
-0.002812 5.6e-05 2.4e-05
-0.002845 4.2e-05 4.4e-05
-0.002877 2.8e-05 6.4e-05
-0.002902 1.8e-05 8.6e-05
-0.002915 1.3e-05 0.000109
-0.002924 1.1e-05 0.000133
-0.002928 1e-05 0.000157
-0.002415 0.000543 -0.001283
-0.002462 0.000509 -0.001358
-0.002439 0.000526 -0.001321
-0.002557 0.000484 -0.001562
-0.002484 0.000547 -0.001395
-0.00234 0.0007 -0.001196
-0.001883 0.000607 -0.002328
-0.002506 0.000667 -0.001432
-0.00277 -4e-06 -0.000791
-0.002774 -4e-06 -0.000767
-0.002779 -5e-06 -0.000743
-0.002783 -5e-06 -0.000718
-0.002784 -4e-06 -0.000694
-0.002787 -4e-06 -0.000669
-0.002441 0.000688 -0.001322
-0.002544 0.000447 -0.001502
-0.00226 0.000643 -0.001107
-0.0028 -4e-06 -0.000571
-0.0028 -2e-06 -0.000547
-0.002795 2e-06 -0.000521
-0.002776 1.2e-05 -0.000494
-0.002747 2.7e-05 -0.000465
-0.002715 4.4e-05 -0.000436
-0.002495 0.000154 -0.000307
-0.002479 0.000163 -0.00028
-0.002471 0.000168 -0.000254
-0.002468 0.000171 -0.000228
-0.002469 0.000173 -0.000204
-0.002472 0.000172 -0.000179
-0.002479 0.000171 -0.000155
-0.002491 0.000167 -0.000132
-0.002509 0.00016 -0.00011
-0.002538 0.000148 -8.9e-05
-0.002587 0.000126 -7e-05
-0.002641 0.000102 -5.3e-05
-0.002688 8.2e-05 -3.4e-05
-0.002738 6e-05 -1.6e-05
-0.002775 4.4e-05 4e-06
-0.00281 2.9e-05 2.4e-05
-0.002839 1.7e-05 4.4e-05
-0.002865 6e-06 6.5e-05
-0.002879 2e-06 8.9e-05
-0.002887 -0.0 0.000113
-0.002893 -2e-06 0.000137
-0.002897 -2e-06 0.000161
-0.002901 -2e-06 0.000186
-0.002904 -2e-06 0.00021
-0.002798 0.000515 -0.000861
-0.002761 0.000529 -0.000871
-0.002308 0.000737 -0.000941
-0.002275 0.000742 -0.000979
-0.002868 0.000463 -0.000838
-0.002461 0.000564 -0.001358
-0.00252 0.000715 -0.001573
-0.002716 -6e-06 -0.000784
-0.002721 -6e-06 -0.00076
-0.002724 -6e-06 -0.000735
-0.002728 -7e-06 -0.000711
-0.002732 -6e-06 -0.000687
-0.002735 -7e-06 -0.000662
-0.002417 0.000705 -0.001284
-0.002745 -8e-06 -0.000614
-0.002098 -3.4e-05 -0.000153
-0.002752 -4e-06 -0.00049
-0.002737 5e-06 -0.000464
-0.002712 1.8e-05 -0.000435
-0.002495 0.000127 -0.000307
-0.002479 0.000136 -0.00028
-0.002471 0.000141 -0.000254
-0.002468 0.000144 -0.000228
-0.002469 0.000145 -0.000204
-0.002472 0.000145 -0.000179
-0.002479 0.000144 -0.000155
-0.002492 0.000139 -0.000132
-0.00251 0.000132 -0.00011
-0.002538 0.00012 -8.9e-05
-0.002586 0.0001 -7e-05
-0.00264 7.6e-05 -5.3e-05
-0.00269 5.4e-05 -3.5e-05
-0.002738 3.3e-05 -1.6e-05
-0.002774 1.7e-05 4e-06
-0.002802 6e-06 2.5e-05
-0.002823 -2e-06 4.7e-05
-0.002838 -5e-06 0.000119
-0.00284 -4e-06 0.000144
-0.002846 -5e-06 0.000168
-0.002849 -5e-06 0.000193
-0.002851 -5e-06 0.000217
-0.002835 0.000501 -0.00085
-0.002721 0.000544 -0.00088
-0.002095 -3.4e-05 -0.000178
-0.00276 0.000475 -0.000871
-0.00189 0.000644 -0.002108
-0.002258 0.00073 -0.001079
-0.002484 0.000574 -0.001395
-0.002663 -8e-06 -0.000777
-0.002661 -6e-06 -0.000752
-0.002668 -7e-06 -0.000728
-0.00267 -7e-06 -0.000703
-0.002674 -7e-06 -0.000679
-0.002676 -6e-06 -0.000654
-0.002682 -6e-06 -0.000605
-0.002686 -6e-06 -0.000581
-0.002854 0.000687 -0.000832
-0.002691 -6e-06 -0.000532
-0.002696 -6e-06 -0.000508
-0.0027 -7e-06 -0.000483
-0.002701 -5e-06 -0.000459
-0.002695 -1e-06 -0.000433
-0.002668 1.3e-05 -0.000404
-0.002092 -3.4e-05 -0.000202
-0.002089 -3.4e-05 -0.000227
-0.002495 0.0001 -0.000306
-0.002478 0.000109 -0.00028
-0.00247 0.000114 -0.000253
-0.002468 0.000117 -0.000228
-0.002469 0.000118 -0.000204
-0.002472 0.000118 -0.000179
-0.002479 0.000116 -0.000155
-0.002491 0.000112 -0.000132
-0.00251 0.000105 -0.00011
-0.002538 9.3e-05 -8.9e-05
-0.002586 7.3e-05 -7e-05
-0.002641 4.8e-05 -5.3e-05
-0.002734 8e-06 -1.6e-05
-0.002757 -2e-06 6e-06
-0.002788 -8e-06 0.000126
-0.00279 -8e-06 0.000151
-0.002792 -7e-06 0.000175
-0.002801 -8e-06 0.000224
-0.002288 0.000686 -0.000957
-0.002274 0.000688 -0.000978
-0.002274 0.000715 -0.000978
-0.002584 -4e-06 -0.00089
-0.002588 -6e-06 -0.000866
-0.002591 -7e-06 -0.000841
-0.002529 0.000716 -0.00155
-0.002255 0.000737 -0.00105
-0.002607 -7e-06 -0.000744
-0.002613 -9e-06 -0.00072
-0.002615 -8e-06 -0.000696
-0.002619 -8e-06 -0.000671
-0.002623 -9e-06 -0.000647
-0.002628 -9e-06 -0.000623
-0.001105 0.00062 -0.002551
-0.002635 -1e-05 -0.000574
-0.002351 0.000514 -0.001724
-0.002643 -1e-05 -0.000525
-0.002647 -1e-05 -0.000501
-0.00265 -1e-05 -0.000477
-0.002654 -1e-05 -0.000452
-0.002655 -9e-06 -0.000428
-0.002647 -4e-06 -0.000402
-0.002494 7.3e-05 -0.000306
-0.002478 8.2e-05 -0.00028
-0.00247 8.7e-05 -0.000253
-0.002467 9e-05 -0.000228
-0.002468 9.1e-05 -0.000203
-0.002472 9.1e-05 -0.000179
-0.002479 8.9e-05 -0.000155
-0.00249 8.6e-05 -0.000132
-0.002509 7.8e-05 -0.00011
-0.002537 6.7e-05 -8.8e-05
-0.002585 4.6e-05 -7e-05
-0.002709 -8e-06 -1.2e-05
-0.002717 -7e-06 6.1e-05
-0.002719 -6e-06 8.6e-05
-0.002085 -3.4e-05 -0.000251
-0.002725 -7e-06 0.000135
-0.002728 -6e-06 0.000159
-0.002731 -6e-06 0.000184
-0.00244 0.000553 -0.001321
-0.002341 0.000619 -0.001196
-0.002525 -7e-06 -0.000907
-0.002537 -1.1e-05 -0.000884
-0.002543 -1.2e-05 -0.00086
-0.002544 -1.1e-05 -0.000835
-0.002547 -1.1e-05 -0.000811
-0.002551 -1.1e-05 -0.000786
-0.002309 0.000558 -0.00172
-0.00256 -9e-06 -0.000688
-0.002564 -9e-06 -0.000664
-0.002567 -9e-06 -0.000639
-0.00257 -9e-06 -0.000615
-0.002509 0.000683 -0.001622
-0.002119 0.000662 -0.001689
-0.002082 -3.4e-05 -0.000275
-0.002594 -6e-06 -0.000394
-0.002589 -3e-06 -0.000369
-0.002493 4.6e-05 -0.000306
-0.002477 5.5e-05 -0.000279
-0.002469 6e-05 -0.000253
-0.002467 6.3e-05 -0.000228
-0.002468 6.4e-05 -0.000203
-0.002472 6.4e-05 -0.000179
-0.002478 6.3e-05 -0.000155
-0.00249 5.9e-05 -0.000132
-0.002509 5.1e-05 -0.000109
-0.002537 3.9e-05 -8.8e-05
-0.002665 -1e-05 6.8e-05
-0.002667 -9e-06 9.3e-05
-0.002415 0.00057 -0.001283
-0.002461 0.000536 -0.001358
-0.002476 -1.1e-05 -0.0009
-0.002474 -9e-06 -0.000875
-0.002479 -8e-06 -0.000826
-0.002479 -6e-06 -0.000801
-0.002485 -7e-06 -0.000777
-0.002487 -7e-06 -0.000753
-0.002493 -8e-06 -0.000729
-0.002534 0.000718 -0.001525
-0.002502 -7e-06 -0.000655
-0.002505 -8e-06 -0.000631
-0.002508 -7e-06 -0.000606
-0.002512 -8e-06 -0.000582
-0.002078 -3.4e-05 -0.0003
-0.002868 0.000517 -0.000838
-0.002836 0.000528 -0.00085
-0.002075 -3.4e-05 -0.000324
-0.002071 -3.4e-05 -0.000348
-0.002537 -8e-06 -0.000412
-0.002539 -8e-06 -0.000387
-0.002542 -7e-06 -0.000363
-0.002494 1.8e-05 -0.000306
-0.002477 2.8e-05 -0.000279
-0.002469 3.3e-05 -0.000253
-0.002466 3.6e-05 -0.000228
-0.002467 3.7e-05 -0.000203
-0.002471 3.7e-05 -0.000179
-0.002479 3.6e-05 -0.000155
-0.00249 3.1e-05 -0.000132
-0.002508 2.4e-05 -0.000109
-0.002538 1.2e-05 -8.9e-05
-0.002067 -3.4e-05 -0.000373
-0.002602 -7e-06 7.7e-05
-0.002606 -7e-06 0.000101
-0.00261 -8e-06 0.000126
-0.002611 -7e-06 0.00015
-0.002616 -8e-06 0.000174
-0.002625 -9e-06 0.000223
-0.002629 -9e-06 0.000247
