0.00224 0.000586 -0.001012
0.002231 0.000585 -0.001035
0.002225 0.000583 -0.001059
0.002223 0.000578 -0.001086
0.002229 0.000569 -0.001116
0.002246 0.000555 -0.001152
0.002375 0.000472 -0.001296
0.002408 0.000449 -0.001339
0.002433 0.000431 -0.001379
0.002455 0.000414 -0.001416
0.002474 0.000399 -0.001453
0.002496 0.000382 -0.001491
0.002513 0.000368 -0.001526
0.002529 0.000354 -0.001561
0.002537 0.000344 -0.001592
0.002529 0.000343 -0.001616
0.002516 0.000344 -0.001637
0.002502 0.000346 -0.001658
0.002488 0.000348 -0.001679
0.002725 0.000603 -0.000491
0.0028 0.000646 -0.000553
0.002816 0.000706 -7e-06
0.002904 0.000665 -0.000745
0.002901 0.000327 -0.000784
0.002894 0.000325 -0.000808
0.002887 0.000323 -0.000832
0.002879 0.000322 -0.000855
0.00286 0.000326 -0.000873
0.002826 0.000338 -0.000884
0.002788 0.000352 -0.000893
0.00275 0.000367 -0.000902
0.00271 0.000382 -0.00091
0.00267 0.000397 -0.000918
0.002627 0.000414 -0.000925
0.002585 0.00043 -0.000932
0.002542 0.000447 -0.000939
0.002349 0.00053 -0.000928
0.00231 0.000544 -0.000937
0.002285 0.000552 -0.000952
0.002266 0.000556 -0.00097
0.002251 0.000559 -0.00099
0.002239 0.000559 -0.001012
0.002231 0.000558 -0.001035
0.002225 0.000555 -0.001059
0.002223 0.000551 -0.001086
0.002229 0.000542 -0.001116
0.002246 0.000528 -0.001152
0.002376 0.000444 -0.001296
0.002409 0.000422 -0.00134
0.002433 0.000404 -0.001378
0.002455 0.000387 -0.001416
0.002475 0.000371 -0.001453
0.002496 0.000355 -0.001491
0.002513 0.000341 -0.001526
0.002529 0.000327 -0.001561
0.002537 0.000317 -0.001593
0.002529 0.000316 -0.001616
0.002515 0.000317 -0.001637
0.002502 0.000319 -0.001658
0.002452 0.000722 -0.000221
0.002816 0.00068 -6e-06
0.002909 0.000636 -0.000746
0.002908 0.000665 -0.000721
0.0029 0.0003 -0.000783
0.002894 0.000298 -0.000807
0.002887 0.000296 -0.000831
0.002879 0.000295 -0.000855
0.00286 0.000299 -0.000873
0.002826 0.000311 -0.000884
0.002788 0.000325 -0.000893
0.00275 0.000339 -0.000902
0.002709 0.000355 -0.00091
0.002669 0.00037 -0.000918
0.002628 0.000386 -0.000925
0.002585 0.000402 -0.000932
0.002542 0.000419 -0.000939
0.002482 0.000445 -0.000937
0.002348 0.000503 -0.000927
0.002311 0.000517 -0.000937
0.002285 0.000525 -0.000952
0.002265 0.000529 -0.00097
0.002251 0.000532 -0.00099
0.002239 0.000532 -0.001012
0.002231 0.000531 -0.001035
0.002225 0.000528 -0.001059
0.002224 0.000523 -0.001086
0.002229 0.000515 -0.001116
0.002245 0.000501 -0.001151
0.002336 0.000444 -0.001249
0.002375 0.000417 -0.001296
0.002409 0.000395 -0.001339
0.002433 0.000376 -0.001379
0.002455 0.00036 -0.001416
0.002475 0.000344 -0.001453
0.002496 0.000327 -0.001491
0.002513 0.000313 -0.001526
0.002529 0.0003 -0.001561
0.002537 0.00029 -0.001593
0.002528 0.000289 -0.001616
0.002515 0.00029 -0.001637
0.002502 0.000292 -0.001658
0.002968 0.000638 0.00032
0.002864 0.000639 -0.000614
0.002816 0.000734 -6e-06
0.002907 0.000669 -0.000671
0.0029 0.000272 -0.000783
0.002894 0.000271 -0.000807
0.002887 0.000269 -0.000832
0.002879 0.000267 -0.000855
0.00286 0.000272 -0.000873
0.002826 0.000284 -0.000884
0.002787 0.000298 -0.000893
0.002749 0.000312 -0.000902
0.002709 0.000328 -0.00091
0.002669 0.000343 -0.000918
0.002628 0.000359 -0.000926
0.002585 0.000375 -0.000932
0.002541 0.000393 -0.000938
0.002481 0.000418 -0.000937
0.002345 0.000477 -0.000926
0.002311 0.00049 -0.000937
0.002285 0.000498 -0.000952
0.002265 0.000502 -0.00097
0.002251 0.000504 -0.00099
0.002239 0.000505 -0.001012
0.00223 0.000504 -0.001035
0.002225 0.000501 -0.001059
0.002224 0.000496 -0.001086
0.002229 0.000488 -0.001116
0.002245 0.000474 -0.001151
0.002336 0.000416 -0.00125
0.002376 0.00039 -0.001296
0.002408 0.000368 -0.001339
0.002434 0.000349 -0.001379
0.002456 0.000332 -0.001417
0.002475 0.000317 -0.001454
0.002496 0.0003 -0.001491
0.002513 0.000286 -0.001526
0.002528 0.000273 -0.001561
0.002537 0.000263 -0.001593
0.002529 0.000262 -0.001616
0.002516 0.000263 -0.001637
0.002502 0.000265 -0.001658
0.002488 0.000266 -0.001679
0.002947 0.000516 7.1e-05
0.002918 0.000608 -0.000698
0.002851 0.000719 1.3e-05
0.002911 0.000666 -0.000696
0.002901 0.000245 -0.000784
0.002894 0.000243 -0.000808
0.002887 0.000241 -0.000832
0.002878 0.000241 -0.000855
0.002859 0.000245 -0.000873
0.002826 0.000257 -0.000884
0.002787 0.000271 -0.000893
0.002749 0.000285 -0.000902
0.00271 0.0003 -0.00091
0.002669 0.000316 -0.000918
0.002628 0.000331 -0.000926
0.002584 0.000349 -0.000932
0.002347 0.000449 -0.000927
0.002311 0.000462 -0.000937
0.002285 0.00047 -0.000952
0.002265 0.000475 -0.00097
0.002251 0.000477 -0.00099
0.002239 0.000478 -0.001012
0.00223 0.000477 -0.001035
0.002225 0.000474 -0.001059
0.002224 0.000469 -0.001086
0.002229 0.000461 -0.001116
0.002246 0.000447 -0.001152
0.002376 0.000363 -0.001297
0.002408 0.000341 -0.001339
0.002435 0.000321 -0.001379
0.002456 0.000305 -0.001417
0.002477 0.000289 -0.001454
0.002495 0.000274 -0.00149
0.002513 0.000259 -0.001527
0.002529 0.000245 -0.001561
0.002536 0.000236 -0.001592
0.002529 0.000234 -0.001616
0.002516 0.000236 -0.001637
0.002502 0.000237 -0.001658
0.002488 0.000239 -0.001679
0.002947 0.00057 7.1e-05
0.002746 0.000709 -4.7e-05
0.002903 0.000637 -0.00077
0.002639 0.000705 0.000874
0.002864 0.000693 -0.000614
0.002894 0.000216 -0.000808
0.002887 0.000214 -0.000831
0.002878 0.000214 -0.000854
0.002859 0.000218 -0.000873
0.002826 0.000229 -0.000884
0.002788 0.000244 -0.000893
0.002749 0.000258 -0.000902
0.00271 0.000273 -0.00091
0.002669 0.000289 -0.000918
0.002628 0.000304 -0.000926
0.002584 0.000321 -0.000932
0.002541 0.000338 -0.000939
0.00248 0.000364 -0.000936
0.002417 0.000392 -0.000933
0.002349 0.000421 -0.000928
0.002311 0.000435 -0.000937
0.002285 0.000443 -0.000952
0.002265 0.000448 -0.00097
0.002251 0.00045 -0.00099
0.002239 0.00045 -0.001012
0.00223 0.000449 -0.001035
0.002225 0.000447 -0.001059
0.002224 0.000442 -0.001086
0.002229 0.000433 -0.001116
0.002247 0.000419 -0.001152
0.002295 0.000388 -0.001203
0.002337 0.000361 -0.00125
0.002377 0.000335 -0.001297
0.002408 0.000314 -0.001339
0.002434 0.000295 -0.001379
0.002456 0.000278 -0.001417
0.002476 0.000262 -0.001454
0.002496 0.000246 -0.001491
0.002513 0.000232 -0.001527
0.002529 0.000218 -0.001561
0.002536 0.000209 -0.001592
0.002528 0.000207 -0.001616
0.002515 0.000209 -0.001637
0.002502 0.00021 -0.001658
0.002458 0.000741 -0.000297
0.002914 0.000584 -0.000672
0.002726 0.000712 -0.000491
0.002885 0.000705 3.2e-05
0.002891 0.000679 -0.000643
0.002894 0.000189 -0.000808
0.002886 0.000187 -0.000831
0.002877 0.000187 -0.000854
0.002859 0.000191 -0.000873
0.002826 0.000202 -0.000884
0.002787 0.000217 -0.000893
0.00275 0.000231 -0.000902
0.002709 0.000246 -0.00091
0.002669 0.000261 -0.000918
0.002628 0.000277 -0.000925
0.002585 0.000294 -0.000932
0.002541 0.000311 -0.000938
0.002483 0.000336 -0.000938
0.002416 0.000365 -0.000933
0.002349 0.000394 -0.000928
0.002311 0.000408 -0.000937
0.002285 0.000416 -0.000952
0.002266 0.000421 -0.00097
0.00225 0.000423 -0.00099
0.002239 0.000423 -0.001012
0.00223 0.000422 -0.001035
0.002224 0.00042 -0.001059
0.002224 0.000415 -0.001086
0.00223 0.000406 -0.001117
0.002248 0.000391 -0.001153
0.002294 0.000362 -0.001202
0.002337 0.000334 -0.00125
0.002377 0.000308 -0.001297
0.002409 0.000286 -0.00134
0.002434 0.000268 -0.001379
0.002456 0.000251 -0.001417
0.002477 0.000234 -0.001454
0.002496 0.000219 -0.001491
0.002515 0.000204 -0.001527
0.002529 0.000191 -0.001561
0.002535 0.000182 -0.001592
0.002528 0.000181 -0.001615
0.002515 0.000181 -0.001637
0.002502 0.000183 -0.001658
0.002864 0.000503 -0.000614
0.00285 0.000638 1.3e-05
0.002933 0.000599 0.00034
0.002892 0.000644 0.00036
0.0029 0.000164 -0.000783
0.002893 0.000162 -0.000807
0.002886 0.000161 -0.000831
0.002875 0.00016 -0.000853
0.002858 0.000164 -0.000872
0.002825 0.000175 -0.000884
0.002788 0.000189 -0.000893
0.002749 0.000204 -0.000902
0.00271 0.000219 -0.00091
0.00267 0.000234 -0.000918
0.002627 0.00025 -0.000925
0.002585 0.000267 -0.000932
0.002541 0.000284 -0.000938
0.002482 0.000309 -0.000937
0.002346 0.000368 -0.000926
0.002311 0.000381 -0.000937
0.002285 0.000389 -0.000952
0.002266 0.000393 -0.00097
0.002251 0.000396 -0.00099
0.002239 0.000396 -0.001012
0.00223 0.000395 -0.001035
0.002225 0.000393 -0.001059
0.002224 0.000387 -0.001086
0.002229 0.000379 -0.001116
0.002247 0.000364 -0.001152
0.002291 0.000336 -0.001201
0.002377 0.000281 -0.001297
0.002409 0.000259 -0.00134
0.002434 0.00024 -0.001379
0.002456 0.000223 -0.001417
0.002476 0.000207 -0.001454
0.002496 0.000192 -0.001491
0.002514 0.000177 -0.001527
0.002529 0.000163 -0.001562
0.002534 0.000156 -0.001591
0.002526 0.000154 -0.001615
0.002514 0.000155 -0.001637
0.002501 0.000156 -0.001658
0.002998 0.00055 0.000113
0.002679 0.000681 -0.000458
0.002851 0.000665 1.3e-05
0.002933 0.000626 0.00034
0.0029 0.000137 -0.000783
0.002892 0.000135 -0.000807
0.002884 0.000135 -0.00083
0.002873 0.000135 -0.000852
0.002857 0.000137 -0.000872
0.002825 0.000148 -0.000884
0.002788 0.000162 -0.000893
0.002749 0.000176 -0.000902
0.002709 0.000192 -0.00091
0.00267 0.000207 -0.000918
0.002628 0.000223 -0.000926
0.002585 0.000239 -0.000932
0.002542 0.000256 -0.000939
0.002482 0.000282 -0.000937
0.002347 0.000341 -0.000927
0.002311 0.000354 -0.000937
0.002285 0.000362 -0.000952
0.002266 0.000366 -0.00097
0.002251 0.000368 -0.00099
0.002239 0.000369 -0.001012
0.002231 0.000368 -0.001035
0.002225 0.000365 -0.00106
0.002224 0.00036 -0.001087
0.00223 0.000352 -0.001117
0.002247 0.000337 -0.001152
0.002292 0.000308 -0.001202
0.002338 0.000279 -0.001251
0.002375 0.000254 -0.001296
0.002409 0.000231 -0.00134
0.002433 0.000213 -0.001379
0.002456 0.000196 -0.001417
0.002476 0.00018 -0.001454
0.002495 0.000165 -0.001491
0.002513 0.00015 -0.001527
0.002529 0.000136 -0.001562
0.002531 0.00013 -0.00159
0.002523 0.000128 -0.001614
0.002513 0.000129 -0.001636
0.0025 0.00013 -0.001657
0.002501 0.000706 -0.000129
0.002801 0.000618 -0.000553
0.002708 0.000725 -6.3e-05
0.002833 0.000683 -0.000584
0.002897 0.000111 -0.000782
0.002889 0.00011 -0.000805
0.00288 0.000109 -0.000828
0.002869 0.00011 -0.00085
0.002854 0.000112 -0.00087
0.002825 0.000121 -0.000884
0.002787 0.000135 -0.000893
0.002749 0.000149 -0.000902
0.002709 0.000165 -0.00091
0.002669 0.00018 -0.000918
0.002628 0.000196 -0.000925
0.002586 0.000212 -0.000933
0.002542 0.000229 -0.000939
0.002414 0.000284 -0.000932
0.002348 0.000313 -0.000928
0.00231 0.000327 -0.000937
0.002285 0.000334 -0.000952
0.002265 0.000339 -0.00097
0.002251 0.000341 -0.00099
0.002239 0.000341 -0.001012
0.00223 0.000341 -0.001035
0.002225 0.000338 -0.00106
0.002224 0.000333 -0.001087
0.00223 0.000325 -0.001117
0.002247 0.00031 -0.001152
0.002338 0.000252 -0.001251
0.002376 0.000227 -0.001297
0.002408 0.000205 -0.001339
0.002433 0.000186 -0.001379
0.002456 0.000169 -0.001417
0.002477 0.000153 -0.001455
0.002495 0.000138 -0.001491
0.002514 0.000122 -0.001527
0.002527 0.00011 -0.001561
0.002527 0.000105 -0.001588
0.002519 0.000103 -0.001611
0.002508 0.000103 -0.001634
0.002496 0.000104 -0.001655
0.002681 0.000653 -0.000459
0.002864 0.000585 -0.000614
0.00291 0.000581 -0.000746
0.002764 0.000719 -0.000522
0.002891 8.8e-05 -0.000779
0.002883 8.6e-05 -0.000802
0.002873 8.6e-05 -0.000825
0.002863 8.6e-05 -0.000847
0.002848 8.7e-05 -0.000868
0.002824 9.5e-05 -0.000883
0.002787 0.000108 -0.000893
0.002749 0.000123 -0.000902
0.002709 0.000137 -0.00091
0.002669 0.000153 -0.000918
0.002627 0.000169 -0.000925
0.002587 0.000184 -0.000933
0.002544 0.000201 -0.00094
0.002348 0.000286 -0.000928
0.00231 0.0003 -0.000937
0.002285 0.000307 -0.000952
0.002265 0.000312 -0.00097
0.002251 0.000314 -0.00099
0.00224 0.000314 -0.001012
0.002231 0.000313 -0.001035
0.002225 0.000311 -0.00106
0.002224 0.000306 -0.001087
0.00223 0.000297 -0.001117
0.002247 0.000283 -0.001152
0.002338 0.000225 -0.001251
0.002377 0.000199 -0.001297
0.002408 0.000178 -0.001339
0.002434 0.000159 -0.001379
0.002456 0.000142 -0.001417
0.002477 0.000125 -0.001455
0.002496 0.00011 -0.001491
0.002514 9.5e-05 -0.001527
0.002524 8.5e-05 -0.001559
0.002521 8.1e-05 -0.001585
0.002512 8e-05 -0.001608
0.002501 8e-05 -0.00163
0.002489 8.1e-05 -0.001652
0.002549 0.000719 -0.000387
0.002915 0.000557 -0.000672
0.002904 0.000582 -0.00077
0.002888 0.00064 -0.000818
0.002899 0.000666 -0.000769
0.002883 0.000669 -0.000817
0.002864 6.3e-05 -0.000821
0.002854 6.3e-05 -0.000843
0.00284 6.4e-05 -0.000864
0.002821 6.9e-05 -0.000882
0.002787 8.1e-05 -0.000893
0.002748 9.5e-05 -0.000902
0.002709 0.000111 -0.00091
0.002669 0.000126 -0.000918
0.002628 0.000141 -0.000926
0.002586 0.000157 -0.000933
0.002541 0.000175 -0.000939
0.00248 0.000201 -0.000936
0.002347 0.000259 -0.000927
0.00231 0.000273 -0.000937
0.002285 0.00028 -0.000952
0.002266 0.000285 -0.00097
0.002251 0.000287 -0.00099
0.00224 0.000287 -0.001012
0.002231 0.000286 -0.001035
0.002225 0.000284 -0.00106
0.002224 0.000279 -0.001087
0.00223 0.00027 -0.001117
0.002337 0.000198 -0.001251
0.002377 0.000172 -0.001297
0.002408 0.00015 -0.001339
0.002433 0.000132 -0.001379
0.002456 0.000115 -0.001417
0.002477 9.8e-05 -0.001455
0.002496 8.3e-05 -0.001491
0.002512 6.9e-05 -0.001526
0.002517 6.1e-05 -0.001556
0.002511 5.9e-05 -0.00158
0.002502 5.8e-05 -0.001603
0.002491 5.8e-05 -0.001626
0.00248 5.8e-05 -0.001647
0.002457 0.000695 -0.000197
0.00292 0.000553 -0.000698
0.002833 0.000628 -0.000584
0.002884 0.000678 3.2e-05
0.002998 0.000575 0.000224
0.00063 -1.4e-05 0.002072
0.002933 0.000544 0.00034
0.002896 0.000638 -0.000794
0.002829 4.3e-05 -0.000859
0.002813 4.6e-05 -0.000878
0.002785 5.5e-05 -0.000892
0.002748 6.8e-05 -0.000902
0.002709 8.3e-05 -0.00091
0.002669 9.8e-05 -0.000918
0.002628 0.000114 -0.000926
0.002587 0.00013 -0.000933
0.002479 0.000175 -0.000936
0.002348 0.000231 -0.000928
0.00231 0.000245 -0.000937
0.002285 0.000253 -0.000952
0.002265 0.000258 -0.00097
0.002251 0.00026 -0.00099
0.00224 0.00026 -0.001012
0.002231 0.000259 -0.001035
0.002225 0.000256 -0.00106
0.002224 0.000252 -0.001087
0.00223 0.000243 -0.001117
0.002249 0.000228 -0.001153
0.000606 -1.4e-05 0.002079
0.002408 0.000123 -0.001339
0.002433 0.000105 -0.001379
0.002456 8.8e-05 -0.001417
0.002477 7.1e-05 -0.001454
0.002495 5.6e-05 -0.001491
0.002506 4.5e-05 -0.001523
0.002506 4e-05 -0.00155
0.002499 3.8e-05 -0.001574
0.002489 3.7e-05 -0.001597
0.002479 3.7e-05 -0.001619
0.002467 3.8e-05 -0.001641
0.002454 3.9e-05 -0.001662
0.002781 0.00064 -2.6e-05
0.002832 0.000601 -0.000584
0.002998 0.000635 0.000125
0.00295 0.000651 7e-05
0.002763 0.000665 -0.000522
0.002654 0.000721 -8e-05
0.000583 -1.4e-05 0.002086
0.002781 0.000667 -2.6e-05
0.002884 0.000651 3.2e-05
0.002833 0.00071 -0.000584
0.002778 3.1e-05 -0.000889
0.002746 4.2e-05 -0.000901
0.002709 5.6e-05 -0.00091
0.002668 7.1e-05 -0.000918
0.002627 8.7e-05 -0.000926
0.002587 0.000103 -0.000933
0.002541 0.000121 -0.000938
0.002348 0.000204 -0.000928
0.00231 0.000218 -0.000937
0.002285 0.000226 -0.000952
0.002265 0.00023 -0.00097
0.00225 0.000233 -0.00099
0.002239 0.000233 -0.001012
0.002231 0.000232 -0.001035
0.002224 0.00023 -0.00106
0.002223 0.000225 -0.001086
0.00223 0.000216 -0.001117
0.002247 0.000201 -0.001152
0.000559 -1.3e-05 0.002094
0.000536 -1.3e-05 0.002101
0.002436 7.6e-05 -0.00138
0.002455 6.1e-05 -0.001416
0.002477 4.4e-05 -0.001454
0.002491 3.1e-05 -0.001488
0.002494 2.4e-05 -0.001517
0.00249 2e-05 -0.001543
0.002483 1.9e-05 -0.001567
0.002473 1.9e-05 -0.001589
0.002462 1.9e-05 -0.001611
0.00245 1.9e-05 -0.001633
0.002437 2.1e-05 -0.001654
0.002423 2.2e-05 -0.001675
0.002409 2.4e-05 -0.001695
0.002466 0.000692 -0.000173
0.002744 0.000683 -4.5e-05
0.002806 0.000735 0.000399
0.002633 0.000657 0.000443
0.002605 0.000742 -9.6e-05
0.002883 0.000543 3.2e-05
0.002915 0.000529 5.2e-05
0.002452 0.000747 -0.000246
0.002726 0.000657 -0.000491
0.002915 0.000607 -0.000722
0.002761 1.2e-05 -0.000881
0.002738 1.9e-05 -0.000898
0.002706 3e-05 -0.000909
0.002668 4.4e-05 -0.000918
0.002627 6e-05 -0.000926
0.002586 7.6e-05 -0.000933
0.002541 9.4e-05 -0.000938
0.002476 0.000122 -0.000935
0.002345 0.000178 -0.000926
0.002309 0.000192 -0.000936
0.002284 0.000199 -0.000952
0.002265 0.000203 -0.00097
0.00225 0.000205 -0.00099
0.002239 0.000206 -0.001012
0.00223 0.000205 -0.001035
0.002224 0.000202 -0.001059
0.002223 0.000198 -0.001086
0.00223 0.000189 -0.001117
0.002247 0.000174 -0.001153
0.000512 -1.3e-05 0.002108
0.002438 4.8e-05 -0.001381
0.002454 3.4e-05 -0.001415
0.002471 2e-05 -0.00145
0.002476 1.1e-05 -0.001481
0.002473 8e-06 -0.001507
0.002467 6e-06 -0.001532
0.002458 5e-06 -0.001555
0.002448 5e-06 -0.001577
0.002437 4e-06 -0.0016
0.002426 4e-06 -0.001622
0.002414 5e-06 -0.001643
0.002401 7e-06 -0.001664
0.002387 9e-06 -0.001684
0.00285 0.000556 1.3e-05
0.003002 0.000576 0.000175
0.002816 1e-06 -0.000688
0.002806 1e-06 -0.000711
0.002916 0.000638 5.2e-05
0.002495 0.000719 -0.000353
0.002921 0.000498 -0.000698
0.002816 0.000652 -7e-06
0.002851 0.000692 1.3e-05
0.002729 2e-06 -0.000865
0.002715 4e-06 -0.000886
0.002694 9e-06 -0.000903
0.002664 1.9e-05 -0.000916
0.002627 3.3e-05 -0.000926
0.002587 4.8e-05 -0.000933
0.002473 9.6e-05 -0.000933
0.002347 0.00015 -0.000927
0.002309 0.000165 -0.000936
0.002284 0.000172 -0.000952
0.002265 0.000176 -0.00097
0.00225 0.000178 -0.00099
0.002239 0.000179 -0.001012
0.00223 0.000178 -0.001035
0.002224 0.000175 -0.001059
0.002223 0.000171 -0.001086
0.002229 0.000162 -0.001116
0.002246 0.000148 -0.001152
0.001755 -2.9e-05 -0.001162
0.001767 -2.9e-05 -0.001141
0.002408 4.2e-05 -0.001339
0.002431 2.5e-05 -0.001378
0.002446 1.1e-05 -0.001412
0.002445 0.0 -0.001467
0.002436 -0.0 -0.001489
0.002426 -1e-06 -0.001512
0.002414 -0.0 -0.001534
0.002403 0.0 -0.001556
0.002393 -0.0 -0.001578
0.002361 0.0 -0.001645
0.002947 0.000544 7.2e-05
0.002978 0.000531 9.1e-05
0.002768 -1e-06 -0.000665
0.002757 -1e-06 -0.000687
0.002861 0.000722 -0.000613
0.002799 0.000592 -0.000553
0.001779 -3e-05 -0.001119
0.002916 0.000498 -0.000722
0.002888 0.000698 -0.000768
0.002697 -3e-06 -0.000822
0.002686 -3e-06 -0.000844
0.002743 0.000574 -4.4e-05
0.00291 0.000608 -0.000746
0.002644 2e-06 -0.000906
0.002619 1e-05 -0.000922
0.002258 0.000754 -0.000988
0.001791 -3.1e-05 -0.001097
0.002346 0.000124 -0.000927
0.002309 0.000137 -0.000936
0.002284 0.000145 -0.000952
0.002265 0.000149 -0.00097
0.00225 0.000151 -0.00099
0.002239 0.000151 -0.001012
0.00223 0.000151 -0.001035
0.002224 0.000148 -0.001059
0.002223 0.000143 -0.001086
0.002229 0.000135 -0.001117
0.002245 0.000121 -0.001152
0.001803 -3.2e-05 -0.001076
0.002403 1.7e-05 -0.001337
0.002417 1e-06 -0.00137
0.002378 -3e-06 -0.001489
0.002366 -2e-06 -0.001511
0.002356 -3e-06 -0.001533
0.002336 -3e-06 -0.001578
0.002326 -3e-06 -0.001601
0.002315 -3e-06 -0.001623
0.002303 -3e-06 -0.001644
0.001814 -3.2e-05 -0.001054
0.001826 -3.2e-05 -0.001032
0.002719 -3e-06 -0.000642
0.002707 -2e-06 -0.000663
0.002697 -3e-06 -0.000686
0.001837 -3.3e-05 -0.00101
0.002653 -2e-06 -0.000774
0.002644 -3e-06 -0.000797
0.002632 -2e-06 -0.000818
0.002884 0.000569 3.2e-05
0.002914 0.000612 -0.000672
0.002588 -1e-06 -0.000907
0.002569 3e-06 -0.000925
0.002539 1.3e-05 -0.000938
0.002409 6.9e-05 -0.00093
0.002345 9.7e-05 -0.000926
0.002309 0.00011 -0.000936
0.002284 0.000118 -0.000951
0.002264 0.000122 -0.00097
0.00225 0.000124 -0.00099
0.002239 0.000124 -0.001012
0.00223 0.000123 -0.001035
0.002224 0.000121 -0.001059
0.002223 0.000116 -0.001086
0.002229 0.000108 -0.001116
0.002245 9.4e-05 -0.001152
0.002346 -3e-06 -0.001419
0.00229 -2e-06 -0.001529
0.00228 -1e-06 -0.001551
0.00227 -2e-06 -0.001574
0.002257 -0.0 -0.001595
0.002248 -1e-06 -0.001618
0.002686 -2e-06 -0.000571
0.002676 -3e-06 -0.000594
0.002666 -3e-06 -0.000616
0.002656 -3e-06 -0.000639
0.002648 -3e-06 -0.000662
0.001848 -3.3e-05 -0.000988
0.002803 0.000547 0.000399
0.002617 -5e-06 -0.000729
0.002608 -6e-06 -0.000752
0.002597 -5e-06 -0.000774
0.002586 -6e-06 -0.000797
0.0025 0.00068 -0.000129
0.0028 0.000537 -0.000553
0.002454 0.000748 -0.000221
0.002512 -2e-06 -0.000925
0.002479 1.1e-05 -0.000936
0.002408 4.3e-05 -0.000929
0.002344 7e-05 -0.000926
0.002309 8.3e-05 -0.000936
0.002283 9.1e-05 -0.000951
0.002264 9.5e-05 -0.000969
0.00225 9.7e-05 -0.00099
0.002239 9.7e-05 -0.001012
0.00223 9.6e-05 -0.001035
0.002224 9.4e-05 -0.001059
0.002222 8.9e-05 -0.001086
0.002229 8e-05 -0.001116
0.002246 6.6e-05 -0.001152
0.002341 -5e-06 -0.001307
0.002332 -6e-06 -0.00133
0.002323 -7e-06 -0.001353
0.002311 -5e-06 -0.001375
0.0023 -6e-06 -0.001397
0.002289 -6e-06 -0.001419
0.002246 -6e-06 -0.001508
0.002234 -5e-06 -0.001529
0.002225 -6e-06 -0.001552
0.002214 -6e-06 -0.001574
0.002202 -5e-06 -0.001596
0.002143 -2e-06 -0.001704
0.002114 8e-06 -0.001718
0.002629 -5e-06 -0.000571
0.002618 -5e-06 -0.000593
0.002882 0.000699 -0.000791
0.002565 -5e-06 -0.000704
0.002552 -4e-06 -0.000726
0.002539 -3e-06 -0.000747
0.002829 0.000739 -0.000583
0.00285 0.000529 1.3e-05
0.002496 -3e-06 -0.000835
0.002488 -4e-06 -0.000859
0.002904 0.000527 -0.00077
0.002449 -0.0 -0.000922
0.002342 4.4e-05 -0.000925
0.002308 5.6e-05 -0.000936
0.002284 6.3e-05 -0.000952
0.002264 6.8e-05 -0.00097
0.00225 7e-05 -0.00099
0.002238 7e-05 -0.001012
0.00223 6.9e-05 -0.001035
0.002224 6.7e-05 -0.001059
0.002222 6.2e-05 -0.001086
0.002228 5.3e-05 -0.001116
0.002247 3.8e-05 -0.001153
0.00186 -3.3e-05 -0.000966
0.002284 -3e-06 -0.00128
0.002274 -3e-06 -0.001302
0.002262 -3e-06 -0.001324
0.002251 -3e-06 -0.001346
0.002187 -2e-06 -0.001479
0.002178 -3e-06 -0.001502
0.002159 -4e-06 -0.001548
0.002148 -4e-06 -0.00157
0.002138 -4e-06 -0.001592
0.00213 -6e-06 -0.001616
0.002118 -5e-06 -0.001638
0.002109 -6e-06 -0.00166
0.002095 -4e-06 -0.001681
0.002078 -1e-06 -0.0017
0.00187 -3.3e-05 -0.000944
0.00254 0.000744 -0.000111
0.002538 -3e-06 -0.000609
0.002528 -2e-06 -0.000632
0.002518 -3e-06 -0.000654
0.002508 -3e-06 -0.000677
0.002499 -4e-06 -0.0007
0.002489 -4e-06 -0.000722
0.002866 0.000737 -0.000739
0.002477 0.000757 -0.000325
0.002883 0.000515 3.2e-05
0.002448 -5e-06 -0.000812
0.002438 -5e-06 -0.000834
0.001881 -3.4e-05 -0.000922
0.002978 0.000477 9e-05
0.00291 0.000472 -0.000746
0.002903 0.000473 -0.00077
0.002307 3e-05 -0.000935
0.002283 3.6e-05 -0.000952
0.002264 4.1e-05 -0.00097
0.00225 4.3e-05 -0.00099
0.002238 4.3e-05 -0.001012
0.002229 4.2e-05 -0.001035
0.002223 4e-05 -0.001059
0.002222 3.5e-05 -0.001086
0.002228 2.6e-05 -0.001116
0.001892 -3.3e-05 -0.0009
0.002227 -7e-06 -0.00128
0.002216 -6e-06 -0.001302
0.002206 -6e-06 -0.001324
0.002195 -6e-06 -0.001346
0.00215 -5e-06 -0.001434
0.002137 -4e-06 -0.001455
0.002127 -4e-06 -0.001478
0.001902 -3.3e-05 -0.000878
0.002094 -3e-06 -0.001544
0.002083 -3e-06 -0.001566
0.002072 -3e-06 -0.001588
0.00206 -3e-06 -0.00161
0.002051 -3e-06 -0.001633
0.00204 -3e-06 -0.001655
0.002028 -2e-06 -0.001676
0.002596 0.000665 -9.5e-05
0.002743 0.000602 -4.4e-05
0.001913 -3.3e-05 -0.000855
0.002459 0.000748 -0.000197
0.002496 -7e-06 -0.000589
0.002487 -8e-06 -0.000612
0.002476 -8e-06 -0.000634
0.002465 -8e-06 -0.000656
0.002455 -8e-06 -0.000679
0.002443 -7e-06 -0.0007
0.00292 0.000525 -0.000698
0.002439 0.000777 -0.000294
0.002884 0.000733 3.2e-05
0.002399 -7e-06 -0.000789
0.00239 -7e-06 -0.000811
0.002369 -8e-06 -0.000856
0.002357 -7e-06 -0.000878
0.002344 -6e-06 -0.000898
0.002327 -4e-06 -0.000918
0.002304 4e-06 -0.000934
0.002281 1e-05 -0.00095
0.002263 1.4e-05 -0.000969
0.002479 0.000688 -0.000151
0.002238 1.6e-05 -0.001012
0.002229 1.5e-05 -0.001035
0.002223 1.3e-05 -0.001059
0.002222 8e-06 -0.001086
0.002229 -1e-06 -0.001117
0.001924 -3.3e-05 -0.000833
0.002166 -6e-06 -0.001278
0.002155 -7e-06 -0.0013
0.002144 -7e-06 -0.001322
0.002052 -7e-06 -0.001523
0.00204 -7e-06 -0.001545
0.002028 -7e-06 -0.001567
0.002706 0.000617 -6.3e-05
0.00278 0.000586 -2.6e-05
0.002479 0.000715 -0.000151
0.002441 -6e-06 -0.000563
0.00243 -6e-06 -0.000585
0.002422 -7e-06 -0.000608
0.002408 -6e-06 -0.000629
0.002396 -5e-06 -0.00065
0.002385 -5e-06 -0.000673
0.002361 -3e-06 -0.000716
0.002353 -5e-06 -0.000739
0.002341 -4e-06 -0.00076
0.002551 0.000691 -0.000387
0.001933 -3.3e-05 -0.00081
0.002307 -3e-06 -0.000826
0.002298 -4e-06 -0.000849
0.00229 -5e-06 -0.000873
0.002279 -5e-06 -0.000895
0.002266 -4e-06 -0.000916
0.002254 -3e-06 -0.000937
0.002241 -2e-06 -0.000959
0.002898 0.000697 -0.000719
0.001943 -3.2e-05 -0.000788
0.001954 -3.3e-05 -0.000766
0.001944 -7e-06 -0.001608
0.001931 -7e-06 -0.00163
0.002537 0.000718 -0.00011
0.002596 0.000692 -9.5e-05
0.002864 0.00053 -0.000614
0.001964 -3.2e-05 -0.000743
0.00234 -3e-06 -0.000623
0.00233 -3e-06 -0.000646
0.00231 -4e-06 -0.000691
0.0023 -4e-06 -0.000713
0.002289 -4e-06 -0.000736
0.003004 0.000522 0.00015
0.00226 -5e-06 -0.000803
0.002249 -6e-06 -0.000826
0.002238 -5e-06 -0.000848
0.002227 -5e-06 -0.00087
0.002216 -5e-06 -0.000892
0.002207 -6e-06 -0.000915
0.002197 -6e-06 -0.000937
0.0029 0.000698 -0.000695
0.002893 0.000487 -0.000644
0.002916 0.000475 -0.000673
0.001973 -3.2e-05 -0.00072
0.002143 -6e-06 -0.001048
0.002133 -6e-06 -0.00107
0.001983 -3.1e-05 -0.000698
0.00199 -4e-06 -0.001357
0.001979 -4e-06 -0.001379
0.001969 -4e-06 -0.001402
0.001993 -3.1e-05 -0.000675
0.001883 -4e-06 -0.001579
0.001874 -4e-06 -0.001602
0.002374 -4e-06 -0.000421
0.002365 -5e-06 -0.000444
0.002832 0.000547 -0.000584
0.002893 0.000515 -0.000644
0.002002 -3e-05 -0.000652
0.002326 -7e-06 -0.000535
0.002316 -7e-06 -0.000557
0.002612 0.000718 0.000847
0.002663 0.000638 0.000901
0.002916 0.00072 5.2e-05
0.002469 0.000733 -0.000325
0.002832 0.00052 -0.000584
0.002466 0.000719 -0.000173
0.002251 -1.1e-05 -0.000717
0.002241 -1.2e-05 -0.00074
0.002934 0.00049 0.00034
0.002221 -1.3e-05 -0.000785
0.002214 -1.5e-05 -0.000809
0.002204 -1.3e-05 -0.000832
0.002191 -1.2e-05 -0.000852
0.002179 -1.3e-05 -0.000874
0.002169 -1.3e-05 -0.000896
0.002159 -1.3e-05 -0.000919
0.002147 -1.3e-05 -0.00094
0.002894 0.000697 -0.000744
0.002125 -1.3e-05 -0.000985
0.002096 -1.4e-05 -0.001053
0.002084 -1.3e-05 -0.001074
0.002073 -1.3e-05 -0.001096
0.002062 -1.3e-05 -0.001119
0.002052 -1.3e-05 -0.001141
0.001939 -1e-05 -0.00136
0.001926 -9e-06 -0.001381
0.002917 0.000692 5.1e-05
0.001843 -4e-06 -0.001532
0.001832 -4e-06 -0.001555
0.001822 -4e-06 -0.001577
0.002816 0.000571 -7e-06
0.002325 -1.1e-05 -0.000425
0.002317 -1.3e-05 -0.000448
0.002799 0.000565 -0.000553
0.002286 -1.3e-05 -0.000515
0.002274 -1.3e-05 -0.000537
0.002266 -1.4e-05 -0.000561
0.002893 0.000534 0.00036
0.002816 0.000598 -7e-06
0.002457 0.000722 -0.000197
0.002198 -1.2e-05 -0.000692
0.002184 -1e-05 -0.000712
0.002175 -1e-05 -0.000735
0.002163 -1.1e-05 -0.000757
0.002133 -1.1e-05 -0.000824
0.002122 -1.1e-05 -0.000847
0.002111 -1.1e-05 -0.000869
0.002863 0.000558 -0.000614
0.002067 -1e-05 -0.000957
0.002057 -1e-05 -0.000979
0.002024 -9e-06 -0.001045
0.002016 -1.1e-05 -0.001069
0.002007 -1.2e-05 -0.001092
0.001994 -1.1e-05 -0.001113
0.001985 -1.1e-05 -0.001136
0.002467 0.000706 -0.000326
0.001818 -1.2e-05 -0.001493
0.001805 -1.2e-05 -0.001514
0.001792 -1e-05 -0.001535
0.001779 -9e-06 -0.001556
0.002743 0.000628 -4.4e-05
0.002869 0.000738 -0.000714
0.002261 -1.1e-05 -0.000421
0.002251 -1.1e-05 -0.000444
0.002241 -1.1e-05 -0.000466
0.002227 -1e-05 -0.000487
0.002727 0.000575 -0.000491
0.002764 0.000556 -0.000522
0.002707 0.000644 -6.3e-05
0.002915 0.000471 -0.000722
0.002277 0.000746 -0.000966
0.002096 -8e-06 -0.000752
0.002083 -7e-06 -0.000773
0.002073 -7e-06 -0.000795
0.002062 -7e-06 -0.000817
0.002052 -7e-06 -0.00084
0.002042 -8e-06 -0.000863
0.002031 -8e-06 -0.000885
0.00202 -8e-06 -0.000907
0.00268 0.000627 -0.000458
0.001999 -8e-06 -0.000951
0.001969 -8e-06 -0.001019
0.001956 -7e-06 -0.00104
0.001945 -7e-06 -0.001062
0.001935 -7e-06 -0.001085
0.001926 -8e-06 -0.001108
0.001873 -8e-06 -0.001219
0.001862 -8e-06 -0.001241
0.001763 -1.2e-05 -0.001466
0.001751 -1.1e-05 -0.001488
0.001743 -1.2e-05 -0.001511
0.001734 -1.3e-05 -0.001534
0.002481 0.000741 -0.000151
0.002468 0.000745 -0.000174
0.002192 -8e-06 -0.000415
0.002179 -6e-06 -0.000436
0.002169 -7e-06 -0.000459
0.002501 0.000733 -0.000129
0.002456 0.000714 -0.000297
0.002714 0.000692 0.000958
0.002915 0.000557 5.2e-05
0.003003 0.000577 0.00015
0.00254 0.0007 0.000789
0.002816 0.000625 -7e-06
0.002896 0.000702 -0.000669
0.002049 -1.1e-05 -0.000729
0.002038 -1.1e-05 -0.000752
0.002029 -1.1e-05 -0.000774
0.002019 -1.2e-05 -0.000797
0.002008 -1.2e-05 -0.000819
0.001998 -1.2e-05 -0.000842
0.001988 -1.2e-05 -0.000864
0.001977 -1.2e-05 -0.000886
0.001967 -1.2e-05 -0.000908
0.001955 -1.2e-05 -0.00093
0.001945 -1.2e-05 -0.000953
0.001935 -1.2e-05 -0.000975
0.001924 -1.2e-05 -0.000997
0.001913 -1.2e-05 -0.001019
0.001902 -1.2e-05 -0.001041
0.00189 -1.1e-05 -0.001063
0.001879 -1.1e-05 -0.001085
0.001868 -1.1e-05 -0.001107
0.001824 -1e-05 -0.001195
0.001813 -1e-05 -0.001217
0.001712 -7e-06 -0.001415
0.001702 -7e-06 -0.001437
0.00169 -7e-06 -0.001459
0.002498 0.000745 -0.000353
0.002653 0.000695 -7.9e-05
0.002706 0.000671 -6.3e-05
0.002916 0.000525 -0.000722
0.002612 0.000691 0.000847
0.002781 0.000721 -2.6e-05
0.000488 -1.3e-05 0.002114
0.002798 0.000674 -0.000553
0.002921 0.000471 -0.000698
0.002897 0.000474 -0.000794
0.00245 0.000721 -0.000246
0.002653 0.000667 -7.9e-05
0.002915 0.000529 -0.000672
0.002893 0.000542 -0.000644
0.002765 0.00061 -0.000522
0.00295 0.000679 6.9e-05
0.002033 -1.9e-05 -0.000667
0.002023 -1.9e-05 -0.000689
0.002014 -2e-05 -0.000712
0.002004 -2e-05 -0.000735
0.001994 -2.1e-05 -0.000758
0.001983 -2.1e-05 -0.00078
0.001973 -2.1e-05 -0.000802
0.001963 -2.1e-05 -0.000825
0.001952 -2.1e-05 -0.000847
0.001942 -2.1e-05 -0.000869
0.001932 -2.2e-05 -0.000892
0.001922 -2.2e-05 -0.000914
0.001911 -2.2e-05 -0.000936
0.001899 -2.1e-05 -0.000958
0.001888 -2.1e-05 -0.00098
0.001877 -2.1e-05 -0.001002
0.001866 -2e-05 -0.001024
0.001855 -2e-05 -0.001046
0.001843 -2e-05 -0.001068
0.001832 -2e-05 -0.00109
0.001821 -1.9e-05 -0.001112
0.00181 -1.9e-05 -0.001134
0.001798 -1.9e-05 -0.001155
0.001666 -1e-05 -0.001393
0.001655 -1e-05 -0.001414
0.001642 -9e-06 -0.001436
0.002725 0.00063 -0.000491
0.002744 0.000655 -4.5e-05
0.002597 0.000719 -9.5e-05
0.002689 0.000652 0.000929
0.002989 0.000613 0.0001
0.002916 0.000502 5.2e-05
0.002452 0.000695 -0.000221
0.00245 0.000694 -0.000246
0.002712 0.00072 0.000959
0.002456 0.000687 -0.000297
0.002469 0.000679 -0.000324
0.002493 0.000666 -0.000353
0.002684 0.00057 -0.000459
0.002726 0.000549 -0.000491
0.002765 0.000528 -0.000523
0.0028 0.00051 -0.000553
0.002832 0.000493 -0.000584
0.002864 0.000476 -0.000614
0.002893 0.00046 -0.000644
0.002916 0.000447 -0.000673
0.002921 0.000443 -0.000698
0.002916 0.000444 -0.000722
0.00291 0.000445 -0.000746
0.002904 0.000446 -0.00077
0.002897 0.000447 -0.000794
0.002255 0.000728 -0.000987
0.002497 0.000722 0.000759
0.002537 0.000651 0.001286
0.002714 0.000666 0.000957
0.002978 0.00045 9e-05
0.002947 0.000463 7.1e-05
0.002915 0.000475 5.2e-05
0.002883 0.000488 3.2e-05
0.00285 0.000502 1.3e-05
0.002815 0.000517 -7e-06
0.00278 0.000531 -2.6e-05
0.002742 0.000547 -4.4e-05
0.002704 0.000563 -6.3e-05
0.002535 0.000638 -0.00011
0.0025 0.000652 -0.000129
0.002479 0.00066 -0.000151
0.002465 0.000665 -0.000173
0.002457 0.000667 -0.000197
0.002451 0.000668 -0.000221
0.002449 0.000667 -0.000245
0.002932 0.00068 0.00034
0.002933 0.000653 0.00034
0.002979 0.00069 0.000271
0.002494 0.000639 -0.000353
0.002622 0.000574 -0.000424
0.002682 0.000544 -0.000459
0.002727 0.000521 -0.000491
0.002764 0.000501 -0.000523
0.0028 0.000483 -0.000553
0.002832 0.000466 -0.000584
0.002864 0.000449 -0.000614
0.002893 0.000433 -0.000644
0.002916 0.00042 -0.000673
0.002921 0.000416 -0.000698
0.002916 0.000417 -0.000722
0.00291 0.000418 -0.000746
0.002904 0.000419 -0.00077
0.002897 0.00042 -0.000794
0.00239 0.000725 0.000622
0.003002 0.000579 0.000125
0.003001 0.000607 0.000125
0.002977 0.000423 9e-05
0.002947 0.000435 7.1e-05
0.002915 0.000448 5.2e-05
0.002883 0.000461 3.2e-05
0.002849 0.000475 1.3e-05
0.002814 0.00049 -6e-06
0.00278 0.000504 -2.6e-05
0.002744 0.000519 -4.5e-05
0.002703 0.000537 -6.3e-05
0.002535 0.000611 -0.00011
0.0025 0.000625 -0.000129
0.002479 0.000633 -0.000151
0.002465 0.000638 -0.000173
0.002457 0.00064 -0.000197
0.002451 0.000641 -0.000221
0.002449 0.00064 -0.000246
0.002998 0.00066 0.000174
0.002456 0.000632 -0.000297
0.003001 0.000521 0.000199
0.002683 0.000516 -0.000459
0.002726 0.000494 -0.000491
0.002764 0.000474 -0.000522
0.0028 0.000456 -0.000553
0.002832 0.000438 -0.000584
0.002864 0.000421 -0.000614
0.002893 0.000406 -0.000644
0.002915 0.000393 -0.000672
0.002921 0.000389 -0.000698
0.002916 0.000389 -0.000723
0.00291 0.000391 -0.000746
0.002904 0.000392 -0.00077
0.002504 0.000746 0.00076
0.002997 0.000574 0.000249
0.003001 0.000631 0.000175
0.002977 0.000396 9.1e-05
0.002947 0.000408 7.1e-05
0.002915 0.000421 5.2e-05
0.002882 0.000435 3.2e-05
0.002849 0.000448 1.3e-05
0.002815 0.000463 -6e-06
0.002779 0.000477 -2.6e-05
0.002744 0.000492 -4.5e-05
0.002704 0.000509 -6.3e-05
0.002595 0.000557 -9.5e-05
0.002536 0.000583 -0.00011
0.0025 0.000598 -0.000129
0.002479 0.000606 -0.000151
0.002465 0.000611 -0.000173
0.002457 0.000613 -0.000197
0.002451 0.000614 -0.000221
0.002449 0.000612 -0.000246
0.00245 0.00061 -0.000271
0.002456 0.000605 -0.000297
0.002469 0.000597 -0.000324
0.002494 0.000584 -0.000353
0.002623 0.000519 -0.000424
0.002682 0.00049 -0.000459
0.002727 0.000467 -0.000491
0.002764 0.000447 -0.000522
0.002801 0.000428 -0.000554
0.002832 0.000411 -0.000584
0.002864 0.000394 -0.000614
0.002893 0.000379 -0.000644
0.002916 0.000366 -0.000673
0.002921 0.000362 -0.000698
0.002916 0.000362 -0.000723
0.00291 0.000363 -0.000747
0.002904 0.000364 -0.000771
0.002803 0.000628 0.000399
0.002563 0.000744 0.000792
0.002999 0.000359 0.000113
0.002977 0.000368 9.1e-05
0.002946 0.000381 7.1e-05
0.002914 0.000394 5.2e-05
0.002882 0.000407 3.2e-05
0.002849 0.000421 1.3e-05
0.002815 0.000435 -7e-06
0.002779 0.00045 -2.6e-05
0.002743 0.000465 -4.5e-05
0.002705 0.000482 -6.3e-05
0.002652 0.000505 -7.9e-05
0.002594 0.00053 -9.5e-05
0.002536 0.000556 -0.00011
0.0025 0.000571 -0.000129
0.002479 0.000579 -0.000151
0.002465 0.000584 -0.000173
0.002456 0.000586 -0.000197
0.002451 0.000586 -0.000221
0.002449 0.000585 -0.000246
0.00245 0.000583 -0.000271
0.002456 0.000578 -0.000297
0.00247 0.00057 -0.000324
0.002495 0.000556 -0.000353
0.002726 0.00044 -0.000491
0.002764 0.00042 -0.000523
0.0028 0.000401 -0.000553
0.002833 0.000384 -0.000584
0.002864 0.000367 -0.000614
0.002892 0.000352 -0.000644
0.002916 0.000339 -0.000673
0.002921 0.000335 -0.000698
0.002916 0.000335 -0.000723
0.00291 0.000336 -0.000747
0.002904 0.000337 -0.000771
0.002449 0.000746 0.000729
0.002987 0.000603 0.000297
0.002999 0.000332 0.000113
0.002976 0.000342 9.2e-05
0.002945 0.000354 7.2e-05
0.002914 0.000367 5.2e-05
0.002882 0.00038 3.2e-05
0.00285 0.000394 1.3e-05
0.002815 0.000408 -7e-06
0.002778 0.000424 -2.6e-05
0.002742 0.000439 -4.4e-05
0.002705 0.000454 -6.3e-05
0.002652 0.000477 -7.9e-05
0.002594 0.000503 -9.5e-05
0.002536 0.000529 -0.00011
0.0025 0.000544 -0.000129
0.002478 0.000552 -0.00015
0.002465 0.000557 -0.000173
0.002456 0.000559 -0.000197
0.002451 0.000559 -0.000221
0.002449 0.000558 -0.000246
0.00245 0.000556 -0.000271
0.002456 0.000551 -0.000297
0.00247 0.000543 -0.000324
0.002497 0.000528 -0.000353
0.002552 0.0005 -0.000387
0.002684 0.000434 -0.000459
0.002726 0.000413 -0.000491
0.002764 0.000393 -0.000523
0.0028 0.000374 -0.000554
0.002833 0.000356 -0.000584
0.002864 0.00034 -0.000614
0.002896 0.000323 -0.000644
0.002916 0.000311 -0.000673
0.002921 0.000308 -0.000698
0.002916 0.000308 -0.000723
0.00291 0.000309 -0.000747
0.002904 0.00031 -0.000771
0.002611 0.000637 0.000847
0.003 0.000603 0.000199
0.002999 0.000305 0.000113
0.002976 0.000314 9.1e-05
0.002945 0.000327 7.2e-05
0.002914 0.00034 5.2e-05
0.002882 0.000353 3.2e-05
0.00285 0.000366 1.3e-05
0.002816 0.000381 -7e-06
0.002779 0.000396 -2.6e-05
0.002743 0.000411 -4.5e-05
0.002706 0.000427 -6.3e-05
0.002652 0.00045 -7.9e-05
0.002535 0.000502 -0.00011
0.002499 0.000517 -0.000129
0.002478 0.000525 -0.00015
0.002464 0.00053 -0.000173
0.002456 0.000532 -0.000197
0.002451 0.000532 -0.000221
0.002449 0.000531 -0.000246
0.00245 0.000528 -0.000271
0.002456 0.000524 -0.000297
0.00247 0.000515 -0.000324
0.002497 0.000501 -0.000353
0.002552 0.000473 -0.000388
0.002629 0.000435 -0.000425
0.002683 0.000408 -0.000459
0.002726 0.000385 -0.000491
0.002765 0.000365 -0.000523
0.0028 0.000347 -0.000553
0.002833 0.000329 -0.000584
0.002864 0.000313 -0.000614
0.002903 0.000292 -0.000646
0.002918 0.000284 -0.000673
0.002921 0.00028 -0.000699
0.002916 0.000281 -0.000723
0.00291 0.000282 -0.000747
0.002904 0.000283 -0.000771
0.002011 -3e-05 -0.000623
0.002999 0.000493 0.000224
0.003001 0.000603 0.000175
0.002999 0.000278 0.000113
0.002976 0.000287 9.1e-05
0.002945 0.0003 7.2e-05
0.002915 0.000312 5.2e-05
0.002881 0.000326 3.2e-05
0.00285 0.000339 1.3e-05
0.002816 0.000353 -7e-06
0.002779 0.000369 -2.6e-05
0.002743 0.000384 -4.5e-05
0.002705 0.0004 -6.3e-05
0.00265 0.000424 -7.9e-05
0.002595 0.000448 -9.5e-05
0.002535 0.000475 -0.00011
0.002499 0.00049 -0.000129
0.002478 0.000498 -0.00015
0.002464 0.000502 -0.000173
0.002456 0.000505 -0.000197
0.002451 0.000505 -0.000221
0.002449 0.000504 -0.000246
0.00245 0.000501 -0.000271
0.002456 0.000496 -0.000297
0.00247 0.000488 -0.000324
0.002495 0.000475 -0.000353
0.002623 0.000411 -0.000424
0.002682 0.000381 -0.000459
0.002726 0.000358 -0.000491
0.002764 0.000338 -0.000523
0.002799 0.00032 -0.000553
0.002834 0.000302 -0.000584
0.002863 0.000286 -0.000614
0.002918 0.000256 -0.000673
0.002921 0.000253 -0.000699
0.002916 0.000254 -0.000723
0.00291 0.000254 -0.000747
0.002904 0.000256 -0.000771
0.00297 0.000474 0.00032
0.002998 0.000602 0.000224
0.002999 0.000251 0.000113
0.002976 0.00026 9.1e-05
0.002946 0.000272 7.2e-05
0.002914 0.000285 5.2e-05
0.002881 0.000299 3.2e-05
0.002849 0.000312 1.3e-05
0.002816 0.000326 -7e-06
0.00278 0.000341 -2.6e-05
0.002744 0.000356 -4.5e-05
0.002705 0.000373 -6.3e-05
0.002651 0.000396 -7.9e-05
0.002593 0.000422 -9.5e-05
0.002533 0.000448 -0.00011
0.002499 0.000463 -0.000129
0.002478 0.000471 -0.000151
0.002464 0.000475 -0.000173
0.002456 0.000478 -0.000197
0.002451 0.000478 -0.000221
0.002449 0.000477 -0.000246
0.00245 0.000474 -0.000271
0.002456 0.000469 -0.000297
0.00247 0.000461 -0.000325
0.002495 0.000448 -0.000353
0.002624 0.000383 -0.000424
0.002683 0.000353 -0.000459
0.002726 0.000331 -0.000491
0.002765 0.000311 -0.000523
0.002799 0.000293 -0.000553
0.002833 0.000275 -0.000584
0.002864 0.000258 -0.000614
0.002893 0.000243 -0.000644
0.002915 0.00023 -0.000673
0.002921 0.000226 -0.000698
0.002916 0.000226 -0.000723
0.00291 0.000227 -0.000747
0.002904 0.000229 -0.000771
0.002897 0.00023 -0.000795
0.002396 0.00075 0.000598
0.002994 0.000601 0.000273
0.002999 0.000224 0.000113
0.002977 0.000232 9.1e-05
0.002945 0.000246 7.2e-05
0.002914 0.000258 5.2e-05
0.002881 0.000272 3.2e-05
0.002849 0.000285 1.3e-05
0.002815 0.000299 -7e-06
0.00278 0.000314 -2.6e-05
0.002744 0.000329 -4.5e-05
0.002704 0.000346 -6.3e-05
0.002649 0.00037 -7.9e-05
0.002531 0.000422 -0.000109
0.002498 0.000436 -0.000129
0.002478 0.000444 -0.000151
0.002464 0.000448 -0.000173
0.002456 0.00045 -0.000197
0.00245 0.000451 -0.000221
0.002448 0.00045 -0.000246
0.002993 0.000658 0.000248
0.003 0.00063 0.000199
0.002933 0.000517 0.00034
0.00297 0.000501 0.00032
0.002624 0.000356 -0.000425
0.002683 0.000326 -0.000459
0.002725 0.000304 -0.000491
0.002765 0.000283 -0.000523
0.0028 0.000265 -0.000554
0.002834 0.000247 -0.000584
0.002864 0.000231 -0.000614
0.002894 0.000215 -0.000644
0.002915 0.000204 -0.000673
0.00292 0.000199 -0.000698
0.002916 0.0002 -0.000723
0.002909 0.000201 -0.000747
0.002903 0.000202 -0.000771
0.002897 0.000203 -0.000795
0.002017 -3.1e-05 -0.000599
0.002394 0.00075 0.000623
0.002996 0.000601 0.000249
0.002998 0.000197 0.000113
0.002977 0.000205 9.1e-05
0.002944 0.000219 7.2e-05
0.002914 0.000231 5.2e-05
0.002881 0.000245 3.2e-05
0.002849 0.000258 1.3e-05
0.002814 0.000273 -7e-06
0.002781 0.000287 -2.6e-05
0.002744 0.000302 -4.5e-05
0.002705 0.000319 -6.3e-05
0.00265 0.000342 -7.9e-05
0.002593 0.000368 -9.5e-05
0.002532 0.000395 -0.00011
0.002498 0.000409 -0.000129
0.002477 0.000417 -0.00015
0.002464 0.000421 -0.000173
0.002455 0.000423 -0.000197
0.00245 0.000424 -0.000221
0.002448 0.000423 -0.000246
0.002892 0.000698 0.00036
0.002892 0.000671 0.00036
0.002542 0.000645 0.000789
0.002022 -3.1e-05 -0.000575
0.002683 0.000299 -0.000459
0.002727 0.000276 -0.000492
0.002765 0.000256 -0.000523
0.002801 0.000238 -0.000554
0.002834 0.00022 -0.000584
0.002865 0.000203 -0.000614
0.002899 0.000186 -0.000645
0.002915 0.000176 -0.000673
0.002918 0.000173 -0.000698
0.002915 0.000172 -0.000723
0.00291 0.000173 -0.000747
0.002903 0.000174 -0.000771
0.002848 0.000554 0.00038
0.003002 0.000604 0.00015
0.002997 0.00017 0.000113
0.002977 0.000178 9.1e-05
0.002914 0.000204 5.2e-05
0.002881 0.000218 3.2e-05
0.002849 0.000231 1.3e-05
0.002814 0.000245 -7e-06
0.00278 0.00026 -2.6e-05
0.002746 0.000274 -4.5e-05
0.002705 0.000291 -6.3e-05
0.002651 0.000315 -7.9e-05
0.002593 0.000341 -9.5e-05
0.002531 0.000368 -0.00011
0.002497 0.000382 -0.000129
0.002477 0.00039 -0.000151
0.002464 0.000394 -0.000173
0.002455 0.000396 -0.000197
0.00245 0.000397 -0.000221
0.002448 0.000395 -0.000246
0.00298 0.000661 0.000296
0.002985 0.000631 0.000297
0.002997 0.000547 0.000249
0.002497 0.000365 -0.000353
0.002558 0.000334 -0.000389
0.002625 0.000301 -0.000425
0.002684 0.000271 -0.000459
0.002727 0.000249 -0.000492
0.002766 0.000229 -0.000523
0.002801 0.00021 -0.000554
0.002834 0.000193 -0.000584
0.002865 0.000176 -0.000614
0.002895 0.00016 -0.000644
0.002913 0.00015 -0.000672
0.002916 0.000146 -0.000698
0.002914 0.000146 -0.000722
0.002909 0.000146 -0.000747
0.002903 0.000147 -0.000771
0.00297 0.000555 0.00032
0.002664 0.000692 0.000901
0.002995 0.000144 0.000113
0.002977 0.000151 9e-05
0.002948 0.000163 6.9e-05
0.002914 0.000177 5.2e-05
0.002881 0.00019 3.2e-05
0.002848 0.000204 1.3e-05
0.002815 0.000218 -7e-06
0.00278 0.000233 -2.6e-05
0.002745 0.000247 -4.5e-05
0.002706 0.000264 -6.4e-05
0.002649 0.000289 -7.9e-05
0.002593 0.000313 -9.5e-05
0.002532 0.00034 -0.00011
0.002497 0.000355 -0.000129
0.002477 0.000362 -0.00015
0.002463 0.000367 -0.000173
0.002455 0.000369 -0.000197
0.00245 0.000369 -0.000221
0.002448 0.000368 -0.000246
0.002996 0.000658 0.000224
0.003001 0.000632 0.00015
0.002393 0.000725 0.000598
0.002496 0.000338 -0.000353
0.002556 0.000308 -0.000388
0.002624 0.000274 -0.000425
0.002683 0.000244 -0.000459
0.002727 0.000222 -0.000492
0.002767 0.000201 -0.000523
0.002801 0.000183 -0.000554
0.002834 0.000166 -0.000584
0.002866 0.000149 -0.000615
0.002895 0.000133 -0.000644
0.002911 0.000124 -0.000672
0.002913 0.000121 -0.000697
0.00291 0.00012 -0.000722
0.002907 0.00012 -0.000746
0.002901 0.000121 -0.00077
0.001557 0.000464 0.002575
0.002696 0.000703 0.000436
0.002991 0.000119 0.000114
0.002975 0.000125 9.1e-05
0.002945 0.000137 7.1e-05
0.002914 0.000149 5.2e-05
0.002881 0.000163 3.2e-05
0.002848 0.000177 1.3e-05
0.002813 0.000191 -7e-06
0.00278 0.000205 -2.6e-05
0.002744 0.00022 -4.5e-05
0.002706 0.000237 -6.4e-05
0.00265 0.000261 -7.9e-05
0.002594 0.000286 -9.5e-05
0.002532 0.000313 -0.00011
0.002497 0.000328 -0.000129
0.002477 0.000335 -0.000151
0.002463 0.00034 -0.000173
0.002455 0.000342 -0.000197
0.00245 0.000342 -0.000221
0.002448 0.000341 -0.000246
0.002988 0.000658 0.000272
0.002999 0.000629 0.000224
0.002092 0.000721 0.001498
0.002556 0.000281 -0.000388
0.002624 0.000247 -0.000425
0.002682 0.000218 -0.000459
0.002728 0.000194 -0.000492
0.002767 0.000174 -0.000523
0.002802 0.000156 -0.000554
0.002835 0.000138 -0.000584
0.002865 0.000122 -0.000615
0.002893 0.000107 -0.000644
0.002906 9.9e-05 -0.000671
0.002907 9.7e-05 -0.000696
0.002905 9.6e-05 -0.000721
0.002901 9.6e-05 -0.000745
0.002896 9.6e-05 -0.000769
0.002848 0.000581 0.00038
0.002988 0.000575 0.000297
0.002985 9.4e-05 0.000115
0.002973 9.8e-05 9.1e-05
0.002945 0.00011 7.1e-05
0.002914 0.000123 5.2e-05
0.002881 0.000136 3.2e-05
0.002848 0.00015 1.3e-05
0.002814 0.000164 -7e-06
0.002779 0.000179 -2.6e-05
0.002746 0.000192 -4.5e-05
0.002705 0.00021 -6.3e-05
0.002651 0.000234 -7.9e-05
0.002593 0.000259 -9.5e-05
0.002532 0.000286 -0.00011
0.002497 0.000301 -0.000129
0.002477 0.000308 -0.000151
0.002463 0.000313 -0.000173
0.002455 0.000315 -0.000197
0.00245 0.000315 -0.000221
0.002448 0.000314 -0.000246
0.002998 0.000658 0.000199
0.002992 0.000629 0.000273
0.002891 0.000726 0.00036
0.002929 0.000709 0.00034
0.002626 0.000219 -0.000425
0.002682 0.000191 -0.000459
0.002729 0.000167 -0.000492
0.002766 0.000147 -0.000523
0.002802 0.000128 -0.000554
0.002834 0.000111 -0.000584
0.002866 9.4e-05 -0.000615
0.00289 8.1e-05 -0.000644
0.002898 7.5e-05 -0.00067
0.002899 7.3e-05 -0.000695
0.002896 7.3e-05 -0.00072
0.002893 7.2e-05 -0.000744
0.002887 7.3e-05 -0.000768
0.002881 7.4e-05 -0.000792
0.002393 0.000722 0.000647
0.00297 0.000583 0.00032
0.002977 7.1e-05 0.000116
0.002968 7.4e-05 9.3e-05
0.002944 8.3e-05 7.1e-05
0.002913 9.5e-05 5.2e-05
0.002881 0.000109 3.2e-05
0.002848 0.000123 1.3e-05
0.002815 0.000137 -7e-06
0.002779 0.000151 -2.6e-05
0.002748 0.000165 -4.8e-05
0.002594 0.000231 -9.5e-05
0.002534 0.000258 -0.00011
0.002497 0.000273 -0.000129
0.002477 0.000281 -0.000151
0.002463 0.000286 -0.000173
0.002455 0.000288 -0.000197
0.00245 0.000288 -0.000221
0.002448 0.000287 -0.000246
0.00245 0.000284 -0.000271
0.002456 0.000279 -0.000297
0.00247 0.000271 -0.000325
0.002495 0.000257 -0.000353
0.002626 0.000192 -0.000425
0.002683 0.000163 -0.000459
0.002729 0.000139 -0.000492
0.002765 0.00012 -0.000523
0.002802 0.000101 -0.000554
0.002835 8.4e-05 -0.000584
0.002865 6.8e-05 -0.000614
0.002883 5.7e-05 -0.000642
0.002888 5.3e-05 -0.000668
0.002887 5.1e-05 -0.000693
0.002885 5.1e-05 -0.000718
0.002881 5.1e-05 -0.000742
0.002875 5.1e-05 -0.000766
0.002869 5.3e-05 -0.00079
0.002861 5.4e-05 -0.000814
0.002853 5.7e-05 -0.000837
0.002893 0.000507 0.00036
0.002067 0.000677 0.001353
0.002969 0.00061 0.00032
0.002958 5.1e-05 9.4e-05
0.002941 5.7e-05 7.2e-05
0.002914 6.8e-05 5.2e-05
0.00288 8.2e-05 3.2e-05
0.002847 9.6e-05 1.3e-05
0.002814 0.000109 -7e-06
0.00278 0.000124 -2.6e-05
0.002746 0.000139 -4.8e-05
0.002703 0.000156 -6.3e-05
0.002649 0.00018 -7.9e-05
0.002594 0.000204 -9.5e-05
0.002534 0.000231 -0.00011
0.002497 0.000246 -0.000129
0.002477 0.000254 -0.000151
0.002463 0.000258 -0.000173
0.002455 0.00026 -0.000197
0.002451 0.00026 -0.000221
0.002449 0.000259 -0.000246
0.00245 0.000257 -0.000271
0.002456 0.000252 -0.000297
0.00247 0.000243 -0.000325
0.002495 0.00023 -0.000353
0.002625 0.000165 -0.000425
0.002683 0.000136 -0.000459
0.002729 0.000112 -0.000492
0.002766 9.3e-05 -0.000523
0.002802 7.4e-05 -0.000554
0.002834 5.7e-05 -0.000584
0.00286 4.3e-05 -0.000614
0.002871 3.6e-05 -0.00064
0.002873 3.3e-05 -0.000666
0.002872 3.1e-05 -0.000691
0.002869 3.1e-05 -0.000715
0.002865 3.1e-05 -0.000739
0.00286 3.2e-05 -0.000763
0.002853 3.3e-05 -0.000787
0.002846 3.4e-05 -0.000811
0.002838 3.6e-05 -0.000835
0.002827 4e-05 -0.000858
0.002995 0.000492 0.000273
0.002639 0.000678 0.000874
0.002688 0.000679 0.00093
0.002737 0.00071 0.00098
0.002932 3.4e-05 7.4e-05
0.002911 4.2e-05 5.2e-05
0.00288 5.5e-05 3.2e-05
0.002847 6.9e-05 1.3e-05
0.002814 8.2e-05 -7e-06
0.002779 9.7e-05 -2.6e-05
0.002744 0.000112 -4.5e-05
0.002703 0.000129 -6.3e-05
0.002648 0.000153 -7.9e-05
0.002592 0.000178 -9.5e-05
0.002535 0.000203 -0.00011
0.002498 0.000219 -0.000129
0.002477 0.000227 -0.000151
0.002464 0.000231 -0.000173
0.002455 0.000233 -0.000197
0.002451 0.000233 -0.000221
0.002449 0.000232 -0.000246
0.00245 0.00023 -0.000271
0.002456 0.000225 -0.000297
0.002471 0.000216 -0.000325
0.002497 0.000202 -0.000354
0.002028 -3.2e-05 -0.000551
0.002624 0.000139 -0.000425
0.002682 0.000109 -0.000459
0.002729 8.5e-05 -0.000492
0.002766 6.6e-05 -0.000523
0.002802 4.7e-05 -0.000554
0.00283 3.2e-05 -0.000584
0.002846 2.2e-05 -0.000611
0.002852 1.7e-05 -0.000637
0.002854 1.5e-05 -0.000663
0.002851 1.4e-05 -0.000687
