0.000911 0.000461 0.002382
0.001409 0.000523 0.002664
0.001833 0.000699 0.002061
0.001474 0.000602 0.002627
0.001453 0.000602 0.00264
0.001833 0.000672 0.002061
0.001069 0.000744 0.00255
0.001501 0.00045 0.002579
0.001741 0.000632 0.002014
0.001743 0.000686 0.002016
0.001911 0.000722 0.002088
0.0015 0.000708 0.002404
0.002134 0.000684 0.002109
0.002065 4e-06 0.002035
0.00208 3e-06 0.002016
0.002097 2e-06 0.001998
0.002113 2e-06 0.001979
0.002128 3e-06 0.001959
0.002143 3e-06 0.00194
0.002158 3e-06 0.001921
0.002173 4e-06 0.001901
0.002187 5e-06 0.00188
0.002198 7e-06 0.001858
0.002202 1.5e-05 0.001829
0.002194 2.9e-05 0.001791
0.00218 4.7e-05 0.001747
0.002163 6.6e-05 0.001701
0.002058 0.000196 0.001392
0.002073 0.000197 0.001372
0.00209 0.000196 0.001354
0.00211 0.000193 0.001339
0.002135 0.000188 0.001327
0.002165 0.000179 0.00132
0.002208 0.000163 0.001323
0.002261 0.00014 0.001335
0.002312 0.000119 0.001345
0.002355 0.000102 0.001349
0.002402 8.3e-05 0.001356
0.002442 6.9e-05 0.001357
0.00248 5.5e-05 0.001356
0.002516 4.3e-05 0.001354
0.00255 3.2e-05 0.00135
0.00258 2.3e-05 0.001342
0.001742 0.000551 0.002014
0.001531 0.000759 0.001968
0.000507 0.00061 0.002971
0.001473 0.00063 0.002626
0.001491 0.000632 0.002609
0.001496 0.000664 0.00231
0.00149 0.000679 0.001994
0.001069 0.000609 0.002549
0.001788 0.000611 0.002038
0.001695 0.000654 0.00199
0.001453 0.000439 0.00264
0.002058 0.000478 0.002129
0.002009 1e-06 0.002021
0.001694 0.000736 0.001988
0.001741 0.00066 0.002014
0.001911 0.000478 0.002089
0.001949 0.00049 0.002101
0.002089 -1e-06 0.001928
0.002106 -2e-06 0.00191
0.00212 -1e-06 0.001889
0.002136 -1e-06 0.00187
0.002166 -0.0 0.001831
0.002178 2e-06 0.001809
0.002181 9e-06 0.00178
0.002175 2.3e-05 0.001743
0.002164 3.9e-05 0.001702
0.002058 0.000169 0.001391
0.002073 0.00017 0.001372
0.00209 0.000169 0.001354
0.00211 0.000166 0.001339
0.002135 0.00016 0.001327
0.002165 0.000152 0.00132
0.002208 0.000135 0.001323
0.00226 0.000113 0.001335
0.002312 9.2e-05 0.001345
0.002403 5.6e-05 0.001356
0.002441 4.2e-05 0.001356
0.002478 2.9e-05 0.001355
0.002511 1.8e-05 0.00135
0.00254 1e-05 0.001341
0.002562 6e-06 0.001328
0.001498 0.000591 0.002357
0.001501 0.000548 0.002537
0.001387 0.000552 0.002675
0.001317 0.00064 0.002703
0.000408 0.000617 0.002986
0.001137 0.000684 0.002603
0.001695 0.000573 0.001989
0.001456 0.000618 0.002033
0.001446 0.00061 0.002062
0.002092 0.000467 0.002136
0.001963 1e-06 0.001983
0.001978 1e-06 0.001964
0.002121 0.000433 0.002134
0.002105 -0.0 0.001813
0.002121 -0.0 0.001794
0.002136 0.0 0.001775
0.002149 2e-06 0.001754
0.002158 6e-06 0.001729
0.002156 1.6e-05 0.001696
0.002058 0.000142 0.001392
0.002073 0.000143 0.001372
0.00209 0.000142 0.001354
0.00211 0.000139 0.001339
0.002135 0.000133 0.001327
0.002166 0.000124 0.00132
0.002208 0.000108 0.001323
0.002259 8.7e-05 0.001334
0.002311 6.5e-05 0.001344
0.002356 4.8e-05 0.001349
0.002402 2.9e-05 0.001362
0.002437 1.6e-05 0.001354
0.002468 7e-06 0.001346
0.002493 2e-06 0.001334
0.002513 -0.0 0.001319
0.00253 -1e-06 0.001301
0.001553 0.00065 0.001956
0.002092 0.000576 0.002136
0.001501 0.000602 0.002537
0.001289 0.000648 0.002702
0.001349 0.000395 0.002695
0.001502 0.000619 0.002494
0.002022 0.000491 0.00212
0.001608 0.000665 0.00195
0.001695 0.000627 0.00199
0.001871 0.0 0.002003
0.001887 -0.0 0.001985
0.001904 -1e-06 0.001966
0.001936 -1e-06 0.001929
0.001953 -2e-06 0.001911
0.001968 -2e-06 0.001892
0.001985 -2e-06 0.001874
0.002002 -3e-06 0.001856
0.002018 -3e-06 0.001837
0.002033 -3e-06 0.001817
0.002048 -3e-06 0.001798
0.002064 -2e-06 0.001779
0.00208 -3e-06 0.00176
0.002096 -3e-06 0.001741
0.002112 -3e-06 0.001723
0.002125 -2e-06 0.001702
0.002134 3e-06 0.001677
0.002058 0.000115 0.001392
0.002073 0.000115 0.001372
0.00209 0.000115 0.001354
0.00211 0.000112 0.001339
0.002135 0.000106 0.001327
0.002165 9.8e-05 0.00132
0.002208 8.1e-05 0.001324
0.002259 6e-05 0.001333
0.002311 3.7e-05 0.001345
0.002357 1.9e-05 0.00135
0.002393 7e-06 0.001348
0.002451 1e-06 0.0013
0.002465 2e-06 0.00128
0.001553 0.000704 0.001957
0.002058 0.000587 0.002129
0.001911 0.000695 0.002089
0.000531 0.000581 0.002967
0.000604 0.000423 0.002872
0.0015 0.000654 0.002404
0.001104 0.000401 0.002577
0.001647 0.00065 0.001962
0.001579 0.000672 0.001951
0.00183 -2e-06 0.00197
0.001845 -2e-06 0.00195
0.001861 -2e-06 0.001931
0.001875 -1e-06 0.00191
0.001891 -1e-06 0.001892
0.001922 -1e-06 0.001853
0.001938 -1e-06 0.001835
0.001953 -0.0 0.001815
0.001969 -1e-06 0.001797
0.001984 -1e-06 0.001777
0.002001 -1e-06 0.001759
0.002017 -1e-06 0.00174
0.002032 -1e-06 0.001721
0.002048 -1e-06 0.001702
0.002062 0.0 0.001681
0.002094 -1e-06 0.001644
0.002104 3e-06 0.001621
0.002058 8.8e-05 0.001391
0.002073 8.8e-05 0.001372
0.00209 8.8e-05 0.001354
0.00211 8.5e-05 0.001338
0.002135 7.9e-05 0.001327
0.002164 7.1e-05 0.001319
0.001472 0.000623 0.002012
0.002022 0.0006 0.00212
0.0015 0.000681 0.002404
0.000935 0.000751 0.002456
0.000555 0.000581 0.002961
0.001986 0.000667 0.002112
0.00153 0.000652 0.001966
0.001789 -3e-05 0.001106
0.001783 -0.0 0.00193
0.001797 -0.0 0.00191
0.001829 -1e-06 0.001873
0.001845 -1e-06 0.001854
0.001861 -0.0 0.001835
0.001877 -1e-06 0.001816
0.001893 -1e-06 0.001798
0.001909 -1e-06 0.001779
0.001925 -2e-06 0.00176
0.001941 -2e-06 0.001741
0.001957 -2e-06 0.001723
0.001972 -2e-06 0.001704
0.001988 -1e-06 0.001684
0.002005 -2e-06 0.001666
0.002019 -2e-06 0.001647
0.001775 -3.1e-05 0.001126
0.002052 -2e-06 0.001609
0.002058 6e-05 0.001391
0.002073 6.1e-05 0.001372
0.002089 6.1e-05 0.001354
0.002109 5.8e-05 0.001338
0.002134 5.2e-05 0.001326
0.002164 4.4e-05 0.001319
0.002259 3e-06 0.001335
0.002287 -2e-06 0.001324
0.002331 -0.0 0.001265
0.002347 -0.0 0.001246
0.001833 0.000536 0.002061
0.001501 0.000613 0.00258
0.001496 0.000746 0.00231
0.001502 0.000717 0.00245
0.001501 0.000735 0.002405
0.001502 0.000673 0.002494
0.0015 0.000546 0.002403
0.00097 -5e-06 0.002003
0.000946 -5e-06 0.00201
0.000923 -5e-06 0.002019
0.00176 -3.1e-05 0.001146
0.001746 -5e-06 0.0019
0.001762 -6e-06 0.001882
0.001779 -7e-06 0.001863
0.001794 -6e-06 0.001844
0.001807 -5e-06 0.001823
0.001824 -6e-06 0.001805
0.001841 -6e-06 0.001787
0.001409 0.000387 0.002664
0.001887 -6e-06 0.001729
0.001901 -5e-06 0.001709
0.001917 -5e-06 0.00169
0.001934 -6e-06 0.001672
0.00195 -6e-06 0.001653
0.001964 -5e-06 0.001633
0.001745 -3.2e-05 0.001165
0.002058 3.3e-05 0.001391
0.002072 3.4e-05 0.001371
0.00209 3.3e-05 0.001354
0.002109 3.1e-05 0.001338
0.002134 2.5e-05 0.001326
0.002167 1.5e-05 0.001321
0.002208 -0.0 0.001323
0.002232 -6e-06 0.001311
0.002246 -5e-06 0.001291
0.00226 -3e-06 0.00127
0.002275 -3e-06 0.001251
0.00229 -2e-06 0.001231
0.002304 -2e-06 0.001211
0.001788 0.000556 0.002039
0.001872 0.000738 0.002075
0.001498 0.000727 0.002357
0.002092 0.00063 0.002137
0.001521 2.7e-05 0.00197
0.001553 0.000677 0.001957
0.001498 0.000564 0.002356
0.00173 -3.3e-05 0.001185
0.0009 -5e-06 0.002025
0.000736 -6e-06 0.00208
0.000712 -5e-06 0.002087
0.001698 -4e-06 0.00186
0.001712 -3e-06 0.00184
0.001728 -3e-06 0.001821
0.001742 -2e-06 0.001802
0.001758 -2e-06 0.001783
0.001774 -2e-06 0.001763
0.00179 -3e-06 0.001745
0.001715 -3.3e-05 0.001205
0.001821 -2e-06 0.001706
0.001496 0.000609 0.002311
0.002092 0.000521 0.002136
0.001898 -2e-06 0.001611
0.001916 -3e-06 0.001593
0.001931 -3e-06 0.001574
0.001945 -2e-06 0.001553
0.00196 -1e-06 0.001534
0.001977 -2e-06 0.001516
0.002072 7e-06 0.001371
0.002089 6e-06 0.001353
0.00211 3e-06 0.001339
0.002135 -3e-06 0.001327
0.00216 -8e-06 0.001316
0.002174 -7e-06 0.001295
0.002234 -6e-06 0.001217
0.002248 -5e-06 0.001197
0.002265 -5e-06 0.001178
0.002298 -6e-06 0.001142
0.002316 -8e-06 0.001125
0.00153 0.000679 0.001967
0.001509 0.00068 0.001979
0.002121 0.00046 0.002134
0.001475 0.000726 0.002586
0.001519 1e-06 0.001969
0.001541 -3e-06 0.001955
0.0017 -3.3e-05 0.001224
0.001648 -1e-06 0.001819
0.001663 -0.0 0.0018
0.001437 0.000724 0.002617
0.001499 0.000519 0.002402
0.001726 -1e-06 0.001724
0.001458 0.000723 0.002605
0.001774 -1e-06 0.001668
0.001789 -1e-06 0.001648
0.001205 0.00049 0.002649
0.001852 -1e-06 0.001572
0.001867 -1e-06 0.001553
0.001882 -0.0 0.001534
0.001898 -0.0 0.001515
0.001915 -1e-06 0.001497
0.001931 -1e-06 0.001478
0.001946 -1e-06 0.001459
0.002136 -2e-06 0.001232
0.00215 -1e-06 0.001212
0.002214 -2e-06 0.001137
0.002231 -3e-06 0.001119
0.002249 -4e-06 0.001102
0.002265 -4e-06 0.001083
0.002281 -5e-06 0.001064
0.001411 1e-06 0.002008
0.001428 0.0 0.001989
0.001685 -3.4e-05 0.001244
0.001493 -1e-06 0.001915
0.001508 -1e-06 0.001896
0.001525 -1e-06 0.001878
0.0015 0.000573 0.002403
0.000507 0.000447 0.002972
0.000617 0.000303 0.002831
0.00153 0.000706 0.001967
0.001606 -3e-06 0.001785
0.001622 -3e-06 0.001766
0.00127 0.000544 0.002692
0.001553 0.000623 0.001956
0.001489 0.000625 0.001994
0.001688 -5e-06 0.001693
0.000643 0.000362 0.002752
0.001487 0.000553 0.002253
0.000604 0.000532 0.002872
0.00127 0.000489 0.002692
0.001138 0.000738 0.002603
0.001453 0.000412 0.00264
0.0018 -6e-06 0.001562
0.001816 -6e-06 0.001543
0.001831 -6e-06 0.001524
0.001847 -6e-06 0.001505
0.001863 -6e-06 0.001486
0.001878 -6e-06 0.001466
0.001893 -6e-06 0.001447
0.001908 -5e-06 0.001428
0.001924 -5e-06 0.001409
0.00167 -3.4e-05 0.001263
0.001655 -3.4e-05 0.001283
0.00164 -3.5e-05 0.001302
0.001624 -3.5e-05 0.001321
0.002061 -3e-06 0.001234
0.002076 -3e-06 0.001214
0.002092 -3e-06 0.001196
0.002106 -2e-06 0.001176
0.002153 -1e-06 0.001118
0.002168 -1e-06 0.001099
0.002184 -1e-06 0.00108
0.002199 -1e-06 0.00106
0.002214 -1e-06 0.001041
0.002232 -2e-06 0.001024
0.001472 0.000677 0.002012
0.00139 -4e-06 0.001958
0.001406 -4e-06 0.001939
0.001501 0.000501 0.002448
0.002092 0.000494 0.002135
0.001457 -6e-06 0.001886
0.001474 -7e-06 0.001868
0.001493 -8e-06 0.001851
0.001206 0.000381 0.002651
0.001647 0.000677 0.001963
0.000604 0.000369 0.002872
0.001509 0.000707 0.001979
0.001574 -1e-05 0.001758
0.001591 -1.1e-05 0.00174
0.001387 0.00047 0.002676
0.001634 -9e-06 0.001681
0.00165 -9e-06 0.001661
0.001666 -9e-06 0.001642
0.001446 0.000637 0.002062
0.001788 0.000638 0.002039
0.000911 0.000705 0.002382
0.000591 0.000354 0.002911
0.001744 -9e-06 0.001547
0.001757 -8e-06 0.001526
0.001775 -9e-06 0.001509
0.001792 -1e-05 0.001491
0.001806 -9e-06 0.001471
0.001822 -9e-06 0.001452
0.001839 -1e-05 0.001434
0.001854 -9e-06 0.001415
0.001869 -9e-06 0.001395
0.001884 -1e-05 0.001375
0.00203 -1.1e-05 0.001208
0.002044 -1e-05 0.001188
0.002058 -9e-06 0.001168
0.002073 -8e-06 0.001148
0.002117 -7e-06 0.001088
0.00213 -6e-06 0.001068
0.002145 -5e-06 0.001048
0.002161 -5e-06 0.001029
0.001487 0.000525 0.002253
0.001495 0.000502 0.002308
0.001371 -1e-05 0.00191
0.001502 0.000483 0.002494
0.002121 0.000487 0.002134
0.001418 -1e-05 0.001853
0.001433 -9e-06 0.001834
0.001476 -7e-06 0.001774
0.001492 -7e-06 0.001755
0.001474 0.000411 0.002628
0.00157 -7e-06 0.00166
0.001585 -6e-06 0.00164
0.001601 -7e-06 0.001621
0.001616 -6e-06 0.001602
0.001832 0.000591 0.00206
0.001949 0.000708 0.002101
0.002127 0.000716 0.002099
0.001502 0.000727 0.002495
0.001709 -6e-06 0.001487
0.001725 -6e-06 0.001468
0.001756 -6e-06 0.00143
0.001773 -7e-06 0.001412
0.001898 -6e-06 0.001259
0.001912 -5e-06 0.001239
0.00193 -6e-06 0.001222
0.001978 -7e-06 0.001166
0.001995 -8e-06 0.001148
0.002012 -9e-06 0.00113
0.002029 -9e-06 0.001112
0.002046 -1e-05 0.001094
0.002076 -9e-06 0.001055
0.002091 -9e-06 0.001035
0.001609 -3.5e-05 0.00134
0.001366 -6e-06 0.00181
0.001382 -6e-06 0.001792
0.001395 -5e-06 0.001771
0.001412 -5e-06 0.001753
0.001427 -5e-06 0.001733
0.001443 -5e-06 0.001714
0.001172 0.000505 0.002627
0.001487 0.00058 0.002252
0.001501 0.000555 0.002449
0.00152 -4e-06 0.001618
0.001536 -5e-06 0.0016
0.001552 -4e-06 0.001581
0.001567 -4e-06 0.001561
0.001138 0.000466 0.002603
0.001501 0.000456 0.002493
0.001347 0.00067 0.002689
0.001172 0.00037 0.002626
0.001949 0.000735 0.0021
0.001487 0.000688 0.002253
0.0015 0.000505 0.002579
0.001695 -6e-06 0.001411
0.00171 -6e-06 0.001392
0.001726 -5e-06 0.001373
0.00174 -4e-06 0.001353
0.001835 -5e-06 0.001239
0.00185 -4e-06 0.00122
0.001864 -4e-06 0.0012
0.00188 -4e-06 0.001181
0.001928 -5e-06 0.001125
0.001944 -4e-06 0.001106
0.001959 -4e-06 0.001087
0.001977 -5e-06 0.001069
0.001993 -5e-06 0.00105
0.002008 -5e-06 0.001031
0.002057 -6e-06 0.000976
0.002075 -7e-06 0.000958
0.002089 -7e-06 0.000938
0.001509 0.000626 0.001978
0.001501 0.000413 0.002536
0.001475 0.000384 0.002628
0.000754 0.000758 0.002376
0.002113 0.000684 0.002123
0.001319 -5e-06 0.001772
0.001335 -5e-06 0.001753
0.001352 -6e-06 0.001736
0.001368 -6e-06 0.001717
0.001385 -7e-06 0.001699
0.001401 -7e-06 0.00168
0.001327 0.000312 0.002705
0.002022 0.000518 0.00212
0.001495 0.000556 0.002309
0.001468 -9e-06 0.001607
0.001484 -9e-06 0.001588
0.0015 -9e-06 0.00157
0.001516 -1e-05 0.001551
0.001533 -1.1e-05 0.001533
0.001548 -1.1e-05 0.001514
0.001565 -1.1e-05 0.001496
0.001582 -1.2e-05 0.001478
0.001598 -1.2e-05 0.001459
0.001613 -1.2e-05 0.00144
0.001629 -1.2e-05 0.001421
0.001646 -1.2e-05 0.001403
0.001661 -1.2e-05 0.001384
0.001677 -1.2e-05 0.001364
0.001692 -1.2e-05 0.001345
0.001707 -1.2e-05 0.001326
0.001723 -1.2e-05 0.001307
0.001784 -1.1e-05 0.001229
0.001799 -1.1e-05 0.00121
0.001815 -1e-05 0.001191
0.001829 -1e-05 0.001171
0.001845 -9e-06 0.001152
0.00189 -8e-06 0.001093
0.001904 -7e-06 0.001073
0.001919 -7e-06 0.001054
0.001933 -6e-06 0.001033
0.001948 -6e-06 0.001014
0.001963 -5e-06 0.000994
0.001979 -5e-06 0.000975
0.001994 -5e-06 0.000955
0.002007 -3e-06 0.000935
0.002027 -6e-06 0.000919
0.001138 0.000494 0.002602
0.001172 0.000397 0.002626
0.001472 0.000704 0.002012
0.001457 0.000699 0.002034
0.002089 0.000687 0.002131
0.000591 0.000652 0.002912
0.001301 0.000315 0.002707
0.001318 -1.3e-05 0.001708
0.001336 -1.4e-05 0.00169
0.001484 0.000692 0.002598
0.001496 0.000699 0.002573
0.001466 0.00069 0.002617
0.001447 0.000689 0.002632
0.002091 0.000658 0.002135
0.002058 0.000669 0.00213
0.001455 -1.9e-05 0.001565
0.001471 -1.9e-05 0.001546
0.001488 -2e-05 0.001528
0.001504 -2e-05 0.00151
0.001521 -2.1e-05 0.001491
0.001537 -2.1e-05 0.001472
0.001553 -2.1e-05 0.001454
0.001569 -2.2e-05 0.001435
0.001585 -2.2e-05 0.001417
0.001601 -2.2e-05 0.001398
0.001617 -2.2e-05 0.001379
0.001633 -2.3e-05 0.00136
0.001648 -2.2e-05 0.001341
0.001664 -2.2e-05 0.001322
0.001679 -2.2e-05 0.001302
0.001694 -2.1e-05 0.001283
0.00171 -2.1e-05 0.001264
0.001725 -2.1e-05 0.001244
0.00174 -2.1e-05 0.001225
0.001755 -2e-05 0.001205
0.00177 -2e-05 0.001186
0.001784 -2e-05 0.001166
0.001799 -1.9e-05 0.001146
0.001815 -1.9e-05 0.001127
0.001829 -1.8e-05 0.001107
0.001857 -1.6e-05 0.001067
0.001873 -1.6e-05 0.001047
0.001887 -1.5e-05 0.001027
0.001902 -1.4e-05 0.001007
0.001916 -1.3e-05 0.000987
0.001959 -1.1e-05 0.000926
0.001973 -1e-05 0.000906
0.001987 -9e-06 0.000886
0.001833 0.000563 0.002061
0.001069 0.000419 0.002548
0.001834 0.000509 0.002062
0.001447 0.000691 0.002063
0.001509 0.000653 0.001979
0.001431 0.000467 0.002652
0.001501 0.00051 0.002493
0.001447 0.000717 0.002064
0.001501 0.000521 0.002536
0.000507 0.000474 0.002971
0.001443 0.00065 0.002101
0.0015 0.000474 0.002447
0.001453 0.000385 0.002641
0.001788 0.000584 0.002038
0.002058 0.000506 0.002128
0.00143 -3.1e-05 0.001544
0.001446 -3.2e-05 0.001526
0.001463 -3.2e-05 0.001508
0.00148 -3.3e-05 0.001489
0.001496 -3.3e-05 0.001471
0.001513 -3.4e-05 0.001453
0.001529 -3.4e-05 0.001434
0.001545 -3.4e-05 0.001415
0.001561 -3.5e-05 0.001397
0.001577 -3.5e-05 0.001378
0.001593 -3.5e-05 0.001359
0.001986 0.00045 0.002111
0.002022 0.000437 0.002121
0.002058 0.000424 0.00213
0.002093 0.000412 0.002137
0.000507 0.000284 0.002971
0.000731 0.000512 0.002386
0.000825 0.000512 0.002354
0.001238 0.000503 0.002671
0.001104 0.000564 0.002577
0.000591 0.000489 0.002911
0.000911 0.000732 0.002382
0.001171 0.000668 0.002628
0.00141 0.00036 0.002664
0.001431 0.000359 0.002653
0.001453 0.000357 0.002641
0.001474 0.000357 0.002628
0.001493 0.000358 0.002612
0.0015 0.000369 0.002579
0.001501 0.000386 0.002536
0.001501 0.000402 0.002493
0.001501 0.000419 0.002448
0.001499 0.000437 0.002403
0.001497 0.000456 0.002355
0.001495 0.000475 0.002308
0.001487 0.000498 0.002253
0.001446 0.000582 0.002062
0.001456 0.000591 0.002033
0.001471 0.000596 0.002011
0.001489 0.000598 0.001993
0.001509 0.000599 0.001979
0.001529 0.000598 0.001965
0.001553 0.000596 0.001956
0.001578 0.000591 0.001949
0.001609 0.000583 0.00195
0.001646 0.000569 0.001961
0.001695 0.000545 0.00199
0.001742 0.000523 0.002015
0.001788 0.000502 0.002038
0.001833 0.000482 0.002061
0.001873 0.000465 0.002076
0.001912 0.00045 0.002089
0.001949 0.000436 0.0021
0.001987 0.000422 0.002111
0.002022 0.00041 0.00212
0.002058 0.000397 0.00213
0.002093 0.000385 0.002137
0.000694 0.000551 0.002431
0.000712 0.00056 0.002405
0.000617 0.000384 0.002833
0.001372 0.00037 0.002684
0.001327 0.000367 0.002705
0.000879 0.000691 0.002363
0.000682 0.000697 0.002475
0.001416 0.000592 0.00266
0.001436 0.000678 0.002643
0.001431 0.000332 0.002652
0.001453 0.00033 0.002641
0.001474 0.00033 0.002628
0.001493 0.000331 0.002612
0.001501 0.000341 0.002579
0.001501 0.000359 0.002535
0.001501 0.000375 0.002493
0.001501 0.000392 0.002448
0.001499 0.000411 0.002401
0.001497 0.000429 0.002355
0.001495 0.000448 0.002308
0.001464 0.000507 0.002175
0.001444 0.00054 0.002102
0.001446 0.000555 0.002062
0.001456 0.000564 0.002033
0.001471 0.000568 0.002011
0.001489 0.000571 0.001994
0.001509 0.000571 0.001979
0.001529 0.000571 0.001965
0.001552 0.000569 0.001955
0.001578 0.000564 0.00195
0.001608 0.000556 0.00195
0.001646 0.000542 0.001961
0.001695 0.000518 0.001989
0.001742 0.000496 0.002015
0.001788 0.000475 0.002039
0.001833 0.000455 0.00206
0.001873 0.000438 0.002076
0.001912 0.000423 0.002089
0.001949 0.000409 0.0021
0.001987 0.000395 0.002111
0.002023 0.000382 0.00212
0.002058 0.00037 0.00213
0.002093 0.000358 0.002137
0.000951 0.000599 0.002424
0.000643 0.00047 0.002753
0.001349 0.000368 0.002695
0.000911 0.000678 0.002381
0.000694 0.000714 0.002432
0.000482 0.000557 0.002975
0.001414 0.000675 0.002656
0.001431 0.000304 0.002652
0.001453 0.000303 0.002641
0.001475 0.000302 0.002629
0.001493 0.000304 0.002612
0.001501 0.000314 0.002579
0.001501 0.000331 0.002535
0.001501 0.000348 0.002492
0.001501 0.000365 0.002448
0.001498 0.000384 0.002401
0.001497 0.000402 0.002355
0.001495 0.000421 0.002308
0.001442 0.000514 0.0021
0.001446 0.000528 0.002062
0.001456 0.000537 0.002033
0.001471 0.000541 0.002011
0.001489 0.000543 0.001994
0.001509 0.000544 0.001978
0.001529 0.000544 0.001965
0.001552 0.000542 0.001956
0.001579 0.000537 0.00195
0.001608 0.000529 0.00195
0.001645 0.000515 0.00196
0.001694 0.000492 0.001988
0.001789 0.000447 0.00204
0.001833 0.000428 0.00206
0.001873 0.000411 0.002076
0.001912 0.000396 0.002089
0.001949 0.000382 0.0021
0.001987 0.000368 0.002111
0.002023 0.000354 0.002121
0.002058 0.000342 0.00213
0.002093 0.00033 0.002138
0.00099 0.000575 0.002467
0.000911 0.000624 0.002382
0.001349 0.000477 0.002695
0.001327 0.000476 0.002705
0.000643 0.000308 0.002751
0.00099 0.000629 0.002467
0.000712 0.000723 0.002406
0.000591 0.000571 0.002912
0.001409 0.000278 0.002664
0.001431 0.000277 0.002652
0.001453 0.000276 0.002641
0.001474 0.000275 0.002628
0.001493 0.000277 0.002612
0.0015 0.000287 0.002579
0.0015 0.000304 0.002535
0.001501 0.000321 0.002492
0.001501 0.000338 0.002448
0.001498 0.000357 0.002401
0.001497 0.000375 0.002355
0.001494 0.000394 0.002307
0.001486 0.000418 0.002251
0.001444 0.000486 0.002102
0.001446 0.000501 0.002062
0.001457 0.000509 0.002033
0.001471 0.000514 0.002011
0.001489 0.000516 0.001994
0.001509 0.000517 0.001978
0.00153 0.000517 0.001966
0.001553 0.000514 0.001956
0.001579 0.00051 0.00195
0.001608 0.000502 0.00195
0.001645 0.000488 0.00196
0.001695 0.000464 0.00199
0.001742 0.000442 0.002015
0.001789 0.00042 0.00204
0.001833 0.0004 0.00206
0.001873 0.000384 0.002075
0.001912 0.000368 0.002089
0.00195 0.000354 0.002101
0.001987 0.000341 0.002111
0.002023 0.000328 0.002121
0.002058 0.000315 0.00213
0.002093 0.000303 0.002137
0.0008 0.000515 0.002357
0.000911 0.000488 0.002382
0.000879 0.000528 0.002362
0.001172 0.000532 0.002627
0.000851 0.000698 0.002357
0.000576 0.000476 0.002946
0.000667 0.000641 0.002668
0.000667 0.000722 0.002667
0.001409 0.000251 0.002664
0.001431 0.00025 0.002652
0.001453 0.000249 0.002641
0.001475 0.000248 0.002628
0.001493 0.00025 0.002612
0.0015 0.000261 0.002578
0.001501 0.000277 0.002536
0.001501 0.000293 0.002492
0.001501 0.00031 0.002449
0.001499 0.000329 0.002401
0.001497 0.000347 0.002356
0.001495 0.000366 0.002308
0.001487 0.00039 0.002252
0.001442 0.00046 0.0021
0.001446 0.000474 0.002061
0.001457 0.000482 0.002034
0.001471 0.000487 0.002011
0.001489 0.000489 0.001993
0.001508 0.00049 0.001978
0.00153 0.00049 0.001965
0.001553 0.000487 0.001956
0.001579 0.000482 0.00195
0.001608 0.000475 0.001949
0.001645 0.000461 0.00196
0.001742 0.000415 0.002015
0.001789 0.000393 0.00204
0.001833 0.000374 0.00206
0.001873 0.000357 0.002076
0.001912 0.000341 0.00209
0.00195 0.000327 0.002101
0.001987 0.000314 0.002111
0.002023 0.0003 0.002121
0.002058 0.000288 0.00213
0.002093 0.000276 0.002137
0.002122 0.00027 0.002134
0.000656 0.00046 0.002712
0.001271 0.000381 0.002691
0.000731 0.00062 0.002387
0.000482 0.000476 0.002975
0.001138 0.000575 0.002603
0.00095 0.000709 0.002421
0.000482 0.00053 0.002976
0.000433 0.000615 0.002983
0.001409 0.000224 0.002664
0.001431 0.000223 0.002652
0.001453 0.000222 0.002641
0.001474 0.000221 0.002628
0.001493 0.000223 0.002611
0.0015 0.000233 0.002578
0.001501 0.00025 0.002535
0.001501 0.000266 0.002492
0.001501 0.000283 0.002449
0.001499 0.000302 0.002401
0.001497 0.00032 0.002356
0.001495 0.000339 0.002308
0.001486 0.000363 0.002251
0.001443 0.000432 0.002101
0.001446 0.000447 0.002061
0.001457 0.000455 0.002033
0.001471 0.00046 0.002011
0.001489 0.000462 0.001993
0.001508 0.000463 0.001978
0.001529 0.000462 0.001965
0.001552 0.00046 0.001955
0.001578 0.000455 0.001949
0.001608 0.000448 0.001949
0.001646 0.000433 0.001961
0.001695 0.000409 0.00199
0.001742 0.000387 0.002015
0.001789 0.000365 0.00204
0.001833 0.000346 0.00206
0.001873 0.000329 0.002076
0.001912 0.000314 0.00209
0.00195 0.0003 0.002101
0.001987 0.000286 0.002111
0.002023 0.000273 0.002121
0.002058 0.000261 0.00213
0.002093 0.000249 0.002137
0.002122 0.000242 0.002134
0.000667 0.000477 0.002668
0.000643 0.000444 0.002752
0.000776 0.000678 0.002365
0.001327 0.000503 0.002705
0.000643 0.000607 0.002752
0.001301 0.00056 0.002707
0.000655 0.000704 0.002712
0.000574 0.00067 0.002939
0.001409 0.000197 0.002664
0.001431 0.000196 0.002652
0.001453 0.000195 0.00264
0.001474 0.000194 0.002627
0.001492 0.000196 0.002611
0.001501 0.000206 0.002579
0.001501 0.000222 0.002536
0.001501 0.000239 0.002492
0.001501 0.000256 0.002448
0.001499 0.000274 0.002402
0.001498 0.000293 0.002356
0.001495 0.000312 0.002308
0.001486 0.000336 0.002251
0.001407 -3.1e-05 0.001565
0.001444 0.000405 0.002102
0.001446 0.00042 0.002061
0.001457 0.000428 0.002033
0.001471 0.000433 0.002011
0.001489 0.000435 0.001993
0.001509 0.000436 0.001978
0.001529 0.000435 0.001965
0.001552 0.000433 0.001955
0.001579 0.000428 0.00195
0.001608 0.00042 0.001949
0.001646 0.000406 0.001961
0.001695 0.000382 0.001989
0.001743 0.00036 0.002016
0.001789 0.000338 0.00204
0.001833 0.000319 0.00206
0.001873 0.000302 0.002076
0.001912 0.000287 0.002089
0.00195 0.000273 0.002101
0.001987 0.000259 0.002112
0.002023 0.000246 0.002121
0.002059 0.000233 0.002129
0.002093 0.000222 0.002136
0.002121 0.000216 0.002133
0.000556 0.000308 0.002962
0.001068 0.000447 0.002547
0.001031 0.000549 0.002511
0.001349 0.000504 0.002695
0.000555 0.000526 0.002962
0.001371 0.000615 0.002683
0.000668 0.000748 0.00267
0.001388 0.000171 0.002675
0.001409 0.00017 0.002664
0.001431 0.000168 0.002652
0.001453 0.000168 0.00264
0.001473 0.000167 0.002627
0.001492 0.000169 0.002609
0.0015 0.000179 0.002579
0.001501 0.000195 0.002536
0.001501 0.000212 0.002492
0.001501 0.000229 0.002448
0.0015 0.000247 0.002403
0.001497 0.000266 0.002356
0.001494 0.000286 0.002306
0.001487 0.000308 0.002253
0.001443 0.000378 0.002101
0.001446 0.000392 0.002061
0.001457 0.000401 0.002033
0.001471 0.000405 0.002011
0.001489 0.000408 0.001993
0.001509 0.000408 0.001978
0.001529 0.000408 0.001965
0.001553 0.000406 0.001955
0.001579 0.000401 0.00195
0.001608 0.000393 0.00195
0.001646 0.000379 0.001961
0.001695 0.000355 0.001989
0.00179 0.000311 0.002041
0.001833 0.000292 0.002061
0.001873 0.000275 0.002076
0.001912 0.00026 0.002088
0.001951 0.000245 0.002102
0.001987 0.000232 0.002112
0.002023 0.000219 0.002121
0.002059 0.000206 0.00213
0.002092 0.000195 0.002135
0.002121 0.000189 0.002133
0.000731 0.000593 0.002387
0.000851 0.000481 0.002355
0.001387 -3.2e-05 0.00158
0.000667 0.000504 0.002668
0.00095 0.000681 0.002423
0.00063 0.00059 0.002793
0.000913 0.000756 0.002389
0.001349 0.000641 0.002693
0.001387 0.000144 0.002675
0.001409 0.000143 0.002664
0.001431 0.000142 0.002652
0.001452 0.000141 0.002639
0.001472 0.000141 0.002625
0.00149 0.000143 0.002608
0.0015 0.000152 0.002578
0.001501 0.000168 0.002535
0.001501 0.000185 0.002492
0.001501 0.000202 0.002448
0.001499 0.00022 0.002402
0.001497 0.000238 0.002356
0.001494 0.000258 0.002307
0.001485 0.000282 0.00225
0.001442 0.000352 0.002099
0.001446 0.000365 0.002061
0.001457 0.000374 0.002033
0.001471 0.000378 0.002011
0.001489 0.000381 0.001993
0.001509 0.000381 0.001978
0.00153 0.000381 0.001965
0.001553 0.000379 0.001955
0.001579 0.000374 0.00195
0.001609 0.000366 0.00195
0.001646 0.000352 0.001961
0.001695 0.000328 0.001989
0.00179 0.000283 0.002041
0.001834 0.000264 0.002061
0.001874 0.000248 0.002076
0.001912 0.000233 0.002089
0.00195 0.000218 0.002102
0.001987 0.000204 0.002112
0.002024 0.000191 0.002122
0.002058 0.000179 0.002129
0.002093 0.000168 0.002135
0.00212 0.000162 0.002131
0.000711 0.000588 0.002405
0.000694 0.000579 0.002431
0.000676 0.000527 0.002616
0.001238 0.000531 0.002671
0.000591 0.000516 0.002911
0.000777 0.000758 0.002367
0.001438 0.000621 0.002648
0.001324 0.000671 0.002696
0.001408 0.000117 0.002662
0.001429 0.000116 0.002649
0.00145 0.000116 0.002636
0.00147 0.000116 0.002621
0.001488 0.000118 0.002604
0.001499 0.000125 0.002577
0.001501 0.000141 0.002536
0.001501 0.000158 0.002492
0.001501 0.000175 0.002448
0.001499 0.000193 0.002401
0.001498 0.000211 0.002356
0.001494 0.000231 0.002307
0.001486 0.000255 0.002251
0.001443 0.000324 0.0021
0.001446 0.000338 0.002061
0.001456 0.000346 0.002033
0.001471 0.000351 0.002011
0.001489 0.000353 0.001993
0.001509 0.000354 0.001978
0.001529 0.000354 0.001965
0.001553 0.000351 0.001955
0.001579 0.000346 0.00195
0.001608 0.000339 0.00195
0.001647 0.000324 0.001962
0.001695 0.000301 0.00199
0.001744 0.000277 0.002018
0.00179 0.000256 0.002041
0.001834 0.000236 0.002062
0.001874 0.00022 0.002077
0.001913 0.000205 0.00209
0.00195 0.000191 0.002101
0.001987 0.000177 0.002112
0.002024 0.000164 0.002122
0.002059 0.000152 0.002129
0.002093 0.000141 0.002135
0.002118 0.000136 0.002129
0.000507 0.00023 0.00297
0.000682 0.000561 0.002474
0.001367 -3.2e-05 0.001595
0.001347 -3.3e-05 0.00161
0.001069 0.000364 0.002548
0.001069 0.000581 0.002549
0.000531 0.000472 0.002968
0.001104 0.000618 0.002577
0.001394 0.00059 0.002672
0.000643 0.000715 0.002753
0.001405 9.2e-05 0.002657
0.001426 9.1e-05 0.002644
0.001446 9.1e-05 0.002631
0.001466 9.2e-05 0.002616
0.001485 9.4e-05 0.002599
0.001498 9.9e-05 0.002575
0.001501 0.000114 0.002536
0.001501 0.00013 0.002493
0.001501 0.000148 0.002448
0.001499 0.000166 0.002402
0.001497 0.000184 0.002355
0.001495 0.000203 0.002307
0.001443 0.000297 0.0021
0.001446 0.000311 0.002061
0.001456 0.000319 0.002033
0.001471 0.000324 0.002011
0.001489 0.000326 0.001993
0.001509 0.000327 0.001978
0.00153 0.000326 0.001965
0.001553 0.000324 0.001955
0.001579 0.000319 0.00195
0.001609 0.000311 0.00195
0.001647 0.000296 0.001963
0.001695 0.000273 0.00199
0.001745 0.000249 0.002019
0.001834 0.000209 0.002062
0.001874 0.000193 0.002077
0.001912 0.000178 0.002089
0.00195 0.000164 0.002101
0.001988 0.00015 0.002112
0.002024 0.000137 0.002121
0.002059 0.000125 0.002129
0.002092 0.000114 0.002134
0.002116 0.000111 0.002125
0.001238 0.000313 0.002671
0.001301 0.000288 0.002707
0.001328 -3.3e-05 0.001624
0.001104 0.000347 0.002577
0.000851 0.000508 0.002355
0.000655 0.000568 0.002712
0.001138 0.000603 0.002602
0.000642 0.000634 0.002751
0.001459 0.000651 0.002633
0.0014 6.9e-05 0.002649
0.001421 6.9e-05 0.002637
0.001441 6.8e-05 0.002623
0.001461 6.9e-05 0.002608
0.00148 7e-05 0.002592
0.001495 7.4e-05 0.002571
0.001501 8.7e-05 0.002535
0.001501 0.000104 0.002491
0.001501 0.00012 0.002448
0.001499 0.000139 0.002401
0.001497 0.000157 0.002355
0.001494 0.000177 0.002307
0.001443 0.000269 0.002101
0.001446 0.000284 0.002061
0.001456 0.000292 0.002033
0.001471 0.000297 0.002011
0.001489 0.000299 0.001993
0.001509 0.0003 0.001978
0.00153 0.000299 0.001965
0.001553 0.000297 0.001956
0.001579 0.000292 0.00195
0.001609 0.000284 0.00195
0.001647 0.000269 0.001963
0.001695 0.000246 0.001989
0.001745 0.000222 0.002018
0.00179 0.000201 0.002041
0.001834 0.000182 0.002062
0.001874 0.000166 0.002077
0.001912 0.000151 0.002089
0.00195 0.000137 0.002101
0.001988 0.000122 0.002112
0.002024 0.000109 0.002122
0.002059 9.7e-05 0.002129
0.002089 8.9e-05 0.00213
0.002112 8.7e-05 0.00212
0.000482 0.000313 0.002975
0.001416 0.000347 0.002661
0.0008 0.000623 0.002358
0.000776 0.000623 0.002365
0.000879 0.000664 0.002363
0.000604 0.000504 0.002873
0.000576 0.00053 0.002946
0.001416 0.000618 0.00266
0.000655 0.000732 0.002711
0.001392 4.8e-05 0.002639
0.001414 4.7e-05 0.002626
0.001434 4.7e-05 0.002613
0.001454 4.8e-05 0.002598
0.001473 4.9e-05 0.002582
0.00149 5.2e-05 0.002562
0.0015 6.1e-05 0.002533
0.0015 7.7e-05 0.002491
0.001501 9.3e-05 0.002448
0.001499 0.000112 0.002401
0.001497 0.00013 0.002355
0.001494 0.00015 0.002306
0.001487 0.000172 0.002252
0.001308 -3.4e-05 0.001639
0.001442 0.000243 0.0021
0.001446 0.000257 0.002061
0.001457 0.000265 0.002033
0.001471 0.00027 0.002011
0.001489 0.000272 0.001993
0.001509 0.000272 0.001978
0.00153 0.000272 0.001965
0.001553 0.000269 0.001956
0.001579 0.000265 0.00195
0.001609 0.000256 0.001951
0.001647 0.000242 0.001963
0.001696 0.000219 0.001991
0.001744 0.000195 0.002018
0.00179 0.000174 0.002041
0.001835 0.000154 0.002063
0.001874 0.000139 0.002077
0.001912 0.000124 0.002089
0.00195 0.00011 0.0021
0.001987 9.6e-05 0.002112
0.002024 8.2e-05 0.002122
0.002058 7.1e-05 0.002128
0.002085 6.6e-05 0.002123
0.002107 6.4e-05 0.002112
0.000507 0.000311 0.002972
0.001394 0.000345 0.002672
0.000507 0.000338 0.002972
0.000753 0.000623 0.002374
0.001031 0.000385 0.002513
0.000851 0.000671 0.002356
0.001301 0.000506 0.002706
0.001172 0.000614 0.002627
0.001238 0.000666 0.002671
0.000456 0.000669 0.002976
0.001383 2.9e-05 0.002625
0.001404 2.8e-05 0.002612
0.001425 2.8e-05 0.002598
0.001445 2.8e-05 0.002584
0.001464 2.9e-05 0.002568
0.001481 3.2e-05 0.00255
0.001495 3.8e-05 0.002526
0.001499 5.1e-05 0.002489
0.001501 6.6e-05 0.002447
0.001499 8.5e-05 0.002401
0.001497 0.000103 0.002355
0.001486 0.000146 0.002251
0.001442 0.000216 0.002099
0.001446 0.00023 0.002061
0.001456 0.000238 0.002033
0.001471 0.000242 0.002011
0.001489 0.000245 0.001993
0.001509 0.000245 0.001978
0.00153 0.000245 0.001966
0.001553 0.000242 0.001956
0.001579 0.000237 0.00195
0.001609 0.000229 0.001951
0.001647 0.000215 0.001963
0.001697 0.000191 0.001991
0.001744 0.000168 0.002017
0.001791 0.000147 0.002042
0.001836 0.000127 0.002064
0.001874 0.000111 0.002077
0.001912 9.7e-05 0.002089
0.00195 8.2e-05 0.002101
0.001987 6.9e-05 0.002111
0.002023 5.6e-05 0.002121
0.002053 4.8e-05 0.002121
0.002078 4.4e-05 0.002113
0.002099 4.3e-05 0.002101
0.000711 0.000533 0.002405
0.000591 0.000326 0.002911
0.001372 0.000343 0.002683
0.001205 0.000545 0.002649
0.001172 0.000559 0.002627
0.000655 0.00065 0.002711
0.001305 1.6e-05 0.002641
0.001327 1.5e-05 0.00263
0.001349 1.4e-05 0.002618
0.00137 1.3e-05 0.002606
0.001391 1.2e-05 0.002592
0.001411 1.2e-05 0.002579
0.001432 1.2e-05 0.002565
0.001451 1.3e-05 0.002549
0.001469 1.5e-05 0.002532
0.001485 1.8e-05 0.002512
0.001496 2.6e-05 0.002484
0.001499 4e-05 0.002445
0.001499 5.7e-05 0.002401
0.001497 7.6e-05 0.002355
0.001443 0.000188 0.0021
0.001446 0.000203 0.00206
0.001456 0.000211 0.002032
0.001471 0.000215 0.002011
0.001489 0.000217 0.001993
0.001509 0.000218 0.001979
0.00153 0.000217 0.001966
0.001553 0.000215 0.001956
0.001579 0.00021 0.001951
0.001609 0.000202 0.001951
0.001648 0.000187 0.001963
0.001696 0.000164 0.001991
0.001745 0.000141 0.002018
0.001792 0.000119 0.002044
0.001835 0.0001 0.002063
0.001874 8.4e-05 0.002077
0.001912 7e-05 0.002089
0.00195 5.5e-05 0.002101
0.001987 4.2e-05 0.002111
0.002019 3.2e-05 0.002114
0.002045 2.7e-05 0.002109
0.002068 2.5e-05 0.002099
0.000556 0.000363 0.002962
0.00068 0.000529 0.002548
0.00063 0.000427 0.002794
0.00127 0.000571 0.002692
0.001137 0.000711 0.002604
0.001264 6e-06 0.002625
0.001285 5e-06 0.002613
0.001306 4e-06 0.002599
0.001327 4e-06 0.002587
0.001348 4e-06 0.002573
0.001367 4e-06 0.002558
0.001326 0.000585 0.002704
0.000617 0.000656 0.002833
0.001429 4e-06 0.002517
0.001449 4e-06 0.002503
0.001467 6e-06 0.002486
0.001483 9e-06 0.002466
0.001494 1.8e-05 0.002438
0.001497 3.2e-05 0.002399
0.001497 4.8e-05 0.002355
0.001486 9.2e-05 0.00225
0.001457 0.000132 0.002165
0.001443 0.000161 0.0021
0.001446 0.000176 0.00206
0.001456 0.000184 0.002032
0.001471 0.000188 0.00201
0.001489 0.000191 0.001993
0.001509 0.000191 0.001978
0.00153 0.00019 0.001966
0.001553 0.000188 0.001956
0.001579 0.000183 0.00195
0.00161 0.000175 0.001951
0.001647 0.000161 0.001962
0.001696 0.000137 0.001991
0.001745 0.000114 0.002018
0.001792 9.1e-05 0.002044
0.001835 7.3e-05 0.002063
0.001874 5.7e-05 0.002077
0.001912 4.3e-05 0.002089
0.001948 2.9e-05 0.002099
0.001981 1.9e-05 0.002103
0.002009 1.3e-05 0.002099
0.002032 1e-05 0.00209
0.002055 9e-06 0.002079
0.002075 1e-05 0.002066
0.000576 0.000367 0.002946
0.000531 0.000364 0.002968
0.000677 0.000579 0.002619
0.001168 9e-06 0.002613
0.001193 3e-06 0.002609
0.001215 2e-06 0.002596
0.001235 2e-06 0.002583
0.001138 0.00033 0.002603
0.001278 1e-06 0.002558
0.001298 1e-06 0.002543
0.001318 1e-06 0.00253
0.001339 1e-06 0.002516
0.000694 0.00047 0.002431
0.0008 0.000487 0.002358
0.00135 0.000286 0.002695
0.001271 0.000299 0.002692
0.001442 -0.0 0.002449
0.001462 0.0 0.002434
0.001479 3e-06 0.002415
0.00149 1e-05 0.002388
0.001495 2.3e-05 0.002352
0.001496 3.9e-05 0.002309
0.001485 6.5e-05 0.002249
0.001442 0.000135 0.002098
0.001445 0.000149 0.00206
0.001456 0.000157 0.002032
0.001471 0.000161 0.00201
0.001489 0.000163 0.001993
0.001509 0.000164 0.001978
0.00153 0.000163 0.001966
0.001553 0.000161 0.001956
0.001579 0.000156 0.00195
0.001609 0.000148 0.00195
0.001647 0.000134 0.001962
0.001696 0.00011 0.001991
0.001745 8.6e-05 0.002018
0.001792 6.4e-05 0.002043
0.001834 4.6e-05 0.002062
0.001873 3.1e-05 0.002075
0.001909 1.8e-05 0.002084
0.00194 9e-06 0.002087
0.001967 4e-06 0.002081
0.001989 3e-06 0.00207
0.002009 3e-06 0.002056
0.00203 2e-06 0.002042
0.00205 2e-06 0.002029
0.00207 2e-06 0.002015
0.002091 2e-06 0.002001
0.000482 0.000286 0.002975
0.000776 0.000542 0.002364
0.001301 0.000342 0.002707
0.000457 0.000532 0.002979
0.001143 1e-06 0.002578
0.001164 -0.0 0.002566
0.001184 0.0 0.002551
0.001205 -0.0 0.002538
0.000576 0.00034 0.002946
0.001265 1e-06 0.002495
0.001286 0.0 0.002482
0.001069 0.00069 0.002549
0.000667 0.000369 0.002668
0.001387 1e-06 0.002412
0.001408 1e-06 0.002398
0.001427 1e-06 0.002383
0.001467 2e-06 0.002355
0.001483 6e-06 0.002334
0.001492 1.6e-05 0.002303
0.001441 0.000109 0.002097
0.001445 0.000122 0.00206
0.001456 0.00013 0.002032
0.001471 0.000134 0.00201
0.001489 0.000136 0.001993
0.001509 0.000137 0.001978
0.00153 0.000136 0.001966
0.001553 0.000134 0.001956
0.001579 0.000129 0.00195
0.001609 0.000121 0.00195
0.001696 8.3e-05 0.00199
0.001746 5.9e-05 0.002019
0.001792 3.7e-05 0.002044
0.001833 2e-05 0.002059
0.001866 1e-05 0.002065
0.001895 3e-06 0.002063
0.001918 0.0 0.002053
0.001941 -2e-06 0.002043
0.00196 -0.0 0.002027
0.002022 -1e-06 0.001987
0.002043 -2e-06 0.001974
0.002062 -1e-06 0.001959
0.002082 -1e-06 0.001945
0.00095 0.000518 0.002423
0.000911 0.000542 0.002382
0.001301 0.000424 0.002707
0.00127 0.000435 0.002692
0.000879 0.000637 0.002363
0.000589 0.000709 0.002906
0.001151 0.0 0.002503
0.001171 1e-06 0.002488
0.000604 0.000477 0.002873
0.001288 -3.4e-05 0.001654
0.001233 0.0 0.002448
0.001255 -1e-06 0.002436
0.001275 -1e-06 0.002422
0.000655 0.000352 0.00271
0.001268 -3.4e-05 0.001668
0.001205 0.000327 0.002649
0.001358 -2e-06 0.00237
0.001378 -2e-06 0.002355
0.001399 -2e-06 0.002341
0.001248 -3.5e-05 0.001682
0.001441 -3e-06 0.002315
0.00146 -2e-06 0.0023
0.001475 2e-06 0.002278
0.00144 8.1e-05 0.002097
0.001445 9.5e-05 0.002059
0.001456 0.000102 0.002032
0.001471 0.000107 0.002011
0.001489 0.000109 0.001993
0.001509 0.00011 0.001978
0.00153 0.000109 0.001966
0.001553 0.000107 0.001956
0.001579 0.000102 0.00195
0.001609 9.4e-05 0.00195
0.001647 7.9e-05 0.001963
0.001695 5.6e-05 0.001989
0.001747 3e-05 0.002021
0.00179 1.2e-05 0.00204
0.001822 2e-06 0.002043
0.001845 -0.0 0.002034
0.001865 -0.0 0.00202
0.001886 0.0 0.002006
0.001905 1e-06 0.00199
0.001987 1e-06 0.001936
0.002008 0.0 0.001922
0.002028 0.0 0.001909
0.002048 1e-06 0.001894
0.000991 0.000493 0.002468
0.000879 0.000555 0.002363
0.001228 -3.5e-05 0.001697
0.000879 0.000609 0.002363
0.000851 0.000617 0.002356
0.001222 -1e-06 0.002389
0.001242 -1e-06 0.002374
0.000676 0.00039 0.002616
0.000753 0.000541 0.002374
0.000655 0.000623 0.002711
0.000531 0.000527 0.002968
0.000712 0.000669 0.002406
0.001404 0.0 0.002262
0.001426 -1e-06 0.00225
0.001446 -1e-06 0.002235
0.001463 2e-06 0.002217
0.00144 5.5e-05 0.002096
0.001445 6.8e-05 0.002059
0.001456 7.5e-05 0.002032
0.001471 7.9e-05 0.00201
0.001489 8.2e-05 0.001993
0.001509 8.2e-05 0.001978
0.00153 8.2e-05 0.001966
0.001553 7.9e-05 0.001956
0.001579 7.5e-05 0.00195
0.001608 6.7e-05 0.001949
0.001648 5.1e-05 0.001963
0.001697 2.8e-05 0.001992
0.001743 6e-06 0.002015
0.001774 -2e-06 0.002017
0.001795 -3e-06 0.002004
0.001208 -3.5e-05 0.001711
0.001998 -2e-06 0.001865
0.002017 -1e-06 0.001849
0.000576 0.000232 0.002945
0.000531 0.000228 0.002967
0.00098 3e-06 0.002471
0.001007 -2e-06 0.002466
0.001238 0.000449 0.002671
0.000531 0.000282 0.002968
0.000507 0.000257 0.002971
0.001301 0.000397 0.002707
0.001125 1e-06 0.002377
0.001147 0.0 0.002365
0.001188 -1e-06 0.002338
0.001208 -1e-06 0.002323
0.000655 0.000324 0.00271
0.001188 -3.5e-05 0.001725
0.000731 0.000539 0.002386
0.000591 0.000299 0.00291
0.000531 0.000445 0.002968
0.000732 0.000674 0.002387
0.000682 0.000643 0.002473
0.001393 -1e-06 0.002202
0.001413 -1e-06 0.002188
0.001434 -2e-06 0.002175
0.001444 4.1e-05 0.002058
0.001456 4.8e-05 0.002031
0.001471 5.3e-05 0.00201
0.001489 5.5e-05 0.001993
0.001509 5.5e-05 0.001978
0.00153 5.5e-05 0.001966
0.001553 5.2e-05 0.001956
0.001579 4.8e-05 0.00195
0.001608 4e-05 0.001949
0.001694 3e-06 0.001987
0.001722 -3e-06 0.001984
0.00176 -1e-06 0.001953
0.001778 1e-06 0.001936
0.001821 -1e-06 0.001911
0.00184 0.0 0.001895
0.000555 0.000227 0.002961
0.000591 0.000245 0.00291
0.000954 -3e-06 0.002433
0.000975 -3e-06 0.00242
0.000994 -2e-06 0.002403
0.001014 -1e-06 0.002389
0.001036 -2e-06 0.002377
0.001057 -3e-06 0.002365
0.001372 0.000479 0.002684
0.000482 0.000449 0.002975
0.00112 -5e-06 0.002326
0.001141 -5e-06 0.002313
0.001162 -6e-06 0.0023
0.001167 -3.5e-05 0.001739
0.001372 0.000261 0.002683
0.001172 0.000315 0.002627
0.001365 -5e-06 0.002161
0.001386 -6e-06 0.002148
0.001407 -6e-06 0.002134
0.001424 -3e-06 0.002116
0.001437 3e-06 0.002091
0.001444 1.4e-05 0.002058
0.001456 2.1e-05 0.002031
0.001471 2.6e-05 0.002009
0.001489 2.8e-05 0.001992
0.001509 2.8e-05 0.001978
0.00153 2.8e-05 0.001965
0.001553 2.5e-05 0.001955
0.001579 2.1e-05 0.001949
0.001609 1.3e-05 0.001949
0.001147 -3.5e-05 0.001752
0.001791 -3e-06 0.001867
0.001126 -3.5e-05 0.001766
0.001891 -1e-06 0.001795
0.001105 -3.5e-05 0.001779
0.00063 0.000318 0.002793
0.000927 -7e-06 0.002393
0.000947 -7e-06 0.002379
0.000966 -6e-06 0.002363
0.000986 -5e-06 0.002348
0.001006 -5e-06 0.002333
0.001027 -5e-06 0.002321
0.000753 0.000514 0.002374
0.000776 0.000515 0.002364
0.001106 -3e-06 0.002261
0.001125 -2e-06 0.002245
0.001146 -2e-06 0.002232
0.001165 -2e-06 0.002217
0.001186 -2e-06 0.002204
0.001206 -2e-06 0.002189
0.001227 -2e-06 0.002176
0.001327 0.00034 0.002705
0.000655 0.000406 0.00271
0.000667 0.000423 0.002668
0.001328 -2e-06 0.002107
0.001348 -1e-06 0.002092
0.001391 -3e-06 0.002067
0.00141 -2e-06 0.002051
0.001429 -1e-06 0.002036
0.001447 3e-06 0.002019
0.001467 2e-06 0.002003
0.001485 3e-06 0.001987
0.00155 0.0 0.001951
0.001573 -2e-06 0.001941
0.001597 -5e-06 0.001932
0.001616 -4e-06 0.001917
0.001085 -3.5e-05 0.001793
0.001064 -3.4e-05 0.001806
0.001043 -3.4e-05 0.001819
0.001862 -5e-06 0.001753
0.001884 -6e-06 0.001741
0.000814 9e-06 0.002355
0.000843 2e-06 0.002357
0.001022 -3.3e-05 0.001832
0.001048 1e-06 0.00222
0.001069 0.0 0.002207
0.001089 0.0 0.002193
0.00111 -0.0 0.00218
0.001131 -1e-06 0.002168
0.001151 -0.0 0.002152
0.001171 -1e-06 0.002139
0.001192 -1e-06 0.002125
0.00063 0.000482 0.002793
0.000617 0.000465 0.002834
0.001238 0.000395 0.002671
0.001172 0.000424 0.002626
0.001031 0.000495 0.002511
0.000991 0.00052 0.002467
0.001355 -1e-06 0.002015
0.001375 -0.0 0.002001
0.001396 -1e-06 0.001987
0.001435 0.0 0.001958
0.001457 -0.0 0.001945
0.001477 -0.0 0.001931
0.001537 0.0 0.001889
0.001558 -0.0 0.001876
0.001579 -0.0 0.001862
0.001001 -3.3e-05 0.001845
0.001702 -1e-06 0.001781
0.001723 -1e-06 0.001767
0.001784 -1e-06 0.001726
0.00098 -3.2e-05 0.001858
0.001825 -2e-06 0.001699
0.001846 -2e-06 0.001686
0.001869 -4e-06 0.001674
0.001888 -3e-06 0.00166
0.000811 1e-06 0.00231
0.000832 0.0 0.002297
0.001237 0.000722 0.002668
0.001344 0.000703 0.002678
0.00132 0.000702 0.002685
0.000936 -1e-06 0.00223
0.000956 -2e-06 0.002217
0.000978 -2e-06 0.002205
0.000999 -3e-06 0.002192
0.00102 -3e-06 0.002179
0.001041 -4e-06 0.002166
0.000591 0.000408 0.002911
0.000576 0.000395 0.002946
0.001349 0.000423 0.002695
0.001327 0.000421 0.002705
0.000851 0.000644 0.002356
0.000825 0.000648 0.002355
0.000676 0.000553 0.002617
0.000604 0.00045 0.002872
0.000643 0.000498 0.002753
0.001104 0.000456 0.002576
0.001069 0.000473 0.002548
0.001138 0.000439 0.002602
0.000959 -3.2e-05 0.001871
0.00133 -7e-06 0.001977
0.00135 -7e-06 0.001963
0.00137 -7e-06 0.001949
0.000938 -3.1e-05 0.001884
0.001411 -6e-06 0.001921
0.001431 -6e-06 0.001907
0.001451 -6e-06 0.001893
0.001512 -6e-06 0.001851
0.001531 -5e-06 0.001835
0.001571 -5e-06 0.001807
0.001591 -4e-06 0.001793
0.001651 -2e-06 0.001749
0.00167 -2e-06 0.001734
0.001691 -2e-06 0.00172
0.001711 -2e-06 0.001705
0.001731 -1e-06 0.001691
0.001751 -1e-06 0.001677
0.001792 -1e-06 0.001649
0.001813 -2e-06 0.001637
0.001832 -0.0 0.00162
0.001852 -0.0 0.001606
0.001069 0.000663 0.002549
0.000784 -4e-06 0.00227
0.000804 -4e-06 0.002256
0.001204 0.000736 0.002647
0.001266 0.000712 0.002688
0.0008 0.000677 0.002359
0.001296 0.000705 0.002692
0.000912 -8e-06 0.002195
0.000932 -8e-06 0.002182
0.000954 -9e-06 0.002169
0.000975 -1e-05 0.002156
0.000617 0.000492 0.002834
0.001327 0.000258 0.002705
0.001271 0.000271 0.002693
0.001238 0.000286 0.002671
0.000776 0.000488 0.002364
0.000879 0.000474 0.002363
0.000555 0.000254 0.002962
0.000531 0.000255 0.002967
0.001138 0.000357 0.002603
0.001104 0.000374 0.002576
0.0008 0.000542 0.002358
0.001299 -8e-06 0.001932
0.001319 -9e-06 0.001919
0.001341 -1e-05 0.001907
0.001402 -9e-06 0.001864
0.001464 -1e-05 0.001824
0.001484 -1e-05 0.001811
0.001504 -9e-06 0.001796
0.001526 -1e-05 0.001784
0.001545 -1e-05 0.001768
0.001565 -9e-06 0.001754
0.001628 -1e-05 0.001715
0.001647 -9e-06 0.0017
0.001706 -7e-06 0.001655
0.001725 -7e-06 0.001639
0.001745 -6e-06 0.001624
0.001764 -5e-06 0.001608
0.001783 -4e-06 0.001593
0.001803 -4e-06 0.001578
0.000576 0.000286 0.002945
0.000604 0.000342 0.002872
0.001349 0.000341 0.002695
0.000776 0.000569 0.002365
0.000898 -8e-06 0.002132
0.000919 -8e-06 0.002118
0.000991 0.000547 0.002468
0.000507 0.000393 0.002972
0.001301 0.000261 0.002707
0.00135 0.000259 0.002695
0.001039 -6e-06 0.002031
0.00106 -6e-06 0.002019
0.000655 0.000542 0.002711
0.000643 0.000525 0.002752
0.000482 0.000232 0.002974
0.001394 0.000263 0.002672
0.001222 -6e-06 0.001907
0.001242 -6e-06 0.001893
0.001262 -5e-06 0.001878
0.001283 -5e-06 0.001865
0.001304 -6e-06 0.001851
0.001324 -5e-06 0.001837
0.001488 -6e-06 0.001728
0.001509 -7e-06 0.001715
0.001529 -7e-06 0.001701
0.001675 -9e-06 0.001609
0.001695 -9e-06 0.001594
0.001716 -1e-05 0.001582
0.001738 -1e-05 0.00157
0.001758 -9e-06 0.001556
0.000702 -8e-06 0.002194
0.000721 -7e-06 0.002178
0.000741 -7e-06 0.002164
0.001327 0.000394 0.002705
0.00078 -6e-06 0.002133
0.000801 -5e-06 0.00212
0.000823 -6e-06 0.002108
0.000842 -5e-06 0.002093
0.000861 -5e-06 0.002077
0.000882 -4e-06 0.002063
0.000902 -4e-06 0.002049
0.00063 0.000345 0.002794
0.000731 0.000484 0.002387
0.001327 0.000285 0.002705
0.001025 -4e-06 0.001967
0.001044 -4e-06 0.001952
0.001065 -7e-06 0.001939
0.001085 -5e-06 0.001925
0.001106 -5e-06 0.001911
0.001126 -5e-06 0.001897
0.001147 -4e-06 0.001884
0.001167 -4e-06 0.001869
0.001188 -5e-06 0.001857
0.001209 -5e-06 0.001844
0.001229 -5e-06 0.00183
0.001249 -5e-06 0.001815
0.001269 -5e-06 0.001801
0.00129 -5e-06 0.001788
0.001452 -4e-06 0.001675
0.001472 -4e-06 0.001662
0.001492 -3e-06 0.001646
0.001596 -5e-06 0.001581
0.001617 -5e-06 0.001567
0.001638 -6e-06 0.001554
0.001657 -5e-06 0.001539
0.001678 -5e-06 0.001526
0.001699 -6e-06 0.001513
0.000666 -5e-06 0.002141
0.000686 -5e-06 0.002126
0.000705 -4e-06 0.00211
0.000726 -5e-06 0.002097
0.000748 -5e-06 0.002085
0.000768 -5e-06 0.002072
0.000789 -6e-06 0.002059
0.000809 -5e-06 0.002045
0.000831 -6e-06 0.002032
0.000852 -7e-06 0.002019
0.000873 -8e-06 0.002007
0.000617 0.000331 0.002831
0.001238 0.00034 0.002671
0.001205 0.000354 0.00265
0.001138 0.000385 0.002603
0.000825 0.00054 0.002355
0.000998 -1e-05 0.001928
0.001019 -1e-05 0.001915
0.00104 -1e-05 0.001901
0.00106 -1.1e-05 0.001888
0.001081 -1.1e-05 0.001875
0.001102 -1.2e-05 0.001862
0.001123 -1.2e-05 0.001849
0.001143 -1.2e-05 0.001835
0.001164 -1.2e-05 0.001821
0.001185 -1.2e-05 0.001808
0.001205 -1.2e-05 0.001794
0.001225 -1.2e-05 0.00178
0.001246 -1.2e-05 0.001767
0.001266 -1.2e-05 0.001753
0.001286 -1.2e-05 0.001738
0.001306 -1.1e-05 0.001724
0.001366 -1.1e-05 0.001681
0.001386 -1.1e-05 0.001666
0.001406 -1e-05 0.001652
0.001426 -9e-06 0.001637
0.001446 -1e-05 0.001624
0.001466 -9e-06 0.001609
0.001585 -6e-06 0.001521
0.001604 -5e-06 0.001505
0.001624 -5e-06 0.001491
0.001645 -5e-06 0.001478
0.001664 -5e-06 0.001462
0.001685 -5e-06 0.001449
0.000731 0.000566 0.002387
0.000713 0.000748 0.00241
0.001031 0.000739 0.002513
0.001104 0.0007 0.002577
0.001393 0.000644 0.002672
0.000433 0.000643 0.002982
0.000764 -1.2e-05 0.002023
0.000786 -1.3e-05 0.002011
0.000807 -1.4e-05 0.001998
0.000829 -1.5e-05 0.001985
0.00085 -1.6e-05 0.001973
0.001031 0.000522 0.002511
0.0008 0.000569 0.002358
0.001138 0.00063 0.002602
0.001104 0.000645 0.002577
0.000956 -1.9e-05 0.00191
0.000977 -2e-05 0.001897
0.000998 -2e-05 0.001884
0.001019 -2.1e-05 0.001871
0.00104 -2.1e-05 0.001858
0.001061 -2.1e-05 0.001845
0.001081 -2.2e-05 0.001832
0.001102 -2.2e-05 0.001818
0.001123 -2.2e-05 0.001805
0.001144 -2.2e-05 0.001792
0.001164 -2.2e-05 0.001778
0.001184 -2.2e-05 0.001764
0.001205 -2.2e-05 0.00175
0.001225 -2.2e-05 0.001736
0.001245 -2.2e-05 0.001722
0.001266 -2.2e-05 0.001708
0.001286 -2.2e-05 0.001694
0.001306 -2.1e-05 0.001679
0.001325 -2.1e-05 0.001665
0.001346 -2.1e-05 0.001651
0.001365 -2e-05 0.001636
0.001385 -2e-05 0.001621
0.001405 -2e-05 0.001607
0.001424 -1.9e-05 0.001591
