-0.000557 0.000106 0.002957
-0.000533 0.000105 0.002959
-0.000508 0.000105 0.00296
-0.000484 0.000106 0.002957
-0.000459 0.000113 0.002943
-0.000434 0.000126 0.002915
-0.00041 0.00014 0.002885
-0.000385 0.000155 0.002854
-0.000361 0.000169 0.002823
-0.000336 0.000185 0.002789
-0.000311 0.000201 0.002754
-0.000287 0.000217 0.00272
-0.000262 0.00024 0.002671
-0.000238 0.000268 0.002611
-0.000188 0.00032 0.002498
-0.000164 0.000332 0.002473
-0.000139 0.000338 0.00246
-0.000114 0.000342 0.002452
-9e-05 0.000343 0.002449
-6.5e-05 0.000343 0.002449
-4.1e-05 0.000342 0.002452
-1.6e-05 0.000339 0.002459
9e-06 0.000333 0.002472
3.3e-05 0.000323 0.002493
0.000107 0.000243 0.002665
0.000132 0.000218 0.002719
0.000157 0.000196 0.002766
0.000181 0.000176 0.002808
0.000206 0.000159 0.002844
0.000231 0.000143 0.00288
0.000255 0.000128 0.002912
0.00028 0.000112 0.002947
0.000305 0.000101 0.00297
0.000329 9.6e-05 0.00298
0.000354 9.6e-05 0.002982
0.000379 9.5e-05 0.002982
0.000403 9.6e-05 0.00298
0.000428 9.8e-05 0.002977
0.001187 0.000673 0.002673
0.00122 0.000549 0.002696
0.000599 0.00061 0.002697
0.001119 0.00054 0.002625
0.000587 0.000403 0.00274
-0.001186 0.000535 0.002505
-0.001346 0.000602 0.002612
-0.00109 0.00074 0.00244
-0.000667 0.000634 0.002923
-0.001932 0.00063 0.001983
-0.000557 8.2e-05 0.00295
-0.000533 8.1e-05 0.002952
-0.000508 8.1e-05 0.002953
-0.000484 8.2e-05 0.002951
-0.000459 8.7e-05 0.00294
-0.000434 9.9e-05 0.002915
-0.00041 0.000112 0.002886
-0.000385 0.000127 0.002854
-0.000361 0.000142 0.002823
-0.000336 0.000157 0.002789
-0.000311 0.000174 0.002754
-0.000287 0.000189 0.002721
-0.000262 0.000212 0.002672
-0.000238 0.000241 0.002611
-0.000213 0.000271 0.002547
-0.000188 0.000293 0.002498
-0.000164 0.000304 0.002474
-0.000139 0.000311 0.00246
-0.000114 0.000315 0.002452
-9e-05 0.000316 0.002449
-6.5e-05 0.000316 0.00245
-4.1e-05 0.000315 0.002452
-1.6e-05 0.000311 0.002459
9e-06 0.000306 0.002472
3.3e-05 0.000296 0.002493
0.000107 0.000216 0.002664
0.000132 0.00019 0.002719
0.000157 0.000168 0.002766
0.000181 0.000149 0.002808
0.000206 0.000132 0.002845
0.000231 0.000115 0.002881
0.000255 0.000101 0.002912
0.00028 8.5e-05 0.002945
0.000305 7.6e-05 0.002965
0.000329 7.3e-05 0.002971
0.000354 7.2e-05 0.002973
0.000379 7.2e-05 0.002973
0.000403 7.3e-05 0.002972
0.000428 7.4e-05 0.002968
0.000452 7.7e-05 0.002964
0.001153 0.000579 0.00265
0.000534 0.000504 0.002896
0.0006 0.000419 0.0027
-0.001218 0.000521 0.002527
-0.000599 0.00052 0.002955
-0.001251 0.00067 0.00255
-0.001314 0.000724 0.002592
-0.000582 6.2e-05 0.002936
-0.000557 6e-05 0.00294
-0.000533 5.9e-05 0.002942
-0.000508 5.8e-05 0.002943
-0.000484 5.9e-05 0.002941
-0.000459 6.3e-05 0.002934
-0.000434 7.2e-05 0.002914
-0.00041 8.6e-05 0.002885
-0.000385 0.0001 0.002854
-0.000361 0.000115 0.002823
-0.000336 0.000131 0.002789
-0.000311 0.000146 0.002755
-0.000287 0.000162 0.002721
-0.000238 0.000214 0.002609
-0.000213 0.000244 0.002545
-0.000188 0.000266 0.002498
-0.000164 0.000277 0.002474
-0.000139 0.000284 0.00246
-0.000114 0.000287 0.002452
-9e-05 0.000289 0.002449
-6.5e-05 0.000289 0.00245
-4.1e-05 0.000287 0.002452
-1.6e-05 0.000284 0.002459
9e-06 0.000278 0.002472
3.3e-05 0.000268 0.002494
0.00083 -2.5e-05 0.00197
0.000807 -2.5e-05 0.001978
0.000132 0.000163 0.00272
0.000157 0.000141 0.002767
0.000181 0.000122 0.002807
0.000206 0.000105 0.002845
0.000231 8.8e-05 0.002881
0.000255 7.3e-05 0.002912
0.00028 6e-05 0.002942
0.000305 5.3e-05 0.002955
0.000329 5.1e-05 0.00296
0.000354 5e-05 0.002962
0.000379 5e-05 0.002962
0.000403 5.1e-05 0.00296
0.000428 5.3e-05 0.002957
0.000452 5.5e-05 0.002952
0.000458 0.000559 0.00298
0.001305 0.000501 0.002717
0.000791 0.000554 0.002332
-0.00125 0.000507 0.00255
-0.000747 0.000655 0.002671
-0.000723 0.00067 0.002766
-0.000607 4.3e-05 0.002918
-0.000582 4.1e-05 0.002923
-0.000558 3.9e-05 0.002926
-0.000533 3.8e-05 0.002928
-0.000508 3.8e-05 0.002929
-0.000484 3.8e-05 0.002928
-0.000459 4e-05 0.002923
-0.000434 4.6e-05 0.002911
-0.00041 5.9e-05 0.002883
-0.000385 7.3e-05 0.002854
-0.000361 8.8e-05 0.002822
-0.000336 0.000104 0.002788
-0.000311 0.000119 0.002754
-0.000262 0.000157 0.002673
-0.000238 0.000186 0.002612
-0.000213 0.000217 0.002545
-0.000188 0.000239 0.002497
-0.000164 0.00025 0.002474
-0.000139 0.000257 0.00246
-0.000114 0.00026 0.002452
-9e-05 0.000262 0.002449
-6.5e-05 0.000261 0.00245
-4.1e-05 0.00026 0.002453
-1.6e-05 0.000257 0.002459
9e-06 0.000251 0.002472
3.3e-05 0.000241 0.002493
0.000784 -2.6e-05 0.001987
0.000132 0.000136 0.002719
0.000157 0.000113 0.002768
0.000181 9.5e-05 0.002807
0.000206 7.8e-05 0.002845
0.000231 6.1e-05 0.002881
0.000255 4.7e-05 0.002911
0.00028 3.7e-05 0.002933
0.000305 3.2e-05 0.002942
0.000329 3e-05 0.002946
0.000354 3e-05 0.002947
0.00048 0.000642 0.002969
0.000599 0.000718 0.002699
0.000428 3.2e-05 0.002942
0.000452 3.4e-05 0.002938
0.000587 0.000701 0.002741
0.000695 0.000748 0.002354
0.000482 0.000422 0.002975
0.000819 0.000548 0.002338
-0.001282 0.000494 0.00257
-0.000599 0.000548 0.002954
-0.00055 0.000632 0.002962
-0.000607 2.4e-05 0.002901
-0.000582 2.2e-05 0.002906
-0.000558 2e-05 0.002909
-0.000533 1.9e-05 0.00291
-0.000508 1.9e-05 0.002911
-0.000484 1.9e-05 0.002911
-0.000459 2.1e-05 0.002908
-0.000434 2.4e-05 0.002899
-0.00041 3.4e-05 0.002878
-0.000385 4.6e-05 0.002853
-0.000361 6.1e-05 0.002822
-0.000336 7.6e-05 0.002788
-0.000311 9.2e-05 0.002754
-0.000287 0.000108 0.002721
-0.000262 0.00013 0.002673
-0.000237 0.000158 0.002612
-0.000213 0.000189 0.002547
-0.000188 0.000212 0.002498
-0.000164 0.000223 0.002474
-0.000139 0.000229 0.00246
-0.000114 0.000233 0.002453
-9e-05 0.000234 0.00245
-6.5e-05 0.000234 0.00245
-4.1e-05 0.000233 0.002453
-1.6e-05 0.00023 0.00246
9e-06 0.000224 0.002472
3.3e-05 0.000214 0.002494
0.000107 0.000135 0.002663
0.000132 0.000109 0.002719
0.000157 8.6e-05 0.002769
0.000181 6.8e-05 0.002807
0.000206 5e-05 0.002845
0.000231 3.4e-05 0.002879
0.000255 2.3e-05 0.002903
0.00028 1.6e-05 0.002917
0.000305 1.3e-05 0.002924
0.000329 1.2e-05 0.002926
0.000354 1.2e-05 0.002926
0.000379 1.3e-05 0.002926
0.00052 0.000572 0.002931
0.000428 1.5e-05 0.002922
0.000452 1.6e-05 0.002918
0.000562 0.000615 0.002822
0.001013 0.000676 0.002537
0.000574 0.000522 0.00278
-0.001314 0.00048 0.002592
-0.000647 0.000492 0.002943
-0.000574 0.00063 0.002959
-0.000607 7e-06 0.002879
-0.000582 5e-06 0.002882
-0.000558 4e-06 0.002884
-0.000533 4e-06 0.002886
-0.000508 4e-06 0.002886
-0.000484 4e-06 0.002887
-0.000459 5e-06 0.002884
-0.000434 7e-06 0.002879
-0.000409 1.2e-05 0.002867
-0.000384 2.1e-05 0.002848
-0.00036 3.5e-05 0.002819
-0.000336 4.9e-05 0.002788
-0.000311 6.5e-05 0.002754
-0.000287 8.1e-05 0.00272
-0.000237 0.000132 0.002611
-0.000213 0.000162 0.002547
-0.000188 0.000185 0.002497
-0.000164 0.000196 0.002474
-0.000139 0.000202 0.00246
-0.000114 0.000206 0.002452
-9e-05 0.000207 0.002449
-6.5e-05 0.000207 0.00245
-4e-05 0.000206 0.002452
-1.6e-05 0.000203 0.002459
9e-06 0.000197 0.002472
3.3e-05 0.000186 0.002494
5.8e-05 0.00017 0.00253
0.000132 8.2e-05 0.002718
0.000157 5.9e-05 0.002768
0.000181 4.1e-05 0.002806
0.000206 2.5e-05 0.002841
0.000231 1.2e-05 0.002868
0.000625 0.000496 0.002456
0.000547 0.000329 0.002857
0.000694 0.000559 0.002352
0.000329 -0.0 0.002896
0.000354 -0.0 0.002896
0.000379 0.0 0.002896
0.000403 0.0 0.002895
0.000482 0.000286 0.002975
0.000765 0.000585 0.002331
0.000741 0.000587 0.002336
0.000562 0.000587 0.002822
0.000458 0.000505 0.00298
0.0006 0.000445 0.0027
-0.000711 0.000597 0.00281
-0.000631 -0.0 0.002839
-0.000607 -2e-06 0.00284
-0.000582 -3e-06 0.002841
-0.000558 -4e-06 0.002843
-0.000533 -3e-06 0.002841
-0.000508 -3e-06 0.002842
-0.000484 -2e-06 0.002841
-0.000697 0.00058 0.002853
-0.000434 -2e-06 0.002839
-0.00041 -1e-06 0.002837
-0.001251 0.000642 0.002551
-0.000358 9e-06 0.002813
-0.000335 2.1e-05 0.002788
-0.000311 3.8e-05 0.002753
-0.000287 5.4e-05 0.00272
-0.001345 0.000467 0.002612
-0.000237 0.000104 0.002612
-0.000213 0.000134 0.002548
-0.000188 0.000158 0.002497
-0.000164 0.000169 0.002474
-0.000139 0.000175 0.00246
-0.000114 0.000179 0.002452
-9e-05 0.00018 0.002449
-6.5e-05 0.00018 0.00245
-4e-05 0.000179 0.002453
-1.6e-05 0.000175 0.002459
9e-06 0.00017 0.002472
3.3e-05 0.000159 0.002494
5.8e-05 0.000141 0.002533
-0.001376 0.000454 0.002632
0.000157 3.3e-05 0.002766
0.000181 1.7e-05 0.0028
0.000206 4e-06 0.002827
0.000231 -1e-06 0.002839
0.000636 0.000514 0.002411
0.000305 -3e-06 0.002843
0.000329 -3e-06 0.002843
0.000354 -3e-06 0.002842
0.000379 -4e-06 0.002844
0.000403 -3e-06 0.002844
0.000428 -3e-06 0.002843
0.000477 -2e-06 0.002843
0.000502 -1e-06 0.002839
0.000526 1e-06 0.002837
0.001187 0.000428 0.002674
-0.00204 0.000726 0.002015
-0.000783 0.000737 0.002354
-0.000631 -3e-06 0.002784
-0.000607 -4e-06 0.002784
-0.000582 -4e-06 0.002786
-0.000558 -5e-06 0.002787
-0.000533 -5e-06 0.002787
-0.000508 -6e-06 0.002789
-0.000484 -6e-06 0.002789
-0.000434 -6e-06 0.00279
-0.00041 -4e-06 0.002787
-0.000875 0.000808 0.00223
-0.001218 0.00063 0.002527
-0.000311 1.3e-05 0.002749
-0.000287 2.7e-05 0.002719
-0.000237 7.8e-05 0.002611
-0.000213 0.000107 0.002548
-0.000188 0.00013 0.002497
-0.000164 0.000142 0.002473
-0.000139 0.000148 0.00246
-0.000114 0.000152 0.002452
-9e-05 0.000153 0.002449
-6.5e-05 0.000153 0.00245
-4e-05 0.000151 0.002453
-1.6e-05 0.000148 0.002459
9e-06 0.000142 0.002472
3.3e-05 0.000132 0.002494
5.8e-05 0.000115 0.002531
-0.001858 0.000739 0.001958
0.000157 1e-05 0.002757
0.000181 -0.0 0.002779
0.000206 -4e-06 0.002786
0.000231 -5e-06 0.002789
0.00028 -5e-06 0.002789
0.000305 -7e-06 0.002793
0.000329 -5e-06 0.002788
0.000354 -4e-06 0.002786
0.000379 -5e-06 0.002788
0.000504 0.000398 0.002962
0.000428 -5e-06 0.002789
0.000452 -5e-06 0.002789
0.000477 -5e-06 0.00279
0.000502 -5e-06 0.002789
0.000526 -4e-06 0.002788
0.000433 0.000561 0.002984
0.000653 0.000659 0.002385
-0.000656 -5e-06 0.002729
-0.000631 -5e-06 0.002729
-0.000607 -4e-06 0.002727
-0.000582 -4e-06 0.002728
-0.000558 -5e-06 0.002729
-0.000533 -4e-06 0.002728
-0.000508 -5e-06 0.002729
-0.000484 -4e-06 0.002728
-0.001813 0.000733 0.001935
-0.000618 0.00069 0.002933
-0.00041 -4e-06 0.002728
-0.000385 -4e-06 0.002728
-0.00036 -4e-06 0.002728
-0.000336 -5e-06 0.002729
-0.000311 -3e-06 0.002725
-0.000599 0.000466 0.002955
-0.000213 8.1e-05 0.002546
-0.000188 0.000104 0.002497
-0.000164 0.000114 0.002473
-0.000139 0.000121 0.00246
-0.000114 0.000125 0.002452
-9e-05 0.000126 0.002449
-6.5e-05 0.000126 0.00245
-4e-05 0.000124 0.002452
-1.6e-05 0.000121 0.002459
9e-06 0.000115 0.002472
3.4e-05 0.000105 0.002494
-0.000575 0.00044 0.00296
0.000132 5e-06 0.002708
0.000157 -4e-06 0.002728
0.000181 -6e-06 0.002733
0.000206 -5e-06 0.002731
0.000231 -5e-06 0.002731
0.000255 -4e-06 0.002729
0.00028 -5e-06 0.002729
0.000305 -5e-06 0.00273
0.000329 -4e-06 0.002729
0.000851 0.000536 0.002355
0.000504 0.000316 0.002961
0.000519 0.000328 0.002931
0.000452 -4e-06 0.002729
0.000477 -4e-06 0.002728
0.000502 -4e-06 0.002729
0.000526 -4e-06 0.002729
0.001277 0.00067 0.002713
0.00052 0.000599 0.002932
0.000504 0.000425 0.002962
-0.000656 -5e-06 0.002671
-0.000631 -5e-06 0.00267
-0.000607 -5e-06 0.002671
-0.000582 -6e-06 0.002674
-0.000558 -7e-06 0.002675
-0.000533 -7e-06 0.002676
-0.000508 -8e-06 0.002677
-0.000971 0.000712 0.002295
-0.000385 -7e-06 0.002676
-0.00036 -8e-06 0.002677
-0.000336 -8e-06 0.002677
-0.000311 -8e-06 0.002678
-0.000287 -6e-06 0.002674
-0.000767 0.000697 0.002387
-0.000188 7.7e-05 0.002496
-0.000164 8.8e-05 0.002473
-0.000139 9.4e-05 0.002459
-0.000114 9.7e-05 0.002452
-9e-05 9.9e-05 0.002449
-6.5e-05 9.8e-05 0.00245
-4e-05 9.7e-05 0.002452
-1.6e-05 9.4e-05 0.002459
9e-06 8.8e-05 0.002473
3.4e-05 7.8e-05 0.002493
0.000108 2e-06 0.002657
0.000132 -5e-06 0.002672
0.000157 -8e-06 0.002678
0.000206 -9e-06 0.002681
0.000231 -8e-06 0.002678
0.000255 -8e-06 0.002679
0.00028 -7e-06 0.002676
0.000305 -7e-06 0.002676
-0.000599 0.000439 0.002955
0.000428 -9e-06 0.00268
0.000452 -8e-06 0.002679
0.000477 -9e-06 0.002681
0.001186 0.000728 0.002671
0.000587 0.000375 0.002741
0.000653 0.000524 0.002384
0.000503 0.000588 0.002961
0.000534 0.000613 0.002896
-0.000656 -8e-06 0.002619
-0.000631 -8e-06 0.002619
-0.000607 -9e-06 0.002622
-0.000533 -6e-06 0.002615
-0.000508 -7e-06 0.002617
-0.000724 0.000533 0.002767
-0.000623 0.000438 0.002949
-0.000647 0.000438 0.002943
-0.000336 -6e-06 0.002616
-0.000311 -5e-06 0.002614
-0.000287 -6e-06 0.002614
-0.000782 0.00071 0.002354
-0.000188 5e-05 0.002495
-0.000164 6e-05 0.002473
-0.000139 6.7e-05 0.002459
-0.000114 7e-05 0.002452
-9e-05 7.2e-05 0.002449
-6.5e-05 7.1e-05 0.002449
-4e-05 7e-05 0.002452
-1.6e-05 6.7e-05 0.002459
9e-06 6.1e-05 0.002472
3.4e-05 5.2e-05 0.002492
0.000108 -6e-06 0.002615
0.000132 -5e-06 0.002614
0.000157 -5e-06 0.002613
0.000181 -5e-06 0.002614
0.000206 -5e-06 0.002614
0.000231 -6e-06 0.002615
0.000255 -5e-06 0.002614
0.00028 -6e-06 0.002615
0.000379 -6e-06 0.002616
0.000403 -6e-06 0.002617
0.000428 -7e-06 0.002618
0.000452 -7e-06 0.002617
0.000477 -6e-06 0.002616
0.000408 0.000318 0.002988
-0.000656 -6e-06 0.002556
-0.000632 -7e-06 0.002559
-0.001283 0.000547 0.002571
-0.001314 0.000534 0.002591
-0.000533 -6e-06 0.002557
-0.000508 -7e-06 0.002558
-0.001154 0.000659 0.002481
-0.001119 0.00065 0.00245
-0.001041 0.000701 0.00236
-0.000668 0.000442 0.002927
-0.000724 0.000697 0.002766
-0.000736 0.000715 0.002721
-0.000336 -8e-06 0.002563
-0.000311 -9e-06 0.002563
-0.000287 -1e-05 0.002565
-0.001407 0.000579 0.002646
-0.000575 0.000467 0.00296
-0.000188 2.3e-05 0.002495
-0.000164 3.3e-05 0.002472
-0.000139 4e-05 0.002458
-0.000114 4.3e-05 0.002451
-9e-05 4.5e-05 0.002448
-6.5e-05 4.4e-05 0.002449
-4e-05 4.3e-05 0.002452
-1.6e-05 4e-05 0.002459
9e-06 3.3e-05 0.002472
3.4e-05 2.4e-05 0.002493
8.3e-05 -1.1e-05 0.002567
0.000108 -1.2e-05 0.002569
0.000132 -1.1e-05 0.002567
0.000157 -1e-05 0.002566
0.000181 -1.1e-05 0.002567
0.000206 -1e-05 0.002567
0.000231 -1e-05 0.002565
0.000973 0.000483 0.002494
0.000625 0.00055 0.002457
0.000636 0.000568 0.002412
-0.000683 0.000455 0.002893
-0.000697 0.000471 0.002852
0.000379 -7e-06 0.00256
0.000403 -7e-06 0.00256
0.000428 -7e-06 0.002559
0.000452 -7e-06 0.002559
0.000819 0.000602 0.002338
0.00085 0.000591 0.002353
0.000433 0.000316 0.002984
-0.000711 0.000488 0.002811
0.000576 -5e-06 0.002555
0.0006 -6e-06 0.002557
-0.000724 0.000506 0.002767
-0.000656 -8e-06 0.002502
-0.000632 -9e-06 0.002504
-0.001218 0.000575 0.002527
-0.001345 0.000521 0.002611
-0.000599 0.000493 0.002955
-0.000623 0.000492 0.002949
-0.000711 0.000542 0.002811
-0.001153 0.000632 0.002481
-0.000802 0.000745 0.002331
-0.001581 0.000664 0.002396
-0.001218 0.000739 0.002527
-0.000623 0.000519 0.00295
-0.000571 0.000691 0.002946
-0.000595 0.00069 0.002941
-0.001186 0.000644 0.002505
-0.000188 -5e-06 0.002489
-0.000163 6e-06 0.002472
-0.000139 1.3e-05 0.002458
-0.000114 1.6e-05 0.002451
-9e-05 1.8e-05 0.002448
-6.5e-05 1.8e-05 0.002448
-4e-05 1.6e-05 0.002451
-1.6e-05 1.3e-05 0.002459
9e-06 6e-06 0.002472
3.4e-05 -5e-06 0.002497
5.8e-05 -1.2e-05 0.002512
0.000157 -8e-06 0.002503
0.000181 -8e-06 0.002503
0.000206 -7e-06 0.002501
0.001305 0.000419 0.002717
0.001327 0.000421 0.002706
0.000458 0.000396 0.00298
0.000378 -1e-05 0.002507
0.000403 -9e-06 0.002507
0.000428 -1e-05 0.002508
0.000452 -9e-06 0.002507
0.000477 -9e-06 0.002506
-0.000736 0.000525 0.002721
0.000576 -1.1e-05 0.00251
0.0006 -1e-05 0.002509
-0.000663 0.000695 0.00291
-0.000642 0.000691 0.002926
-0.000756 0.000598 0.002613
-0.000736 0.00058 0.002721
-0.000434 -7e-06 0.002442
-0.000822 0.000723 0.002313
-0.000943 0.00072 0.002286
-0.000646 0.00063 0.002939
-0.000683 0.00051 0.002891
-0.000724 0.000561 0.002767
-0.000287 -6e-06 0.002441
-0.000262 -7e-06 0.002442
-0.000237 -7e-06 0.002442
-0.000546 0.000693 0.002949
-0.001219 0.000657 0.002528
-0.001283 0.000628 0.002572
-0.001314 0.000616 0.002592
-0.000114 -6e-06 0.002441
-9e-05 -4e-06 0.002438
-6.5e-05 -5e-06 0.002439
-4e-05 -6e-06 0.002441
8.3e-05 -6e-06 0.002441
0.000107 -6e-06 0.002441
0.000132 -7e-06 0.002442
0.000157 -6e-06 0.00244
0.000181 -6e-06 0.00244
0.000206 -7e-06 0.002442
0.000587 0.000538 0.00274
0.000574 0.000414 0.00278
0.000433 0.000398 0.002983
0.000305 -6e-06 0.00244
0.000329 -5e-06 0.002439
0.000354 -5e-06 0.002438
0.000599 0.000556 0.002697
0.000403 -7e-06 0.002443
0.000428 -7e-06 0.002443
0.000452 -8e-06 0.002445
0.000477 -6e-06 0.002441
-0.000747 0.000546 0.00267
-0.000756 0.000571 0.002613
0.000562 0.000723 0.002823
0.000534 0.000693 0.002898
0.000548 0.000708 0.00286
-0.000762 0.0006 0.002545
-0.000682 0.000703 0.002886
0.00076 -2.6e-05 0.001995
0.000737 -2.6e-05 0.002003
-0.001154 0.000605 0.002481
-0.000747 0.000601 0.00267
-0.000484 -8e-06 0.002385
-0.000459 -8e-06 0.002386
-0.000434 -8e-06 0.002385
-0.00041 -8e-06 0.002386
-0.000385 -8e-06 0.002387
-0.000361 -9e-06 0.002388
-0.000336 -9e-06 0.002387
-0.000311 -9e-06 0.002388
-0.000287 -1e-05 0.002391
-0.000262 -1e-05 0.002391
-0.000237 -1.1e-05 0.002391
-0.00052 0.000696 0.002949
-0.000755 0.000653 0.002611
-0.001376 0.000482 0.002631
-0.001407 0.00047 0.002646
-0.000599 0.00063 0.002954
-0.001377 0.000536 0.00263
-4e-05 -1.2e-05 0.002394
-0.000768 0.000669 0.00239
-0.000783 0.000683 0.002354
-0.000801 0.000691 0.00233
-0.002072 0.000716 0.002019
8.3e-05 -1.1e-05 0.002394
0.000107 -1.1e-05 0.002394
0.000132 -1.1e-05 0.002392
0.000157 -1e-05 0.002392
0.000181 -1e-05 0.002392
0.001154 0.000714 0.002651
0.00105 0.000629 0.002571
0.000561 0.000398 0.002821
0.001252 0.0004 0.002715
0.00122 0.000413 0.002696
0.000329 -9e-06 0.002389
0.000354 -9e-06 0.002388
0.000599 0.000501 0.002699
0.000403 -7e-06 0.002385
0.000428 -7e-06 0.002385
0.000452 -8e-06 0.002386
0.000477 -8e-06 0.002385
0.000502 -7e-06 0.002386
0.000534 0.000449 0.002896
0.001085 0.000502 0.0026
0.00105 0.00052 0.002571
-0.000844 0.000698 0.002301
0.000714 -2.6e-05 0.002011
0.00069 -2.6e-05 0.002019
0.000667 -2.6e-05 0.002026
-0.000867 0.0007 0.002292
-0.000916 0.000724 0.002283
-0.001314 0.000697 0.002592
-0.000459 -1.4e-05 0.002341
-0.000435 -1.4e-05 0.002342
-0.00041 -1.4e-05 0.002342
-0.000385 -1.4e-05 0.002342
-0.000361 -1.5e-05 0.002342
-0.000336 -1.5e-05 0.002342
-0.000311 -1.5e-05 0.002343
-0.000287 -1.4e-05 0.00234
-0.000262 -1.5e-05 0.002342
-0.000237 -1.5e-05 0.002342
-0.000891 0.000699 0.002286
-0.000891 0.000754 0.002284
-0.001345 0.000549 0.002611
-0.001314 0.000561 0.002592
0.000157 -1.6e-05 0.002346
0.000181 -1.4e-05 0.002342
0.001154 0.000415 0.002651
0.000819 0.000629 0.002338
0.000791 0.000636 0.002332
0.000378 -1.5e-05 0.002343
0.000403 -1.5e-05 0.002343
0.000428 -1.4e-05 0.002342
0.000452 -1.5e-05 0.002344
0.000477 -1.2e-05 0.00234
0.000502 -1.2e-05 0.002339
0.000519 0.000436 0.002931
0.001343 0.000704 0.002676
0.00132 0.000702 0.002686
0.001188 0.000319 0.002675
0.001154 0.000333 0.002653
0.000643 -2.6e-05 0.002034
0.00062 -2.6e-05 0.002042
-0.001446 0.000602 0.002641
-0.000736 0.000552 0.002721
-0.000697 0.000499 0.002852
-0.001115 0.000726 0.002526
-0.000805 0.00073 0.002606
-0.000747 0.000628 0.002671
-0.000736 0.000607 0.00272
-0.000287 -1.1e-05 0.002276
-0.000262 -1.1e-05 0.002276
-0.000237 -1.1e-05 0.002275
-0.000213 -1.1e-05 0.002276
-0.00125 0.000562 0.002548
-0.000916 0.000751 0.002284
-0.000944 0.000745 0.002289
-0.000916 0.000697 0.002283
9e-06 -1e-05 0.002275
3.4e-05 -1e-05 0.002274
5.8e-05 -1.1e-05 0.002275
0.000107 -1e-05 0.002275
0.000132 -1e-05 0.002275
-0.000943 0.000692 0.002286
0.000255 -1e-05 0.002273
0.00028 -1.1e-05 0.002276
-0.000971 0.000684 0.002296
0.000329 -1.1e-05 0.002277
0.000354 -1.1e-05 0.002277
0.000378 -1.2e-05 0.002278
0.000403 -1.3e-05 0.00228
0.000428 -1.3e-05 0.002281
-0.001004 0.000669 0.002321
0.001365 0.000706 0.002664
0.001247 0.000707 0.002701
0.00122 0.000304 0.002696
0.001253 0.000291 0.002716
-0.001042 0.000644 0.002364
-0.001153 0.000578 0.002481
-0.001186 0.000562 0.002505
-0.001218 0.000548 0.002527
-0.000683 0.000482 0.002893
-0.00112 0.00073 0.002454
-0.001154 0.000714 0.002481
-0.000697 0.000553 0.002853
-0.000844 0.000726 0.002301
-0.001407 0.000498 0.002646
-0.000851 0.000808 0.002236
-0.000262 -9e-06 0.002213
-0.000237 -9e-06 0.002213
-0.000213 -9e-06 0.002214
-0.000697 0.000716 0.002851
-0.000971 0.000739 0.002295
-0.000697 0.000526 0.002852
-0.001376 0.000618 0.002631
-0.000767 0.000725 0.002387
-0.00125 0.000589 0.002549
-0.001283 0.000574 0.002572
-1.6e-05 -1.1e-05 0.002214
9e-06 -9e-06 0.002214
3.4e-05 -9e-06 0.002213
5.8e-05 -1e-05 0.002215
8.3e-05 -1.1e-05 0.002216
0.000107 -1e-05 0.002216
0.000132 -9e-06 0.002214
0.000157 -9e-06 0.002215
0.000181 -9e-06 0.002214
0.00085 0.000673 0.002352
0.000377 0.000711 0.00297
0.000255 -8e-06 0.002213
0.00028 -9e-06 0.002214
0.000329 -9e-06 0.002213
0.000354 -9e-06 0.002214
0.000378 -1e-05 0.002216
0.001119 0.000622 0.002625
0.000974 0.000428 0.002496
0.000889 0.00054 0.002394
0.00085 0.000563 0.002354
-0.00125 0.000535 0.002548
-0.001282 0.000521 0.002571
-0.001314 0.000507 0.002592
-0.000656 -8e-06 0.002152
-0.000711 0.000734 0.002809
-0.001578 0.000631 0.002345
-0.001407 0.000552 0.002646
-0.001346 0.000575 0.002612
-0.000756 0.00068 0.002612
-0.001081 0.000728 0.002409
-0.001024 0.000744 0.00239
-0.000647 0.000465 0.002943
-0.001282 0.000656 0.002572
-0.001219 0.000684 0.002528
-0.000747 0.000573 0.00267
-0.000868 0.000727 0.002292
-0.000891 0.000726 0.002286
-0.001282 0.000683 0.002574
-0.000287 -1.4e-05 0.002166
-0.000262 -1.4e-05 0.002166
-0.000237 -1.5e-05 0.002167
-0.000213 -1.5e-05 0.002168
-0.000188 -1.5e-05 0.002169
-0.000164 -1.5e-05 0.002168
-0.000139 -1.5e-05 0.002169
-0.000114 -1.5e-05 0.002169
-9e-05 -1.6e-05 0.00217
-6.5e-05 -1.6e-05 0.002171
-4e-05 -1.6e-05 0.002171
-1.6e-05 -1.6e-05 0.002171
9e-06 -1.6e-05 0.002171
3.3e-05 -1.6e-05 0.002171
5.8e-05 -1.6e-05 0.002171
8.3e-05 -1.6e-05 0.002171
0.000107 -1.6e-05 0.00217
0.000132 -1.6e-05 0.00217
0.000157 -1.6e-05 0.00217
0.000181 -1.6e-05 0.00217
0.000206 -1.5e-05 0.002169
0.000231 -1.5e-05 0.002167
0.000255 -1.5e-05 0.002167
0.00112 0.000377 0.002626
0.000653 0.000551 0.002384
0.000612 0.000436 0.002656
0.001187 0.000591 0.002673
0.00112 0.00073 0.002626
0.001153 0.000606 0.00265
0.000791 0.000581 0.002332
0.00112 0.000431 0.002627
0.000819 0.000575 0.002338
-0.001345 0.000494 0.002612
0.001405 0.000715 0.002629
-0.000656 -1.1e-05 0.002101
-0.000632 -1.2e-05 0.002102
-0.000574 0.000549 0.002959
-0.001563 0.000734 0.002229
-0.001377 0.000563 0.00263
-0.001119 0.000704 0.00245
-0.001154 0.000686 0.002481
-0.001047 0.000746 0.002379
-0.001313 0.000643 0.002593
-0.001345 0.00063 0.002613
-0.001186 0.000698 0.002505
-0.001081 0.000701 0.002408
-0.001376 0.000645 0.002632
-0.001532 0.000627 0.002593
-0.000525 0.000634 0.002965
-0.000287 -2.3e-05 0.002126
-0.000262 -2.3e-05 0.002128
-0.000237 -2.4e-05 0.002129
-0.000213 -2.4e-05 0.00213
-0.000188 -2.4e-05 0.00213
-0.000164 -2.5e-05 0.002131
-0.000139 -2.5e-05 0.002132
-0.000114 -2.6e-05 0.002133
-9e-05 -2.6e-05 0.002133
-6.5e-05 -2.6e-05 0.002133
-4e-05 -2.6e-05 0.002134
-1.6e-05 -2.6e-05 0.002133
9e-06 -2.6e-05 0.002133
3.3e-05 -2.6e-05 0.002133
5.8e-05 -2.6e-05 0.002133
8.3e-05 -2.6e-05 0.002133
0.000107 -2.6e-05 0.002133
0.000132 -2.5e-05 0.002132
0.000157 -2.5e-05 0.002132
0.000181 -2.5e-05 0.002131
0.000206 -2.4e-05 0.00213
0.000231 -2.4e-05 0.002128
0.000255 -2.3e-05 0.002127
0.00028 -2.3e-05 0.002127
0.000304 -2.2e-05 0.002125
0.000329 -2.2e-05 0.002124
0.00122 0.000576 0.002695
0.000408 0.000617 0.002987
0.000383 0.000619 0.00299
0.000694 0.000614 0.002352
0.000741 0.000614 0.002336
0.001051 0.000465 0.002572
0.000612 0.000491 0.002656
0.000519 0.000382 0.002931
0.000482 0.000368 0.002975
0.000973 0.000565 0.002493
0.001425 0.000721 0.002611
0.001385 0.000708 0.002648
-0.000668 0.000496 0.002927
-0.001896 0.000615 0.001973
-0.001186 0.000617 0.002505
-0.001446 0.000575 0.002642
-0.001407 0.000525 0.002646
-0.000668 0.000524 0.002926
-0.000647 0.000519 0.002943
-0.000711 0.00057 0.00281
-0.000782 0.000767 0.002349
-0.000724 0.000588 0.002767
-0.001314 0.000589 0.002592
-0.001119 0.000677 0.00245
-0.000768 0.00075 0.00239
-0.001387 0.000618 0.002637
-0.001508 0.000745 0.001959
-0.000287 -3.4e-05 0.002093
-0.000262 -3.5e-05 0.002094
-0.000237 -3.5e-05 0.002095
-0.000213 -3.6e-05 0.002096
-0.000188 -3.7e-05 0.002097
-0.000164 -3.7e-05 0.002098
-0.000139 -3.7e-05 0.002098
-0.000114 -3.8e-05 0.0021
-9e-05 -3.8e-05 0.002101
-6.5e-05 -3.8e-05 0.002101
-4e-05 -3.8e-05 0.002102
-1.6e-05 -3.8e-05 0.002101
9e-06 -3.9e-05 0.002102
3.3e-05 -3.8e-05 0.002102
5.8e-05 -3.8e-05 0.002101
8.3e-05 -3.8e-05 0.002101
0.000107 -3.8e-05 0.0021
0.000132 -3.7e-05 0.0021
0.000157 -3.7e-05 0.002099
0.000181 -3.6e-05 0.002097
0.000206 -3.6e-05 0.002097
0.000231 -3.5e-05 0.002096
0.000255 -3.5e-05 0.002095
0.00028 -3.4e-05 0.002093
0.000304 -3.3e-05 0.002091
0.000329 -3.3e-05 0.00209
0.000482 0.000395 0.002975
0.000636 0.000622 0.002413
0.001252 0.000428 0.002714
0.001281 0.000419 0.002724
0.000717 0.000615 0.002342
0.001086 0.000448 0.0026
0.000619 0.000515 0.002598
0.000504 0.00037 0.002962
0.000458 0.000369 0.00298
0.000932 0.000592 0.002447
0.000561 0.000479 0.00282
0.000548 0.000464 0.002859
-0.000747 0.000519 0.002671
-0.000736 0.000497 0.002722
-0.000723 0.00048 0.002766
-0.000711 0.000461 0.002811
-0.000697 0.000444 0.002852
-0.000683 0.000428 0.002893
-0.000668 0.000415 0.002927
-0.000647 0.00041 0.002943
-0.000623 0.000411 0.00295
-0.000599 0.000411 0.002955
-0.000575 0.000412 0.00296
-0.001578 0.000604 0.002345
-0.001583 0.000618 0.002444
-0.002039 0.000699 0.002016
-0.001375 0.000427 0.002632
-0.001345 0.00044 0.002613
-0.001314 0.000453 0.002591
-0.001282 0.000466 0.00257
-0.001251 0.00048 0.00255
-0.001218 0.000494 0.002527
-0.001186 0.000508 0.002505
-0.001154 0.000523 0.002481
-0.001118 0.000542 0.002449
-0.001081 0.000565 0.002409
-0.001042 0.000591 0.002362
-0.001004 0.000615 0.002319
-0.000971 0.00063 0.002295
-0.000942 0.000638 0.002286
-0.000916 0.000643 0.002283
-0.000891 0.000645 0.002285
-0.000867 0.000646 0.002291
-0.000844 0.000644 0.0023
-0.000822 0.000641 0.002313
-0.000801 0.000637 0.00233
-0.000782 0.000629 0.002353
-0.000768 0.000614 0.00239
-0.000755 0.000518 0.00261
-0.000747 0.000491 0.002672
-0.000736 0.00047 0.002723
-0.000724 0.000452 0.002767
-0.000711 0.000434 0.002811
-0.000697 0.000417 0.002853
-0.000683 0.000401 0.002893
-0.000667 0.000388 0.002927
-0.000647 0.000383 0.002944
-0.000623 0.000383 0.00295
-0.000599 0.000384 0.002955
-0.000575 0.000385 0.00296
-0.001582 0.000583 0.002396
-0.001581 0.000637 0.002395
-0.001578 0.000685 0.002345
-0.001375 0.0004 0.002632
-0.001345 0.000413 0.002613
-0.001314 0.000426 0.002592
-0.001282 0.000439 0.00257
-0.00125 0.000453 0.002549
-0.001218 0.000466 0.002528
-0.001186 0.000481 0.002505
-0.001154 0.000496 0.002482
-0.001118 0.000516 0.002447
-0.001081 0.000538 0.002409
-0.001041 0.000564 0.002361
-0.001003 0.000589 0.002318
-0.000971 0.000603 0.002294
-0.000942 0.000611 0.002285
-0.000916 0.000616 0.002282
-0.000891 0.000618 0.002285
-0.000867 0.000618 0.002291
-0.000844 0.000617 0.0023
-0.000822 0.000614 0.002313
-0.000801 0.000609 0.00233
-0.000782 0.000602 0.002353
-0.000768 0.000587 0.00239
-0.000755 0.00049 0.002612
-0.000747 0.000464 0.002673
-0.000736 0.000444 0.002721
-0.000724 0.000424 0.002767
-0.000711 0.000406 0.002812
-0.000697 0.00039 0.002853
-0.000683 0.000374 0.002893
-0.000667 0.000361 0.002927
-0.000647 0.000356 0.002943
-0.000623 0.000356 0.002949
-0.000599 0.000357 0.002955
-0.000574 0.000358 0.00296
-0.001896 0.00067 0.001972
-0.001582 0.000583 0.002534
-0.00149 0.0006 0.002619
-0.001375 0.000373 0.002632
-0.001345 0.000385 0.002613
-0.001314 0.000399 0.002591
-0.001282 0.000412 0.00257
-0.00125 0.000425 0.00255
-0.001218 0.00044 0.002527
-0.001186 0.000454 0.002506
-0.001154 0.000469 0.002481
-0.001118 0.000488 0.002448
-0.001081 0.00051 0.002409
-0.001042 0.000537 0.002362
-0.001003 0.000562 0.002317
-0.000971 0.000577 0.002294
-0.000942 0.000584 0.002285
-0.000916 0.000589 0.002282
-0.000891 0.000591 0.002285
-0.000867 0.000591 0.002291
-0.000844 0.00059 0.0023
-0.000822 0.000587 0.002313
-0.000801 0.000582 0.00233
-0.000782 0.000574 0.002354
-0.000768 0.00056 0.00239
-0.000756 0.000462 0.002614
-0.000747 0.000436 0.002673
-0.000736 0.000417 0.002721
-0.000724 0.000397 0.002769
-0.000711 0.000379 0.002811
-0.000697 0.000363 0.002853
-0.000683 0.000347 0.002892
-0.000668 0.000333 0.002927
-0.000647 0.000329 0.002943
-0.000623 0.000329 0.00295
-0.000599 0.00033 0.002955
-0.000574 0.000331 0.002959
-0.001856 0.000686 0.001956
-0.001572 0.000574 0.002564
-0.001511 0.000599 0.002606
-0.001375 0.000346 0.002632
-0.001345 0.000358 0.002613
-0.001314 0.000371 0.002592
-0.001282 0.000385 0.00257
-0.00125 0.000398 0.00255
-0.001218 0.000412 0.002528
-0.001186 0.000426 0.002505
-0.001154 0.000441 0.002482
-0.001118 0.00046 0.002449
-0.001081 0.000484 0.002409
-0.001042 0.00051 0.002362
-0.001003 0.000535 0.002317
-0.000971 0.000549 0.002294
-0.000942 0.000557 0.002285
-0.000916 0.000562 0.002282
-0.000891 0.000564 0.002285
-0.000867 0.000564 0.002291
-0.000844 0.000563 0.0023
-0.000822 0.00056 0.002313
-0.000801 0.000555 0.00233
-0.000782 0.000547 0.002354
-0.000768 0.000533 0.00239
-0.000755 0.000435 0.002612
-0.000747 0.000409 0.002673
-0.000736 0.000389 0.002721
-0.000724 0.00037 0.002768
-0.000711 0.000352 0.002811
-0.000697 0.000336 0.002852
-0.000683 0.000319 0.002893
-0.000667 0.000307 0.002926
-0.000647 0.000302 0.002943
-0.000623 0.000302 0.00295
-0.000599 0.000303 0.002955
-0.000574 0.000304 0.00296
-0.001554 0.00049 0.002582
-0.00149 0.000573 0.002619
-0.001532 0.000599 0.002594
-0.001374 0.000319 0.002632
-0.001345 0.000331 0.002613
-0.001314 0.000344 0.002591
-0.001282 0.000358 0.00257
-0.001251 0.000371 0.00255
-0.001218 0.000385 0.002528
-0.001186 0.000399 0.002506
-0.001154 0.000414 0.002482
-0.001119 0.000433 0.002449
-0.00108 0.000457 0.002407
-0.001042 0.000483 0.002361
-0.001003 0.000508 0.002316
-0.00097 0.000522 0.002293
-0.000942 0.00053 0.002285
-0.000916 0.000534 0.002283
-0.000891 0.000537 0.002285
-0.000867 0.000537 0.002291
-0.000844 0.000536 0.0023
-0.000822 0.000533 0.002313
-0.000801 0.000528 0.002329
-0.000782 0.00052 0.002354
-0.000768 0.000506 0.00239
-0.000761 0.000438 0.002543
-0.000755 0.000409 0.002611
-0.000747 0.000382 0.002672
-0.000736 0.000362 0.002722
-0.000724 0.000343 0.002768
-0.000711 0.000324 0.002812
-0.000697 0.000309 0.002852
-0.000683 0.000292 0.002893
-0.000667 0.000279 0.002926
-0.000647 0.000274 0.002944
-0.000623 0.000275 0.00295
-0.000599 0.000275 0.002955
-0.000575 0.000277 0.00296
-0.001968 0.00067 0.001995
-0.001532 0.000572 0.002594
-0.001571 0.000601 0.002563
-0.001375 0.000292 0.002632
-0.001345 0.000304 0.002613
-0.001314 0.000317 0.002591
-0.001282 0.00033 0.002571
-0.00125 0.000344 0.00255
-0.001218 0.000358 0.002528
-0.001186 0.000372 0.002505
-0.001154 0.000387 0.002482
-0.001119 0.000406 0.00245
-0.00108 0.00043 0.002407
-0.001042 0.000455 0.002362
-0.001002 0.000481 0.002315
-0.00097 0.000495 0.002294
-0.000942 0.000503 0.002285
-0.000916 0.000507 0.002283
-0.000891 0.00051 0.002285
-0.000867 0.00051 0.002291
-0.000844 0.000508 0.0023
-0.000822 0.000506 0.002313
-0.000801 0.000501 0.002329
-0.000782 0.000493 0.002354
-0.000768 0.000478 0.002391
-0.000747 0.000355 0.002673
-0.000736 0.000335 0.002721
-0.000724 0.000316 0.002767
-0.000711 0.000297 0.002812
-0.000697 0.000282 0.002852
-0.000683 0.000265 0.002893
-0.000667 0.000252 0.002926
-0.000647 0.000247 0.002943
-0.000623 0.000247 0.00295
-0.000599 0.000248 0.002955
-0.000575 0.000249 0.00296
-0.001856 0.000659 0.001956
-0.001553 0.000572 0.00258
-0.001581 0.000611 0.002533
-0.001375 0.000265 0.002632
-0.001345 0.000277 0.002612
-0.001314 0.000289 0.002592
-0.001282 0.000303 0.002571
-0.00125 0.000317 0.002549
-0.001218 0.00033 0.002528
-0.001186 0.000345 0.002506
-0.001154 0.00036 0.002482
-0.001118 0.000379 0.002449
-0.001081 0.000402 0.002409
-0.001041 0.000429 0.002361
-0.001003 0.000454 0.002316
-0.00097 0.000468 0.002293
-0.000942 0.000476 0.002285
-0.000916 0.00048 0.002283
-0.000891 0.000482 0.002285
-0.000867 0.000483 0.002291
-0.000844 0.000481 0.0023
-0.000822 0.000479 0.002313
-0.000801 0.000474 0.002329
-0.000782 0.000466 0.002353
-0.000768 0.000451 0.002391
-0.000756 0.000353 0.002613
-0.000747 0.000329 0.002671
-0.000736 0.000308 0.002721
-0.000724 0.000289 0.002767
-0.000711 0.00027 0.002812
-0.000697 0.000255 0.002851
-0.000683 0.000238 0.002893
-0.000667 0.000225 0.002926
-0.000646 0.00022 0.002943
-0.000623 0.00022 0.00295
-0.000599 0.000221 0.002955
-0.000574 0.000222 0.00296
-0.001765 0.000729 0.001905
-0.001573 0.000681 0.00229
-0.001468 0.000601 0.002631
-0.001375 0.000237 0.002632
-0.001344 0.00025 0.002613
-0.001314 0.000262 0.002592
-0.001282 0.000276 0.002572
-0.00125 0.000289 0.00255
-0.001219 0.000303 0.002529
-0.001186 0.000317 0.002506
-0.001154 0.000333 0.002482
-0.001118 0.000353 0.002448
-0.001081 0.000375 0.002407
-0.001002 0.000427 0.002316
-0.00097 0.000441 0.002293
-0.000942 0.000449 0.002285
-0.000916 0.000453 0.002283
-0.000891 0.000455 0.002285
-0.000867 0.000455 0.002291
-0.000844 0.000454 0.0023
-0.000822 0.000452 0.002312
-0.000801 0.000447 0.002329
-0.000782 0.000439 0.002353
-0.000768 0.000424 0.00239
-0.000756 0.000325 0.002615
-0.000747 0.000302 0.00267
-0.000736 0.00028 0.002721
-0.000724 0.000261 0.002768
-0.000711 0.000243 0.002812
-0.000697 0.000227 0.002852
-0.000683 0.000211 0.002893
-0.000667 0.000198 0.002925
-0.000646 0.000193 0.002942
-0.000623 0.000193 0.002949
-0.000599 0.000194 0.002955
-0.000574 0.000195 0.00296
-0.001812 0.000706 0.001933
-0.001583 0.0006 0.00249
-0.001583 0.000645 0.002444
-0.001375 0.00021 0.002632
-0.001344 0.000222 0.002613
-0.001314 0.000235 0.002593
-0.001282 0.000248 0.002572
-0.00125 0.000262 0.00255
-0.001218 0.000276 0.002528
-0.001186 0.00029 0.002506
-0.001154 0.000305 0.002483
-0.001118 0.000324 0.00245
-0.00108 0.000349 0.002406
-0.001003 0.000399 0.002316
-0.00097 0.000414 0.002293
-0.000942 0.000422 0.002285
-0.000916 0.000426 0.002283
-0.000891 0.000428 0.002285
-0.000867 0.000428 0.002291
-0.000844 0.000427 0.0023
-0.000822 0.000425 0.002312
-0.0008 0.00042 0.002328
-0.000782 0.000411 0.002353
-0.000768 0.000396 0.002391
-0.000763 0.000366 0.002462
-0.000756 0.000299 0.002613
-0.000747 0.000275 0.00267
-0.000736 0.000253 0.002721
-0.000724 0.000234 0.002768
-0.000711 0.000216 0.002812
-0.000697 0.0002 0.002852
-0.000683 0.000184 0.002893
-0.000667 0.000171 0.002925
-0.000646 0.000167 0.002941
-0.000622 0.000166 0.002949
-0.000599 0.000167 0.002955
-0.000574 0.000168 0.00296
-0.001573 0.000599 0.002291
-0.001578 0.000658 0.002345
-0.001931 0.000739 0.001982
-0.001375 0.000183 0.002632
-0.001344 0.000196 0.002612
-0.001314 0.000208 0.002593
-0.001282 0.000221 0.002572
-0.00125 0.000235 0.002551
-0.001218 0.000249 0.002528
-0.001186 0.000263 0.002505
-0.001154 0.000278 0.002482
-0.001119 0.000297 0.00245
-0.00108 0.000322 0.002406
-0.001041 0.000348 0.00236
-0.001002 0.000372 0.002315
-0.00097 0.000387 0.002292
-0.000942 0.000394 0.002285
-0.000916 0.000399 0.002282
-0.000891 0.000401 0.002285
-0.000867 0.000401 0.002291
-0.000844 0.0004 0.0023
-0.001466 0.000657 0.002626
-0.0008 0.000392 0.002328
-0.000779 0.000384 0.002352
-0.000768 0.00037 0.00239
-0.000756 0.000272 0.002613
-0.000746 0.000248 0.00267
-0.000736 0.000226 0.002722
-0.000724 0.000207 0.002768
-0.000711 0.000189 0.002811
-0.000697 0.000173 0.002852
-0.000683 0.000156 0.002892
-0.000667 0.000144 0.002924
-0.000645 0.000141 0.002938
-0.000622 0.00014 0.002947
-0.000598 0.00014 0.002954
-0.000574 0.000141 0.002959
-0.001968 0.000616 0.001994
-0.001799 0.000718 0.00205
-0.00157 0.00063 0.002561
-0.001375 0.000156 0.002631
-0.001344 0.000169 0.002611
-0.001313 0.000181 0.002592
-0.001282 0.000194 0.002572
-0.00125 0.000208 0.00255
-0.001218 0.000222 0.002528
-0.001186 0.000236 0.002506
-0.001154 0.000251 0.002482
-0.001118 0.00027 0.002449
-0.00108 0.000294 0.002407
-0.001041 0.00032 0.00236
-0.001002 0.000345 0.002315
-0.00097 0.00036 0.002293
-0.000942 0.000367 0.002285
-0.000916 0.000372 0.002282
-0.000891 0.000374 0.002285
-0.000867 0.000374 0.002291
-0.00153 0.000656 0.00259
-0.001443 0.000659 0.002636
-0.001581 0.000692 0.002396
-0.000779 0.000357 0.002352
-0.000762 0.000273 0.002547
-0.000756 0.000244 0.002614
-0.000747 0.00022 0.002671
-0.000736 0.000199 0.002721
-0.000724 0.00018 0.002768
-0.000711 0.000162 0.002812
-0.000697 0.000146 0.002852
-0.000683 0.00013 0.002892
-0.000666 0.000118 0.002922
-0.000644 0.000116 0.002935
-0.000621 0.000115 0.002944
-0.000597 0.000114 0.002951
-0.000573 0.000115 0.002956
-0.001511 0.000572 0.002606
-0.001815 0.000722 0.002029
-0.001583 0.000672 0.002444
-0.001376 0.000129 0.00263
-0.001345 0.000141 0.002611
-0.001314 0.000154 0.002592
-0.001282 0.000167 0.002571
-0.001251 0.00018 0.002551
-0.001218 0.000195 0.002527
-0.001186 0.000209 0.002505
-0.001154 0.000223 0.002483
-0.001118 0.000243 0.002449
-0.00108 0.000268 0.002405
-0.001041 0.000293 0.00236
-0.001002 0.000318 0.002315
-0.00097 0.000332 0.002293
-0.000942 0.00034 0.002284
-0.000916 0.000344 0.002282
-0.000891 0.000347 0.002285
-0.000867 0.000347 0.002291
-0.000844 0.000345 0.0023
-0.000821 0.000343 0.002312
-0.0008 0.000338 0.002329
-0.000782 0.00033 0.002353
-0.000767 0.000316 0.00239
-0.000756 0.000217 0.002614
-0.000747 0.000192 0.002672
-0.000736 0.000172 0.002722
-0.000724 0.000152 0.002768
-0.000711 0.000134 0.002812
-0.000697 0.000118 0.002852
-0.000683 0.000103 0.002892
-0.000664 9.4e-05 0.002917
-0.000642 9.1e-05 0.002929
-0.000619 9e-05 0.002938
-0.000596 9e-05 0.002945
-0.000572 9.1e-05 0.002951
-0.001582 0.000556 0.002534
-0.001896 0.000724 0.001973
-0.001579 0.000712 0.002345
-0.001375 0.000102 0.002629
-0.001345 0.000114 0.00261
-0.001314 0.000127 0.002591
-0.001282 0.00014 0.002571
-0.00125 0.000154 0.002549
-0.001218 0.000168 0.002528
-0.001186 0.000182 0.002505
-0.001154 0.000196 0.002483
-0.001118 0.000217 0.002448
-0.00108 0.000241 0.002405
-0.00104 0.000267 0.002358
-0.001002 0.000291 0.002314
-0.00097 0.000305 0.002293
-0.000942 0.000313 0.002285
-0.000916 0.000317 0.002283
-0.000891 0.000319 0.002285
-0.000867 0.00032 0.002291
-0.000844 0.000318 0.0023
-0.000822 0.000316 0.002312
-0.000801 0.000311 0.002329
-0.000782 0.000302 0.002354
-0.000767 0.000289 0.00239
-0.000747 0.000166 0.002671
-0.000736 0.000144 0.002722
-0.000724 0.000125 0.002768
-0.000711 0.000107 0.002813
-0.000697 9.1e-05 0.002853
-0.000682 7.7e-05 0.002889
-0.000662 7e-05 0.002909
-0.00064 6.8e-05 0.00292
-0.000617 6.7e-05 0.002929
-0.000593 6.7e-05 0.002936
-0.001468 0.000574 0.002631
-0.001932 0.000711 0.001983
-0.001402 7e-05 0.002631
-0.001375 7.5e-05 0.002628
-0.001345 8.7e-05 0.00261
-0.001313 0.0001 0.002591
-0.001282 0.000113 0.00257
-0.00125 0.000126 0.00255
-0.001218 0.00014 0.002528
-0.001186 0.000155 0.002505
-0.001153 0.00017 0.002481
-0.001117 0.000191 0.002445
-0.00108 0.000214 0.002405
-0.001041 0.000239 0.002359
-0.001002 0.000264 0.002315
-0.00097 0.000278 0.002292
-0.000942 0.000286 0.002285
-0.000915 0.00029 0.002282
-0.000891 0.000292 0.002285
-0.000867 0.000292 0.002291
-0.000844 0.000291 0.0023
-0.000822 0.000289 0.002312
-0.000801 0.000283 0.00233
-0.000782 0.000275 0.002354
-0.000767 0.000261 0.00239
-0.000746 0.000139 0.00267
-0.000736 0.000117 0.002722
-0.000724 9.8e-05 0.002768
-0.000711 8e-05 0.002813
-0.000696 6.5e-05 0.002851
-0.00068 5.3e-05 0.002883
-0.000659 4.8e-05 0.002898
-0.000636 4.7e-05 0.002909
-0.000613 4.6e-05 0.002917
-0.002039 0.000645 0.002016
-0.002039 0.000672 0.002017
-0.001399 4.8e-05 0.002621
-0.001373 5.1e-05 0.002621
-0.001345 6e-05 0.00261
-0.001313 7.3e-05 0.00259
-0.001282 8.6e-05 0.00257
-0.00125 0.0001 0.002549
-0.001218 0.000113 0.002528
-0.001186 0.000128 0.002505
-0.001153 0.000142 0.002482
-0.001117 0.000163 0.002446
-0.00108 0.000185 0.002407
-0.00104 0.000213 0.002357
-0.001002 0.000237 0.002315
-0.00097 0.000251 0.002292
-0.000941 0.000259 0.002284
-0.000915 0.000263 0.002283
-0.000891 0.000265 0.002285
-0.000867 0.000265 0.002291
-0.000844 0.000264 0.0023
-0.000822 0.000261 0.002312
-0.000801 0.000256 0.00233
-0.000782 0.000248 0.002354
-0.000767 0.000234 0.002389
-0.000747 0.00011 0.002673
-0.000736 9e-05 0.002722
-0.000724 7.1e-05 0.002768
-0.000711 5.3e-05 0.002812
-0.000695 3.9e-05 0.002847
-0.000676 3.1e-05 0.00287
-0.000655 2.8e-05 0.002884
-0.000632 2.6e-05 0.002894
-0.001855 0.000633 0.001954
-0.001968 0.000697 0.001996
-0.001584 0.000654 0.002491
-0.00137 3e-05 0.002609
-0.001343 3.5e-05 0.002605
-0.001313 4.6e-05 0.00259
-0.001282 5.9e-05 0.002571
-0.00125 7.2e-05 0.002549
-0.001218 8.6e-05 0.002527
-0.001186 0.000101 0.002505
-0.001154 0.000115 0.002483
-0.001117 0.000136 0.002446
-0.00108 0.000159 0.002406
-0.001002 0.00021 0.002314
-0.00097 0.000224 0.002293
-0.000941 0.000232 0.002284
-0.000915 0.000236 0.002282
-0.000891 0.000238 0.002285
-0.000867 0.000238 0.002291
-0.000844 0.000237 0.0023
-0.000822 0.000234 0.002313
-0.000801 0.000229 0.00233
-0.000782 0.000221 0.002354
-0.000767 0.000207 0.002389
-0.000748 8.2e-05 0.002675
-0.000736 6.3e-05 0.002721
-0.000709 2.9e-05 0.002806
-0.000692 1.8e-05 0.002834
-0.000671 1.3e-05 0.002852
-0.000649 1e-05 0.002864
-0.000626 9e-06 0.002874
-0.001931 0.000684 0.001983
-0.002004 0.000711 0.002005
-0.001581 0.000638 0.002532
-0.001417 0.000663 0.002641
-0.001339 1.5e-05 0.00259
-0.001311 2.2e-05 0.002583
-0.001281 3.3e-05 0.002569
-0.00125 4.6e-05 0.002548
-0.001218 5.9e-05 0.002527
-0.001186 7.4e-05 0.002504
-0.001154 8.8e-05 0.002483
-0.001117 0.000108 0.002447
-0.001079 0.000133 0.002403
-0.00104 0.000158 0.002358
-0.001002 0.000182 0.002315
-0.00097 0.000197 0.002292
-0.000941 0.000205 0.002284
-0.000915 0.000209 0.002282
-0.000891 0.000211 0.002285
-0.000867 0.000211 0.002291
-0.000844 0.000209 0.002301
-0.000822 0.000207 0.002313
-0.000801 0.000202 0.00233
-0.000782 0.000194 0.002354
-0.000768 0.000179 0.002391
-0.000747 5.5e-05 0.002674
-0.000735 3.7e-05 0.00272
-0.000721 2.1e-05 0.00276
-0.000705 8e-06 0.002792
-0.000684 3e-06 0.00281
-0.000662 0.0 0.002823
-0.000639 -1e-06 0.002831
-0.000473 1e-06 0.002877
-0.000448 4e-06 0.002879
-0.001422 0.000578 0.002649
-0.001968 0.000725 0.001994
-0.001468 0.000628 0.00263
-0.00149 0.000627 0.002618
-0.001386 0.000672 0.002636
-0.001306 4e-06 0.002564
-0.001278 1e-05 0.002558
-0.001248 2e-05 0.002545
-0.001218 3.3e-05 0.002526
-0.001186 4.6e-05 0.002505
-0.001154 6e-05 0.002483
-0.001117 8.1e-05 0.002446
-0.001079 0.000105 0.002404
-0.001041 0.00013 0.002359
-0.001002 0.000156 0.002313
-0.00097 0.000169 0.002293
-0.000941 0.000177 0.002284
-0.000915 0.000182 0.002282
-0.000891 0.000184 0.002285
-0.000867 0.000184 0.002291
-0.000844 0.000182 0.002301
-0.000822 0.00018 0.002313
-0.000801 0.000175 0.00233
-0.000782 0.000166 0.002355
-0.000768 0.000152 0.002392
-0.000755 5.5e-05 0.002613
-0.000747 2.9e-05 0.002672
-0.000733 1.3e-05 0.002713
-0.000716 2e-06 0.002742
-0.000695 -3e-06 0.002759
-0.000672 -4e-06 0.002768
-0.000648 -3e-06 0.002774
-0.000458 -2e-06 0.002827
-0.000385 3e-06 0.002836
-0.002346 0.00069 0.001239
-0.001583 0.000564 0.002444
-0.001554 0.000517 0.002582
-0.001573 0.000491 0.002565
-0.002003 0.000685 0.002006
-0.001388 0.000645 0.002638
-0.00127 -3e-06 0.00253
-0.001244 1e-06 0.002528
-0.001215 9e-06 0.002519
-0.001185 2e-05 0.002503
-0.001153 3.4e-05 0.002482
-0.001118 5.4e-05 0.002448
-0.001079 7.8e-05 0.002404
-0.00104 0.000104 0.002357
-0.001002 0.000129 0.002313
-0.00097 0.000142 0.002292
-0.000941 0.00015 0.002283
-0.000915 0.000155 0.002282
-0.00089 0.000156 0.002285
-0.000867 0.000156 0.002291
-0.000844 0.000155 0.002301
-0.000822 0.000152 0.002313
-0.000801 0.000147 0.00233
-0.000782 0.000139 0.002355
-0.000768 0.000124 0.002392
-0.000761 5.7e-05 0.002545
-0.000755 2.7e-05 0.002613
-0.000743 8e-06 0.00266
-0.000725 -2e-06 0.002686
-0.000703 -3e-06 0.002697
-0.000467 -4e-06 0.002769
-0.000443 -4e-06 0.002775
-0.000372 -4e-06 0.002796
-0.000345 2e-06 0.00279
0.000597 -2.6e-05 0.002049
-0.001896 0.000697 0.001973
-0.001856 0.000713 0.001956
-0.001583 0.000627 0.00249
-0.002231 0.000464 0.002022
-0.001254 -5e-06 0.002477
-0.001231 -4e-06 0.002483
-0.001207 -4e-06 0.002489
-0.001181 0.0 0.002487
-0.001152 9e-06 0.002476
-0.001118 2.5e-05 0.00245
-0.001079 5.1e-05 0.002405
-0.001039 7.8e-05 0.002354
-0.001002 0.000101 0.002314
-0.00097 0.000115 0.002293
-0.000941 0.000123 0.002284
-0.000915 0.000127 0.002282
-0.000891 0.000129 0.002285
-0.000867 0.000129 0.002291
-0.000844 0.000128 0.002301
-0.000821 0.000125 0.002313
-0.000801 0.00012 0.00233
-0.000782 0.000112 0.002355
-0.000768 9.7e-05 0.002393
-0.000762 2.9e-05 0.002548
-0.000753 4e-06 0.002605
-0.000735 -6e-06 0.002632
-0.000712 -6e-06 0.00264
-0.000688 -6e-06 0.002646
-0.000344 -3.4e-05 0.002082
-0.000367 -3.5e-05 0.002075
-0.000391 -3.5e-05 0.00207
-0.000475 -5e-06 0.002707
-0.000451 -5e-06 0.002713
-0.000427 -4e-06 0.002719
-0.000415 -3.6e-05 0.002064
0.000573 -2.6e-05 0.002057
0.000549 -2.6e-05 0.002064
-0.001896 0.000643 0.001973
-0.001525 0.000687 0.002583
-0.001484 0.000687 0.002609
-0.001423 0.00055 0.002649
-0.00124 -8e-06 0.002428
-0.001216 -7e-06 0.002434
-0.001193 -8e-06 0.002442
-0.001169 -8e-06 0.002448
-0.001144 -5e-06 0.002449
-0.001115 3e-06 0.00244
-0.001081 2.1e-05 0.00241
-0.001039 5.2e-05 0.002353
-0.001002 7.4e-05 0.002313
-0.00097 8.8e-05 0.002293
-0.000942 9.6e-05 0.002284
-0.000915 0.0001 0.002282
-0.000891 0.000102 0.002285
-0.000867 0.000102 0.002291
-0.000844 0.000101 0.0023
-0.000821 9.8e-05 0.002312
-0.0008 9.3e-05 0.00233
-0.000782 8.4e-05 0.002356
-0.000768 7e-05 0.002392
-0.00076 4e-06 0.002543
-0.000743 -7e-06 0.002572
-0.000672 -7e-06 0.002593
-0.000483 -7e-06 0.002649
-0.00046 -8e-06 0.002657
-0.000436 -7e-06 0.002663
-0.000412 -7e-06 0.002669
-0.00044 -3.7e-05 0.002059
-0.001379 0.000705 0.002628
-0.001411 0.000696 0.002632
-0.001583 0.0007 0.002444
-0.001505 0.000686 0.002597
-0.001271 -7e-06 0.002357
-0.001247 -8e-06 0.002365
-0.000463 -3.7e-05 0.002053
-0.001152 -6e-06 0.002388
-0.001128 -6e-06 0.002396
-0.001103 -4e-06 0.002399
-0.001077 1e-06 0.002396
-0.001001 4.8e-05 0.002312
-0.00097 6.1e-05 0.002292
-0.000941 6.9e-05 0.002284
-0.000915 7.3e-05 0.002281
-0.00089 7.5e-05 0.002284
-0.000867 7.5e-05 0.002291
-0.000844 7.4e-05 0.0023
-0.001488 0.000656 0.002615
-0.002001 0.000741 0.002001
-0.001582 0.000519 0.002489
-0.001581 0.000502 0.002533
-0.000487 -3.7e-05 0.002046
-0.000511 -3.8e-05 0.002039
-0.000608 -6e-06 0.002548
-0.000489 -7e-06 0.002581
-0.000466 -5e-06 0.002589
-0.000442 -5e-06 0.002595
-0.000535 -3.8e-05 0.002033
-0.000277 -6e-06 0.002645
-0.000251 -2e-06 0.002643
-0.001324 -6e-06 0.002276
-0.001301 -6e-06 0.002284
-0.001253 -6e-06 0.002297
-0.00123 -6e-06 0.002305
-0.001207 -7e-06 0.002313
-0.001183 -7e-06 0.002321
-0.001582 0.00071 0.002487
-0.002003 0.000576 0.002004
-0.002039 0.000563 0.002014
-0.00142 0.000634 0.002646
-0.001678 0.000741 0.00186
-0.001002 1.9e-05 0.002315
-0.000969 3.4e-05 0.002292
-0.000941 4.2e-05 0.002283
-0.000915 4.6e-05 0.00228
-0.00089 4.8e-05 0.002284
-0.000867 4.8e-05 0.002291
-0.000844 4.7e-05 0.0023
-0.000821 4.4e-05 0.002312
-0.001511 0.000627 0.002606
-0.002004 0.000657 0.002005
0.000526 -2.6e-05 0.002071
0.000502 -2.6e-05 0.002078
-0.000558 -3.8e-05 0.002026
-0.000582 -3.8e-05 0.002019
-0.000606 -3.8e-05 0.002012
-0.000642 -1e-05 0.002487
-0.000618 -1e-05 0.002494
-0.000594 -1e-05 0.002501
-0.000571 -1e-05 0.002508
-0.000547 -1e-05 0.002515
-0.000524 -1.1e-05 0.002522
-0.0005 -1e-05 0.002528
-0.000476 -1e-05 0.002534
-0.000452 -9e-06 0.00254
-0.000428 -9e-06 0.002546
-0.000404 -8e-06 0.002553
-0.000261 -7e-06 0.002591
-0.000237 -5e-06 0.002595
-0.001579 0.000667 0.00253
-0.00131 -9e-06 0.002226
-0.001287 -1e-05 0.002236
-0.001583 0.000718 0.002397
-0.00124 -1.1e-05 0.002252
-0.001216 -1.1e-05 0.002259
-0.001192 -1e-05 0.002263
-0.001168 -1e-05 0.00227
-0.001423 0.000731 0.002606
