-0.000565 0.000727 0.002928
-0.001608 0.000577 0.002254
-0.000943 0.000719 0.002289
-0.001396 0.000515 0.002609
-0.000237 5.7e-05 0.002537
-0.000213 7.4e-05 0.002503
-0.000188 8.2e-05 0.002485
-0.000163 8.7e-05 0.002474
-0.000139 9e-05 0.002468
-0.000114 9.1e-05 0.002466
-9e-05 9e-05 0.002467
-6.5e-05 8.8e-05 0.002471
-4e-05 8.4e-05 0.00248
-1.6e-05 7.7e-05 0.002495
9e-06 6.5e-05 0.00252
8.3e-05 5e-06 0.002651
0.000108 6e-06 0.002649
0.000132 7e-06 0.002646
-0.001427 0.000449 0.002628
0.000723 0.00066 0.002361
0.000999 0.000553 0.002574
0.000654 0.000657 0.002389
0.000876 0.000633 0.002433
0.000634 0.000679 0.002407
0.000748 0.000603 0.002358
0.000587 0.000411 0.002659
0.000379 7e-06 0.002645
0.000403 7e-06 0.002647
0.000507 0.000726 0.002894
0.000452 7e-06 0.002645
0.000477 8e-06 0.002645
0.000502 7e-06 0.002646
0.000526 6e-06 0.002648
0.000551 7e-06 0.002648
0.000478 0.000428 0.002963
-0.000656 7e-06 0.002587
-0.000632 8e-06 0.002585
-0.000607 7e-06 0.002586
-0.000582 7e-06 0.002587
-0.000558 7e-06 0.002586
-0.000744 0.000718 0.002835
-0.000508 5e-06 0.00259
-0.000484 4e-06 0.002591
-0.000622 0.00063 0.002947
-0.001271 0.000594 0.002532
-0.001334 0.000513 0.002572
-0.00054 0.000729 0.00293
-0.000361 3e-06 0.002597
-0.000336 2e-06 0.002597
-0.000311 2e-06 0.002598
-0.000287 3e-06 0.002597
-0.001427 0.000504 0.002628
-0.000213 4.7e-05 0.002502
-0.000188 5.5e-05 0.002484
-0.000163 6.1e-05 0.002473
-0.000139 6.3e-05 0.002467
-0.000114 6.4e-05 0.002465
-9e-05 6.3e-05 0.002467
-6.5e-05 6.2e-05 0.00247
-4e-05 5.7e-05 0.002479
-1.6e-05 5e-05 0.002495
-0.000806 0.000742 0.002417
8.3e-05 -1e-06 0.002604
0.000108 -1e-06 0.002604
0.000132 -1e-06 0.002604
0.000748 0.000657 0.002358
0.001035 0.000534 0.002605
0.000231 0.0 0.002601
0.000255 1e-06 0.002601
0.00028 2e-06 0.0026
0.000723 0.000606 0.002361
0.001204 0.000402 0.002726
0.001172 0.000416 0.002706
0.000748 0.00063 0.002358
0.000603 0.000492 0.002471
0.00117 0.000716 0.002702
0.000452 5e-06 0.002592
0.000477 5e-06 0.002591
0.000502 6e-06 0.002591
0.000526 6e-06 0.00259
0.000551 6e-06 0.002589
0.001138 0.00073 0.002682
-0.000656 3e-06 0.002536
-0.000632 2e-06 0.002538
-0.000607 0.0 0.002542
-0.000582 0.0 0.002544
-0.000556 1e-06 0.002542
-0.000484 1e-06 0.002542
-0.000459 2e-06 0.00254
-0.001365 0.000501 0.002591
-0.001303 0.000526 0.002552
-0.000361 2e-06 0.002539
-0.000336 3e-06 0.002538
-0.000311 3e-06 0.002538
-0.000287 3e-06 0.002538
-0.001594 0.0006 0.002553
-0.00055 0.000442 0.002962
-0.000213 2e-05 0.002501
-0.000188 2.8e-05 0.002484
-0.000163 3.4e-05 0.002472
-0.000139 3.6e-05 0.002467
-0.000114 3.7e-05 0.002465
-9e-05 3.6e-05 0.002466
-6.5e-05 3.5e-05 0.00247
-4e-05 3e-05 0.002479
-1.6e-05 2.3e-05 0.002495
-0.000574 0.000441 0.002957
0.000108 2e-06 0.00254
0.000132 2e-06 0.002541
0.000381 0.000677 0.002982
0.000355 0.00068 0.002985
0.000231 2e-06 0.00254
0.000255 3e-06 0.002539
0.00028 3e-06 0.002539
0.000774 0.000599 0.002359
0.001304 0.000583 0.002714
0.001281 0.000582 0.002725
0.001172 0.000443 0.002706
0.00107 0.000489 0.002634
0.001138 0.000621 0.002682
0.000477 2e-06 0.002544
0.000502 1e-06 0.002543
0.000526 1e-06 0.002542
0.000551 0.0 0.002544
0.000576 2e-06 0.002542
-0.000656 2e-06 0.00248
-0.000632 3e-06 0.002478
-0.000607 4e-06 0.002477
-0.000558 4e-06 0.002477
-0.000533 5e-06 0.002475
-0.000509 5e-06 0.002474
-0.000484 5e-06 0.002474
-0.000459 5e-06 0.002475
-0.000434 5e-06 0.002473
-0.000385 6e-06 0.002473
-0.000361 5e-06 0.002474
-0.000336 5e-06 0.002474
-0.000311 6e-06 0.002473
-0.000287 6e-06 0.002472
-0.001303 0.000553 0.002552
-0.000213 8e-06 0.002469
-0.000188 8e-06 0.002468
-0.000164 9e-06 0.002465
-0.000139 1.1e-05 0.002462
-0.000598 0.000522 0.002952
-9e-05 1.1e-05 0.002463
-6.5e-05 8e-06 0.002469
-4e-05 5e-06 0.002475
-1.6e-05 1e-06 0.002484
-0.000598 0.00044 0.002952
8.3e-05 5e-06 0.002475
0.000107 6e-06 0.002472
0.000405 0.000676 0.002978
0.00033 0.000684 0.002985
0.000535 0.000347 0.00282
0.000231 5e-06 0.002475
0.000255 7e-06 0.002472
0.00028 6e-06 0.002473
0.001105 0.0005 0.002659
0.001258 0.000581 0.002734
0.000836 0.000658 0.002389
0.001105 0.000473 0.00266
0.000452 5e-06 0.002476
0.000477 4e-06 0.002477
0.000551 3e-06 0.00248
0.000576 2e-06 0.002483
0.0006 5e-06 0.002476
-0.000622 0.000439 0.002947
-0.00162 0.000667 0.002503
-0.000996 0.000682 0.002294
-0.001207 0.000567 0.002489
-0.000533 5e-06 0.002415
-0.000508 6e-06 0.002414
-0.000484 6e-06 0.002414
-0.000459 5e-06 0.002415
-0.000435 5e-06 0.002415
-0.00041 6e-06 0.002415
-0.000385 5e-06 0.002416
-0.000361 5e-06 0.002417
-0.000336 5e-06 0.002417
-0.000311 4e-06 0.002418
-0.001574 0.000599 0.002567
-0.001334 0.00054 0.002572
-0.001238 0.000581 0.002509
-0.000743 0.000528 0.002834
-0.000757 0.000545 0.002792
-0.000714 0.000634 0.002909
-0.000791 0.000687 0.002646
-0.001102 0.000679 0.002391
-1.6e-05 2e-06 0.002424
9e-06 2e-06 0.002423
3.4e-05 2e-06 0.002423
5.8e-05 3e-06 0.002422
8.3e-05 3e-06 0.002421
0.001385 0.000711 0.002646
0.001405 0.000717 0.002626
0.000494 0.000304 0.002931
0.000478 0.000293 0.002962
0.000522 0.000332 0.002858
0.000549 0.000362 0.002782
0.000255 4e-06 0.002419
0.00028 4e-06 0.002417
0.000305 4e-06 0.002419
0.000634 0.000544 0.002406
0.000562 0.000486 0.002743
0.000774 0.000572 0.002359
0.000676 0.000578 0.002376
0.000494 0.000358 0.002932
0.000452 6e-06 0.002416
0.000477 6e-06 0.002415
0.000502 6e-06 0.002415
0.000526 6e-06 0.002416
0.000551 6e-06 0.002416
0.000576 7e-06 0.002414
-0.000646 0.000438 0.002942
-0.001553 0.000463 0.00258
-0.001139 0.000602 0.002432
-0.001467 0.000602 0.002628
-0.001239 0.000553 0.00251
-0.001271 0.00054 0.002531
-0.00067 0.000492 0.002936
-0.000508 1e-06 0.002367
-0.000484 0.0 0.002368
-0.000459 -1e-06 0.00237
-0.000435 -1e-06 0.002371
-0.00041 -1e-06 0.002371
-0.000384 -2e-06 0.002374
-0.000361 -3e-06 0.002377
-0.000336 -3e-06 0.002376
-0.000311 -4e-06 0.002377
-0.000287 -4e-06 0.002377
-0.001271 0.000567 0.002532
-0.000598 0.000467 0.002953
-0.000694 0.000492 0.002929
-0.001541 0.000718 0.002561
-0.001139 0.000656 0.002432
-0.000671 0.000437 0.002937
-0.000694 0.000437 0.00293
-0.00055 0.000496 0.002962
-1.6e-05 -2e-06 0.002374
9e-06 -3e-06 0.002376
3.4e-05 -2e-06 0.002374
5.8e-05 -3e-06 0.002375
0.000107 -2e-06 0.002375
0.000132 -3e-06 0.002376
-0.000715 0.000443 0.002912
0.000562 0.000378 0.002741
0.000255 -2e-06 0.002378
0.00028 -3e-06 0.002376
0.000305 -3e-06 0.002375
0.000329 -2e-06 0.002374
0.000549 0.00047 0.002783
0.000803 0.000564 0.002368
0.000699 0.000579 0.002367
0.000522 0.000468 0.002859
0.000452 1e-06 0.002367
0.000477 2e-06 0.002366
0.000502 2e-06 0.002365
0.000526 3e-06 0.002363
0.000551 4e-06 0.002361
0.000576 4e-06 0.002362
0.0006 4e-06 0.002361
0.000625 5e-06 0.00236
-0.00055 0.000469 0.002962
-0.000574 0.000468 0.002957
-0.000729 0.000457 0.002875
-0.000533 -2e-06 0.002315
-0.000508 -3e-06 0.002317
-0.000484 -3e-06 0.002316
-0.000459 -3e-06 0.002317
-0.000385 -2e-06 0.002315
-0.000336 -1e-06 0.002312
-0.000311 -1e-06 0.002312
-0.000287 0.0 0.00231
-0.00067 0.000519 0.002936
-0.000694 0.000519 0.002929
-0.000743 0.000473 0.002835
-0.000574 0.000495 0.002957
-0.000598 0.000494 0.002952
3.4e-05 3e-06 0.002305
5.8e-05 2e-06 0.002306
8.3e-05 1e-06 0.002309
0.000107 1e-06 0.002309
0.000132 1e-06 0.00231
0.000157 2e-06 0.002307
0.000181 0.0 0.00231
0.000206 -0.0 0.002312
0.00028 0.0 0.002311
0.000305 -1e-06 0.002313
0.000329 -0.0 0.002312
0.000354 -0.0 0.002312
-0.000757 0.000491 0.002792
0.000477 -1e-06 0.002313
0.000502 -5e-06 0.002321
0.000526 -2e-06 0.002316
0.000575 -2e-06 0.002317
0.0006 -2e-06 0.002316
0.001364 0.000707 0.002662
-0.000694 0.000465 0.00293
-0.001615 0.00058 0.002311
-0.000558 1e-06 0.002249
-0.000533 1e-06 0.002251
-0.000508 1e-06 0.002249
-0.000484 2e-06 0.002247
-0.001063 0.00065 0.002346
-0.001 0.000758 0.002306
-0.000311 4e-06 0.002244
-0.000287 4e-06 0.002244
-0.000262 3e-06 0.002245
-0.000781 0.000611 0.002698
-0.000714 0.000525 0.002911
-0.000189 4e-06 0.00224
-0.000164 4e-06 0.002243
-0.000943 0.000691 0.002289
-0.000919 0.000692 0.002293
-0.001174 0.000582 0.002465
-0.000646 0.000465 0.002942
-0.000996 0.000709 0.002294
9e-06 5e-06 0.002242
3.4e-05 4e-06 0.002244
5.8e-05 3e-06 0.002245
8.3e-05 4e-06 0.002244
0.000107 5e-06 0.002242
0.000157 5e-06 0.002242
0.000181 4e-06 0.002245
0.000206 5e-06 0.002243
0.000231 4e-06 0.002245
0.00028 3e-06 0.002246
0.000304 4e-06 0.002245
0.000329 3e-06 0.002246
0.000354 4e-06 0.002245
0.000999 0.000499 0.002574
0.000452 3e-06 0.002248
0.000477 1e-06 0.002251
0.001343 0.000703 0.002676
0.000551 1e-06 0.002252
0.000575 1e-06 0.002252
-0.000715 0.00047 0.002912
-0.000632 2e-06 0.002188
-0.000607 3e-06 0.002186
-0.000582 5e-06 0.002183
-0.000556 3e-06 0.002187
-0.000533 3e-06 0.002186
-0.000508 4e-06 0.002186
-0.000622 0.000493 0.002947
-0.000646 0.00052 0.002941
-0.001622 0.000475 0.002505
-0.000769 0.000536 0.002747
-0.001102 0.000624 0.002392
-0.00067 0.000601 0.002936
-0.000311 3e-06 0.002188
-0.000287 3e-06 0.002188
-0.000262 2e-06 0.002189
-0.000237 2e-06 0.00219
-0.000769 0.000727 0.002746
-0.000188 1e-06 0.002191
-0.000164 1e-06 0.002192
-0.001574 0.000463 0.002567
-0.001026 0.000698 0.002309
-0.000744 0.0005 0.002835
-0.000781 0.000666 0.002698
-4e-05 0.0 0.002193
-1.6e-05 1e-06 0.002193
9e-06 1e-06 0.002193
3.3e-05 0.0 0.002194
5.8e-05 0.0 0.002194
8.3e-05 0.0 0.002194
0.000107 1e-06 0.002193
0.001304 0.000312 0.002714
0.000157 1e-06 0.002192
0.000181 1e-06 0.002191
0.000206 2e-06 0.00219
0.000231 2e-06 0.00219
0.000255 3e-06 0.002189
0.00028 2e-06 0.002189
0.000304 3e-06 0.002188
0.000329 3e-06 0.002188
0.000354 4e-06 0.002187
0.000378 3e-06 0.002187
0.001171 0.000661 0.002705
0.001105 0.000337 0.002659
0.000452 4e-06 0.002184
0.000494 0.000331 0.002931
0.000595 0.000516 0.002604
0.000551 4e-06 0.002186
0.000575 4e-06 0.002187
0.000587 0.000682 0.002661
0.000432 0.000345 0.002981
-0.000632 3e-06 0.002128
-0.000607 3e-06 0.00213
-0.000582 3e-06 0.00213
-0.000558 2e-06 0.002131
-0.000533 1e-06 0.002132
-0.000508 1e-06 0.002133
-0.000692 0.000659 0.002922
-0.00073 0.000648 0.002875
-0.000646 0.000629 0.002941
-0.001334 0.000649 0.002573
-0.000781 0.000556 0.0027
-0.000799 0.000605 0.002584
-0.001396 0.000624 0.002611
-0.000548 0.000663 0.002955
-0.000287 -5e-06 0.002146
-0.000262 -5e-06 0.002146
-0.000238 -5e-06 0.002147
-0.000213 -6e-06 0.002147
-0.000188 -6e-06 0.002148
-0.000573 0.00066 0.002953
-0.000667 0.000688 0.002923
-0.00069 0.00069 0.002914
-0.000663 0.000721 0.002911
-6.5e-05 -7e-06 0.002151
-4e-05 -7e-06 0.002151
-1.6e-05 -7e-06 0.002151
9e-06 -7e-06 0.002152
3.3e-05 -7e-06 0.00215
5.8e-05 -7e-06 0.002151
8.3e-05 -7e-06 0.002151
0.000107 -7e-06 0.002151
0.000132 -7e-06 0.002151
0.000157 -6e-06 0.00215
0.000181 -6e-06 0.002149
0.000206 -6e-06 0.002148
0.000231 -5e-06 0.002148
0.000255 -5e-06 0.002147
0.00028 -4e-06 0.002145
0.000304 -4e-06 0.002145
0.000329 -3e-06 0.002143
0.000354 -3e-06 0.002143
0.000378 -2e-06 0.002141
0.001138 0.000676 0.002682
0.00107 0.000653 0.002632
0.000803 0.000754 0.002368
0.000961 0.000467 0.002535
0.000654 0.000576 0.002388
0.000594 0.000489 0.002603
0.000551 2e-06 0.002132
0.000575 3e-06 0.002131
0.000575 0.000665 0.002703
0.000408 0.000347 0.002985
-0.000799 0.000578 0.002584
-0.000706 0.000729 0.002882
-0.000607 -3e-06 0.002084
-0.000582 -5e-06 0.002086
-0.000558 -6e-06 0.002088
-0.000729 0.000703 0.002872
-0.000595 0.000689 0.002943
-0.000743 0.000664 0.002834
-0.00067 0.000629 0.002934
-0.001442 0.00047 0.002635
-0.001303 0.000661 0.002554
-0.001271 0.000675 0.002531
-0.001365 0.000637 0.002591
-0.001303 0.000689 0.002554
-0.001364 0.000664 0.002592
-0.000287 -1.5e-05 0.002109
-0.000262 -1.5e-05 0.00211
-0.000238 -1.6e-05 0.002111
-0.000213 -1.6e-05 0.002112
-0.000188 -1.6e-05 0.002112
-0.000164 -1.7e-05 0.002114
-0.000139 -1.7e-05 0.002114
-0.000114 -1.8e-05 0.002116
-9e-05 -1.8e-05 0.002116
-6.5e-05 -1.8e-05 0.002116
-4e-05 -1.8e-05 0.002117
-1.6e-05 -1.8e-05 0.002117
9e-06 -1.8e-05 0.002117
3.3e-05 -1.8e-05 0.002117
5.8e-05 -1.8e-05 0.002116
8.3e-05 -1.8e-05 0.002116
0.000107 -1.7e-05 0.002115
0.000132 -1.7e-05 0.002115
0.000157 -1.7e-05 0.002114
0.000181 -1.6e-05 0.002113
0.000206 -1.6e-05 0.002112
0.000231 -1.6e-05 0.002112
0.000255 -1.5e-05 0.00211
0.00028 -1.4e-05 0.002109
0.000304 -1.4e-05 0.002108
0.000329 -1.3e-05 0.002106
0.000354 -1.2e-05 0.002104
0.000407 0.000646 0.002983
0.000432 0.000562 0.002981
0.001035 0.000671 0.002604
0.001104 0.000637 0.002658
0.000835 0.000741 0.002387
0.000522 0.000495 0.00286
0.000599 0.000518 0.002538
0.001258 0.000609 0.002733
0.001233 0.00061 0.002737
0.000575 0.000638 0.002704
0.000478 0.000401 0.002963
-0.000804 0.000649 0.002425
-0.000969 0.000688 0.002289
-0.001427 0.000476 0.002628
-0.001396 0.000488 0.00261
-0.00187 0.000692 0.001932
-0.000791 0.000551 0.002646
-0.000757 0.000572 0.002791
-0.000729 0.000485 0.002874
-0.000792 0.000605 0.002648
-0.001595 0.000463 0.002554
-0.000802 0.000639 0.002508
-0.000997 0.000736 0.002295
-0.001026 0.000726 0.002309
-0.001175 0.000636 0.002465
-0.001334 0.000676 0.002573
-0.000287 -2.6e-05 0.002078
-0.000262 -2.8e-05 0.002078
-0.000238 -2.8e-05 0.00208
-0.000213 -2.9e-05 0.002081
-0.000188 -3e-05 0.002083
-0.000164 -3e-05 0.002083
-0.000139 -3e-05 0.002084
-0.000114 -3.1e-05 0.002085
-9e-05 -3.1e-05 0.002085
-6.5e-05 -3.1e-05 0.002086
-4e-05 -3.1e-05 0.002086
-1.6e-05 -3.1e-05 0.002085
9e-06 -3.1e-05 0.002085
3.3e-05 -3.1e-05 0.002085
5.8e-05 -3.1e-05 0.002085
8.3e-05 -3.1e-05 0.002085
0.000107 -3e-05 0.002084
0.000132 -3e-05 0.002084
0.000157 -3e-05 0.002083
0.000181 -2.9e-05 0.002082
0.000206 -2.9e-05 0.002081
0.000231 -2.8e-05 0.00208
0.000255 -2.8e-05 0.002079
0.00028 -2.7e-05 0.002077
0.000304 -2.6e-05 0.002075
0.000329 -2.5e-05 0.002073
0.000774 0.00068 0.00236
0.00107 0.000517 0.002633
0.000803 0.000673 0.002368
0.000676 0.000687 0.002376
0.000603 0.000655 0.002471
0.000562 0.000541 0.002743
0.000508 0.000481 0.002895
0.001 0.000389 0.002575
0.000654 0.000522 0.002388
0.001281 0.00031 0.002725
0.001172 0.000334 0.002706
0.000876 0.000497 0.002434
-0.000715 0.000416 0.002912
-0.000694 0.00041 0.00293
-0.00067 0.00041 0.002936
-0.000646 0.000411 0.002942
-0.000622 0.000412 0.002947
-0.000598 0.000413 0.002952
-0.000574 0.000414 0.002957
-0.000549 0.000415 0.002962
-0.001825 0.000714 0.001907
-0.00179 0.000753 0.001898
-0.001396 0.000434 0.002611
-0.001365 0.000446 0.002592
-0.001334 0.000459 0.002573
-0.001303 0.000471 0.002553
-0.001271 0.000486 0.002531
-0.001239 0.000499 0.00251
-0.001207 0.000513 0.002488
-0.001174 0.000528 0.002464
-0.001139 0.000547 0.002432
-0.001101 0.000571 0.002389
-0.001062 0.000596 0.002344
-0.001026 0.000617 0.002309
-0.000996 0.000628 0.002293
-0.000969 0.000634 0.002288
-0.000943 0.000637 0.002288
-0.000919 0.000638 0.002293
-0.000896 0.000637 0.002301
-0.001488 0.000628 0.002616
-0.001553 0.000599 0.00258
-0.001623 0.000656 0.002461
-0.000813 0.000615 0.002374
-0.000803 0.000594 0.002425
-0.000802 0.000557 0.002509
-0.000791 0.000497 0.002646
-0.000781 0.000474 0.0027
-0.000769 0.000455 0.002747
-0.000756 0.000437 0.002791
-0.000743 0.000419 0.002834
-0.000729 0.000403 0.002874
-0.000714 0.000388 0.002911
-0.000694 0.000383 0.002929
-0.00067 0.000383 0.002936
-0.000646 0.000384 0.002942
-0.000622 0.000385 0.002947
-0.000598 0.000386 0.002952
-0.000574 0.000387 0.002957
-0.000549 0.000388 0.002962
-0.001489 0.000465 0.002618
-0.001774 0.000749 0.001919
-0.001395 0.000407 0.002611
-0.001365 0.000419 0.002592
-0.001334 0.000432 0.002572
-0.001303 0.000444 0.002553
-0.001271 0.000458 0.002532
-0.001239 0.000472 0.00251
-0.001207 0.000486 0.002488
-0.001174 0.000501 0.002464
-0.001139 0.000521 0.00243
-0.001101 0.000544 0.002388
-0.001063 0.000568 0.002347
-0.001026 0.00059 0.002309
-0.000996 0.000601 0.002293
-0.000969 0.000607 0.002288
-0.000943 0.00061 0.002288
-0.000919 0.000611 0.002293
-0.000896 0.00061 0.002301
-0.001464 0.000659 0.002623
-0.001402 0.000677 0.002615
-0.000831 0.000599 0.002344
-0.000813 0.000588 0.002374
-0.000803 0.000567 0.002424
-0.000802 0.000529 0.002509
-0.000792 0.000468 0.00265
-0.000781 0.000447 0.002699
-0.000769 0.000428 0.002747
-0.000756 0.000409 0.002792
-0.000743 0.000392 0.002834
-0.000729 0.000376 0.002875
-0.000715 0.000361 0.002912
-0.000694 0.000356 0.00293
-0.00067 0.000356 0.002936
-0.000646 0.000357 0.002942
-0.000622 0.000358 0.002947
-0.000598 0.000359 0.002952
-0.000574 0.00036 0.002957
-0.001704 0.000736 0.001858
-0.001622 0.000593 0.002413
-0.001395 0.00038 0.002611
-0.001365 0.000392 0.002592
-0.001334 0.000404 0.002572
-0.001303 0.000417 0.002552
-0.001271 0.000431 0.002531
-0.001239 0.000445 0.00251
-0.001207 0.000458 0.002489
-0.001174 0.000474 0.002464
-0.001139 0.000492 0.002432
-0.001101 0.000518 0.002388
-0.001063 0.000541 0.002346
-0.001026 0.000563 0.002308
-0.000996 0.000573 0.002293
-0.000969 0.000579 0.002288
-0.000943 0.000583 0.002288
-0.000919 0.000584 0.002293
-0.000896 0.000583 0.002301
-0.000873 0.000582 0.00231
-0.000851 0.000578 0.002324
-0.000831 0.000572 0.002345
-0.000813 0.000561 0.002373
-0.000803 0.00054 0.002424
-0.000781 0.00042 0.002699
-0.000769 0.0004 0.002747
-0.000757 0.000382 0.002792
-0.000743 0.000365 0.002834
-0.000729 0.000348 0.002875
-0.000715 0.000334 0.002912
-0.000694 0.000329 0.00293
-0.00067 0.000329 0.002937
-0.000646 0.000329 0.002942
-0.000622 0.00033 0.002947
-0.000598 0.000331 0.002952
-0.000574 0.000332 0.002957
-0.001824 0.000687 0.001906
-0.001619 0.000613 0.002364
-0.001395 0.000352 0.002611
-0.001365 0.000364 0.002592
-0.001334 0.000377 0.002572
-0.001302 0.00039 0.002552
-0.001271 0.000404 0.002531
-0.001239 0.000417 0.00251
-0.001207 0.000431 0.00249
-0.001174 0.000447 0.002464
-0.001139 0.000465 0.002433
-0.001062 0.000515 0.002344
-0.001026 0.000535 0.002308
-0.000996 0.000546 0.002294
-0.000969 0.000552 0.002288
-0.000943 0.000556 0.002288
-0.000919 0.000557 0.002293
-0.000895 0.000556 0.0023
-0.000873 0.000555 0.00231
-0.000851 0.000551 0.002325
-0.00083 0.000544 0.002344
-0.000813 0.000534 0.002373
-0.000803 0.000513 0.002425
-0.000803 0.000474 0.002511
-0.000781 0.000393 0.002698
-0.000769 0.000373 0.002747
-0.000757 0.000355 0.002792
-0.000743 0.000338 0.002834
-0.000729 0.000321 0.002875
-0.000715 0.000307 0.002912
-0.000694 0.000301 0.00293
-0.00067 0.000302 0.002937
-0.000646 0.000302 0.002942
-0.000622 0.000303 0.002947
-0.000598 0.000304 0.002952
-0.000574 0.000305 0.002957
-0.001779 0.000708 0.001881
-0.001613 0.000547 0.002537
-0.001396 0.000325 0.002612
-0.001365 0.000337 0.002591
-0.001334 0.00035 0.002572
-0.001302 0.000363 0.002552
-0.001271 0.000377 0.002531
-0.001239 0.00039 0.00251
-0.001207 0.000404 0.002489
-0.001174 0.000419 0.002464
-0.001139 0.000438 0.002432
-0.0011 0.000464 0.002387
-0.001062 0.000488 0.002344
-0.001026 0.000508 0.002308
-0.000996 0.000519 0.002293
-0.000969 0.000525 0.002288
-0.000943 0.000529 0.002288
-0.000919 0.00053 0.002292
-0.000895 0.000529 0.0023
-0.001622 0.000728 0.002414
-0.001549 0.000684 0.002573
-0.001608 0.000741 0.002253
-0.001946 0.000717 0.00196
-0.000803 0.000486 0.002423
-0.000791 0.000389 0.002645
-0.00078 0.000367 0.002698
-0.000769 0.000346 0.002747
-0.000756 0.000328 0.002792
-0.000743 0.00031 0.002835
-0.000729 0.000294 0.002875
-0.000714 0.00028 0.002912
-0.000694 0.000274 0.00293
-0.00067 0.000274 0.002937
-0.000646 0.000275 0.002942
-0.000622 0.000276 0.002948
-0.000598 0.000277 0.002953
-0.000574 0.000278 0.002958
-0.00151 0.000464 0.002605
-0.00151 0.000546 0.002604
-0.001395 0.000298 0.002611
-0.001365 0.00031 0.002592
-0.001334 0.000323 0.002572
-0.001302 0.000336 0.002552
-0.001271 0.00035 0.002531
-0.001239 0.000363 0.00251
-0.001207 0.000377 0.002489
-0.001174 0.000392 0.002464
-0.001139 0.000411 0.002432
-0.001101 0.000435 0.002389
-0.001062 0.00046 0.002344
-0.001026 0.000481 0.002309
-0.000996 0.000492 0.002294
-0.000969 0.000498 0.002288
-0.000943 0.000501 0.002288
-0.000919 0.000503 0.002292
-0.000895 0.000502 0.0023
-0.001572 0.000655 0.002564
-0.001608 0.000714 0.002254
-0.001403 0.000595 0.002616
-0.002349 0.000579 0.001864
-0.000798 0.000388 0.002583
-0.00079 0.000362 0.002644
-0.000781 0.000339 0.002699
-0.000769 0.000319 0.002746
-0.000756 0.000301 0.002792
-0.000743 0.000283 0.002835
-0.000729 0.000267 0.002875
-0.000714 0.000252 0.002912
-0.000694 0.000247 0.002929
-0.00067 0.000247 0.002937
-0.000646 0.000248 0.002942
-0.000622 0.000249 0.002947
-0.000598 0.00025 0.002953
-0.000574 0.000251 0.002958
-0.00151 0.000491 0.002605
-0.001489 0.000547 0.002617
-0.001395 0.000271 0.002611
-0.001364 0.000283 0.002593
-0.001334 0.000296 0.002572
-0.001302 0.000309 0.002552
-0.00127 0.000323 0.002531
-0.001239 0.000336 0.00251
-0.001207 0.00035 0.002489
-0.001174 0.000365 0.002465
-0.001139 0.000384 0.002433
-0.001101 0.000408 0.00239
-0.001062 0.000434 0.002343
-0.001026 0.000454 0.002308
-0.000996 0.000464 0.002294
-0.000969 0.000471 0.002288
-0.000943 0.000474 0.002288
-0.000919 0.000475 0.002292
-0.000895 0.000475 0.0023
-0.001591 0.000656 0.002549
-0.001623 0.000628 0.002461
-0.001553 0.000572 0.00258
-0.00151 0.000519 0.002605
-0.000791 0.000334 0.002647
-0.00078 0.000312 0.002698
-0.000769 0.000292 0.002747
-0.000756 0.000273 0.002792
-0.000743 0.000256 0.002835
-0.000729 0.000239 0.002876
-0.000714 0.000225 0.002912
-0.000694 0.00022 0.002929
-0.00067 0.00022 0.002937
-0.000646 0.000221 0.002942
-0.000622 0.000221 0.002948
-0.000598 0.000222 0.002953
-0.000574 0.000223 0.002958
-0.001467 0.000466 0.002629
-0.001467 0.000547 0.002629
-0.001394 0.000244 0.002612
-0.001364 0.000256 0.002593
-0.001333 0.000269 0.002572
-0.001302 0.000282 0.002552
-0.00127 0.000295 0.002531
-0.001239 0.000309 0.002509
-0.001207 0.000322 0.002489
-0.001174 0.000337 0.002465
-0.001139 0.000357 0.002432
-0.001101 0.000381 0.002389
-0.001062 0.000406 0.002344
-0.001026 0.000427 0.002308
-0.000996 0.000437 0.002294
-0.000969 0.000444 0.002288
-0.000943 0.000447 0.002288
-0.000919 0.000448 0.002292
-0.000895 0.000448 0.0023
-0.00205 0.000735 0.001986
-0.001622 0.000611 0.002505
-0.001621 0.000621 0.002413
-0.001982 0.000649 0.001971
-0.000791 0.000307 0.002647
-0.00078 0.000285 0.002698
-0.000769 0.000264 0.002747
-0.000757 0.000246 0.002793
-0.000743 0.000229 0.002835
-0.000729 0.000212 0.002875
-0.000714 0.000198 0.002912
-0.000693 0.000194 0.002928
-0.00067 0.000193 0.002936
-0.000646 0.000194 0.002942
-0.000622 0.000194 0.002947
-0.000598 0.000195 0.002952
-0.000574 0.000197 0.002957
-0.000549 0.000198 0.002961
-0.001613 0.000465 0.002538
-0.001442 0.000551 0.002635
-0.001394 0.000217 0.002612
-0.001364 0.000229 0.002592
-0.001333 0.000242 0.002572
-0.001302 0.000255 0.002551
-0.001271 0.000268 0.002531
-0.001238 0.000282 0.002509
-0.001207 0.000295 0.002489
-0.001174 0.00031 0.002465
-0.001139 0.000329 0.002433
-0.001101 0.000353 0.002391
-0.001026 0.0004 0.002308
-0.000996 0.00041 0.002294
-0.000969 0.000416 0.002288
-0.000943 0.00042 0.002288
-0.000919 0.000421 0.002292
-0.000895 0.000421 0.0023
-0.001531 0.000655 0.002591
-0.002018 0.000717 0.001981
-0.00151 0.000573 0.002605
-0.001736 0.000728 0.001859
-0.000798 0.000307 0.002584
-0.000791 0.000279 0.002646
-0.00078 0.000258 0.002698
-0.000769 0.000237 0.002747
-0.000756 0.000219 0.002792
-0.000743 0.000201 0.002836
-0.000729 0.000185 0.002875
-0.000714 0.000172 0.00291
-0.000693 0.000167 0.002926
-0.00067 0.000166 0.002935
-0.000646 0.000167 0.002941
-0.000622 0.000167 0.002947
-0.000598 0.000168 0.002952
-0.000573 0.00017 0.002957
-0.000549 0.000171 0.00296
-0.002309 0.000713 0.001206
-0.001403 0.000568 0.002616
-0.001394 0.000189 0.002612
-0.001364 0.000202 0.002591
-0.001333 0.000214 0.002572
-0.001302 0.000228 0.002551
-0.001271 0.00024 0.002532
-0.001239 0.000254 0.00251
-0.001207 0.000268 0.002488
-0.001174 0.000283 0.002466
-0.001139 0.000302 0.002432
-0.001101 0.000326 0.00239
-0.001062 0.000351 0.002345
-0.001026 0.000372 0.002308
-0.000996 0.000383 0.002293
-0.000968 0.000389 0.002288
-0.000943 0.000393 0.002288
-0.000919 0.000394 0.002292
-0.000895 0.000393 0.0023
-0.001437 0.000664 0.002627
-0.001946 0.000744 0.00196
-0.001441 0.000579 0.002634
-0.00234 0.000622 0.001823
-0.000803 0.000311 0.002511
-0.000798 0.00028 0.002582
-0.000791 0.000252 0.002647
-0.000781 0.00023 0.002699
-0.000769 0.00021 0.002748
-0.000757 0.000191 0.002793
-0.000744 0.000174 0.002836
-0.000729 0.000158 0.002875
-0.000713 0.000145 0.002908
-0.000692 0.000141 0.002924
-0.000669 0.00014 0.002933
-0.000645 0.00014 0.00294
-0.000621 0.000141 0.002945
-0.000597 0.000142 0.00295
-0.000573 0.000143 0.002955
-0.000548 0.000145 0.002957
-0.00187 0.000638 0.001932
-0.001531 0.000546 0.002592
-0.001394 0.000163 0.002611
-0.001364 0.000175 0.002592
-0.001333 0.000188 0.002572
-0.001302 0.0002 0.002551
-0.001271 0.000214 0.002531
-0.001239 0.000227 0.00251
-0.001207 0.000241 0.002488
-0.001174 0.000256 0.002465
-0.001139 0.000275 0.002432
-0.0011 0.0003 0.002388
-0.001062 0.000324 0.002345
-0.001026 0.000345 0.002308
-0.000996 0.000356 0.002293
-0.000968 0.000362 0.002288
-0.000943 0.000366 0.002288
-0.000919 0.000367 0.002292
-0.000895 0.000366 0.0023
-0.001487 0.000657 0.002614
-0.00144 0.000635 0.002631
-0.001594 0.000572 0.002554
-0.001608 0.000631 0.002255
-0.000803 0.000284 0.002511
-0.000798 0.000253 0.002583
-0.000791 0.000225 0.002646
-0.00078 0.000203 0.002698
-0.000769 0.000183 0.002747
-0.000756 0.000164 0.002793
-0.000743 0.000147 0.002835
-0.000729 0.000131 0.002875
-0.000712 0.00012 0.002905
-0.000691 0.000117 0.002918
-0.000668 0.000116 0.002928
-0.000644 0.000115 0.002936
-0.00062 0.000115 0.002942
-0.000596 0.000116 0.002947
-0.000572 0.000118 0.002951
-0.000547 0.00012 0.002953
-0.001623 0.000492 0.002462
-0.001553 0.000545 0.00258
-0.001394 0.000136 0.00261
-0.001364 0.000148 0.002592
-0.001333 0.00016 0.002572
-0.001302 0.000174 0.002551
-0.00127 0.000187 0.002531
-0.001239 0.0002 0.00251
-0.001206 0.000214 0.002488
-0.001174 0.000229 0.002465
-0.001138 0.000249 0.00243
-0.0011 0.000273 0.002388
-0.001062 0.000297 0.002344
-0.001026 0.000318 0.002308
-0.000996 0.000329 0.002293
-0.000968 0.000335 0.002288
-0.000943 0.000339 0.002288
-0.000919 0.00034 0.002292
-0.000895 0.000339 0.0023
-0.001509 0.000655 0.002603
-0.001621 0.000648 0.002412
-0.001613 0.000574 0.002536
-0.001553 0.000491 0.00258
-0.000802 0.000258 0.002508
-0.000798 0.000226 0.002581
-0.000781 0.000176 0.002699
-0.000769 0.000156 0.002747
-0.000756 0.000137 0.002793
-0.000743 0.000119 0.002836
-0.000729 0.000104 0.002874
-0.000711 9.5e-05 0.002899
-0.000688 9.3e-05 0.002911
-0.000666 9.2e-05 0.002921
-0.000642 9.1e-05 0.002929
-0.000619 9.1e-05 0.002935
-0.000594 9.2e-05 0.002941
-0.00057 9.4e-05 0.002944
-0.000545 9.6e-05 0.002947
-0.001623 0.000753 0.001866
-0.001595 0.000545 0.002554
-0.001394 0.000109 0.002609
-0.001364 0.00012 0.002591
-0.001333 0.000133 0.002571
-0.001302 0.000147 0.00255
-0.00127 0.000159 0.002531
-0.001238 0.000173 0.002509
-0.001206 0.000187 0.002487
-0.001174 0.000201 0.002466
-0.001138 0.000222 0.00243
-0.001101 0.000245 0.00239
-0.001061 0.000271 0.002342
-0.001026 0.000291 0.002307
-0.000996 0.000301 0.002294
-0.000969 0.000308 0.002288
-0.000943 0.000311 0.002288
-0.000919 0.000312 0.002292
-0.000895 0.000312 0.0023
-0.001459 0.000691 0.002615
-0.001403 0.000649 0.002617
-0.001574 0.000572 0.002567
-0.001467 0.00052 0.002629
-0.000801 0.000232 0.002506
-0.000798 0.000199 0.002582
-0.000791 0.00017 0.002648
-0.000781 0.000148 0.0027
-0.000769 0.000128 0.002748
-0.000757 0.00011 0.002793
-0.000743 9.3e-05 0.002835
-0.000728 7.9e-05 0.002871
-0.000708 7.3e-05 0.002891
-0.000686 7e-05 0.002902
-0.000663 7e-05 0.002911
-0.000639 6.9e-05 0.002918
-0.000615 6.9e-05 0.002925
-0.000591 7e-05 0.00293
-0.000567 7.2e-05 0.002934
-0.000542 7.4e-05 0.002937
-0.001981 0.000595 0.001972
-0.001827 0.000739 0.00191
-0.001394 8.2e-05 0.002607
-0.001364 9.3e-05 0.002591
-0.001333 0.000106 0.00257
-0.001301 0.00012 0.00255
-0.001271 0.000132 0.002532
-0.001238 0.000146 0.002509
-0.001206 0.00016 0.002487
-0.001174 0.000174 0.002466
-0.001138 0.000194 0.002431
-0.0011 0.000218 0.002388
-0.001062 0.000243 0.002345
-0.001026 0.000264 0.002308
-0.000996 0.000274 0.002294
-0.000968 0.000281 0.002288
-0.000943 0.000284 0.002288
-0.000919 0.000285 0.002292
-0.000895 0.000285 0.0023
-0.001552 0.000655 0.002578
-0.001619 0.000667 0.002364
-0.001531 0.000573 0.002592
-0.001489 0.000519 0.002617
-0.000802 0.000204 0.002509
-0.000798 0.000171 0.002584
-0.000791 0.000143 0.002648
-0.000781 0.000121 0.002701
-0.000769 0.000101 0.002748
-0.000757 8.2e-05 0.002793
-0.000743 6.6e-05 0.002834
-0.000725 5.6e-05 0.002862
-0.000704 5.1e-05 0.002878
-0.000682 5e-05 0.002889
-0.000659 4.9e-05 0.002897
-0.000635 4.9e-05 0.002905
-0.000611 4.9e-05 0.002911
-0.000587 5e-05 0.002916
-0.000563 5.1e-05 0.002921
-0.000538 5.3e-05 0.002924
-0.001946 0.000662 0.00196
-0.001623 0.000574 0.002461
-0.001393 5.7e-05 0.002601
-0.001364 6.7e-05 0.002588
-0.001333 7.9e-05 0.002571
-0.001301 9.3e-05 0.00255
-0.00127 0.000105 0.002531
-0.001239 0.000119 0.00251
-0.001206 0.000133 0.002487
-0.001174 0.000148 0.002464
-0.001139 0.000166 0.002432
-0.001101 0.000191 0.002389
-0.001062 0.000216 0.002344
-0.001026 0.000237 0.002307
-0.000996 0.000247 0.002293
-0.000968 0.000253 0.002288
-0.000943 0.000257 0.002288
-0.000919 0.000258 0.002292
-0.000895 0.000257 0.0023
-0.001609 0.000659 0.00253
-0.001982 0.00073 0.001971
-0.001623 0.000601 0.00246
-0.001595 0.000681 0.002219
-0.000799 0.000143 0.002585
-0.000791 0.000116 0.002647
-0.000781 9.3e-05 0.002701
-0.000769 7.4e-05 0.002747
-0.000756 5.6e-05 0.002792
-0.000741 4.3e-05 0.002826
-0.000721 3.6e-05 0.002848
-0.000699 3.2e-05 0.002861
-0.000677 3.1e-05 0.002871
-0.000653 3e-05 0.00288
-0.00063 3e-05 0.002887
-0.000606 3e-05 0.002893
-0.000582 3.1e-05 0.002899
-0.000558 3.2e-05 0.002903
-0.000533 3.4e-05 0.002906
-0.00234 0.000602 0.001888
-0.001574 0.000545 0.002567
-0.001389 3.7e-05 0.002588
-0.001362 4.3e-05 0.002583
-0.001333 5.3e-05 0.002569
-0.001302 6.5e-05 0.00255
-0.00127 7.8e-05 0.00253
-0.001238 9.2e-05 0.002509
-0.001206 0.000106 0.002487
-0.001174 0.00012 0.002465
-0.001139 0.00014 0.002431
-0.0011 0.000164 0.002388
-0.001062 0.000188 0.002345
-0.001025 0.00021 0.002307
-0.000996 0.00022 0.002293
-0.000968 0.000226 0.002287
-0.000943 0.00023 0.002288
-0.000918 0.000231 0.002292
-0.000895 0.00023 0.0023
-0.001483 0.000688 0.002608
-0.001553 0.000626 0.00258
-0.001982 0.000703 0.001971
-0.001489 0.000492 0.002617
-0.000339 -2.7e-05 0.002067
-0.000799 0.000115 0.002585
-0.000791 8.9e-05 0.002647
-0.000781 6.6e-05 0.002701
-0.000768 4.8e-05 0.002745
-0.000754 3.2e-05 0.002785
-0.000736 2.4e-05 0.002809
-0.000715 1.9e-05 0.002825
-0.000692 1.7e-05 0.002837
-0.000669 1.6e-05 0.002846
-0.000646 1.6e-05 0.002854
-0.000622 1.5e-05 0.002861
-0.000599 1.6e-05 0.002868
-0.000575 1.6e-05 0.002873
-0.00055 1.7e-05 0.002878
-0.000526 1.9e-05 0.002883
-0.000501 2.1e-05 0.002885
-0.000814 0.000753 0.002383
-0.0021 0.000515 0.002006
-0.001384 2e-05 0.002567
-0.001358 2.3e-05 0.002567
-0.00133 2.9e-05 0.002562
-0.0013 3.9e-05 0.002548
-0.00127 5.1e-05 0.00253
-0.001238 6.5e-05 0.002508
-0.001206 7.9e-05 0.002487
-0.001174 9.2e-05 0.002466
-0.001138 0.000113 0.002431
-0.0011 0.000137 0.002387
-0.001062 0.000162 0.002344
-0.001026 0.000183 0.002307
-0.000996 0.000193 0.002293
-0.000968 0.0002 0.002287
-0.000943 0.000203 0.002287
-0.000918 0.000204 0.002292
-0.000895 0.000203 0.0023
-0.00162 0.000721 0.002364
-0.001592 0.000742 0.00219
-0.001489 0.000574 0.002617
-0.001467 0.000493 0.002629
-0.000799 8.8e-05 0.002585
-0.000792 6.1e-05 0.002649
-0.00078 4e-05 0.002699
-0.000766 2.5e-05 0.002736
-0.000748 1.5e-05 0.002764
-0.000727 1.1e-05 0.00278
-0.000705 9e-06 0.002791
-0.000681 8e-06 0.0028
-0.000658 8e-06 0.002807
-0.000634 8e-06 0.002813
-0.00061 8e-06 0.00282
-0.000586 9e-06 0.002825
-0.000563 9e-06 0.002833
-0.000539 9e-06 0.002839
-0.000515 1e-05 0.002845
-0.000491 1.1e-05 0.002851
-0.001701 0.000712 0.00185
-0.001397 9e-06 0.002527
-0.001374 9e-06 0.002534
-0.00135 1e-05 0.002539
-0.001324 1.3e-05 0.002539
-0.002095 0.000738 0.001384
-0.001268 2.6e-05 0.002526
-0.001238 3.8e-05 0.002508
-0.001206 5.1e-05 0.002487
-0.001174 6.6e-05 0.002465
-0.001138 8.6e-05 0.002431
-0.0011 0.000111 0.002386
-0.001062 0.000135 0.002344
-0.001025 0.000156 0.002307
-0.000995 0.000166 0.002292
-0.000968 0.000172 0.002287
-0.000943 0.000176 0.002287
-0.000918 0.000177 0.002292
-0.000895 0.000176 0.0023
-0.001623 0.000683 0.00246
-0.001614 0.00069 0.00231
-0.001619 0.00064 0.002364
-0.001442 0.000497 0.002634
-0.000798 6.2e-05 0.002583
-0.000791 3.5e-05 0.002646
-0.000777 1.9e-05 0.002686
-0.000758 1.1e-05 0.00271
-0.000735 9e-06 0.002721
-0.000712 8e-06 0.002729
-0.000666 6e-06 0.002748
-0.000642 8e-06 0.002751
-0.000618 8e-06 0.002757
-0.000594 8e-06 0.002764
-0.00057 9e-06 0.002769
-0.000547 9e-06 0.002777
-0.000523 8e-06 0.002786
-0.0005 8e-06 0.002792
-0.001406 7e-06 0.002468
-0.001382 7e-06 0.002473
-0.001358 8e-06 0.002479
-0.001334 8e-06 0.002486
-0.001595 0.00049 0.002554
-0.001262 1.1e-05 0.002502
-0.001235 1.6e-05 0.002497
-0.001205 2.6e-05 0.002484
-0.001174 3.9e-05 0.002465
-0.001138 5.9e-05 0.002429
-0.0011 8.3e-05 0.002386
-0.001061 0.000108 0.002342
-0.001025 0.000129 0.002307
-0.000996 0.000139 0.002293
-0.000968 0.000145 0.002287
-0.000943 0.000148 0.002287
-0.000918 0.00015 0.002292
-0.000895 0.000149 0.0023
-0.001622 0.000702 0.002413
-0.00205 0.000707 0.001991
-0.001622 0.000584 0.002506
-0.001532 0.000464 0.002593
-0.000786 1.5e-05 0.002631
-0.000767 7e-06 0.002654
-0.000745 5e-06 0.002666
-0.000721 5e-06 0.002673
-0.000698 5e-06 0.002679
-0.000579 6e-06 0.002712
-0.000555 6e-06 0.002719
-0.000531 6e-06 0.002725
-0.000508 7e-06 0.002731
-0.001946 0.000608 0.001959
-0.001366 7e-06 0.002419
-0.001343 6e-06 0.002427
-0.001319 5e-06 0.002435
-0.001296 5e-06 0.002444
-0.001273 4e-06 0.002451
-0.001249 5e-06 0.002459
-0.001225 6e-06 0.002463
-0.001199 9e-06 0.002463
-0.001171 1.6e-05 0.002455
-0.001139 3.1e-05 0.002432
-0.0011 5.6e-05 0.002387
-0.001061 8.1e-05 0.002342
-0.001025 0.000102 0.002305
-0.000995 0.000112 0.002292
-0.000968 0.000118 0.002287
-0.000943 0.000121 0.002288
-0.000918 0.000122 0.002292
-0.000895 0.000122 0.0023
-0.001569 0.000685 0.002559
-0.001621 0.000675 0.002412
-0.002051 0.00068 0.001986
-0.001854 0.000742 0.001953
-0.001874 0.000743 0.001938
-0.000795 1.3e-05 0.002573
-0.000775 6e-06 0.002594
-0.000729 5e-06 0.00261
-0.000705 5e-06 0.002616
-0.000363 -2.8e-05 0.002062
-0.000374 5e-06 0.002715
-0.000351 5e-06 0.002721
-0.000324 1e-05 0.002718
-0.001375 3e-06 0.002363
-0.001351 4e-06 0.002368
-0.001327 4e-06 0.002375
-0.001304 4e-06 0.002381
-0.00128 4e-06 0.002389
-0.001256 6e-06 0.002393
-0.001232 6e-06 0.002399
-0.001208 6e-06 0.002406
-0.001184 7e-06 0.002412
-0.001161 7e-06 0.002419
-0.001134 1.2e-05 0.002415
-0.0011 2.8e-05 0.002388
-0.001061 5.4e-05 0.002342
-0.001024 7.6e-05 0.002304
-0.000995 8.5e-05 0.002292
-0.000968 9.1e-05 0.002287
-0.000942 9.4e-05 0.002287
-0.000918 9.5e-05 0.002292
-0.000895 9.5e-05 0.0023
-0.001528 0.000685 0.002586
-0.001573 0.000627 0.002566
-0.001403 0.000623 0.002616
-0.001574 0.00049 0.002567
-0.00191 0.000729 0.001953
-0.000783 5e-06 0.002532
-0.000759 6e-06 0.002537
-0.000735 7e-06 0.002543
-0.000711 7e-06 0.002549
-0.000688 6e-06 0.002558
-0.000387 -2.9e-05 0.002056
-0.000545 8e-06 0.002597
-0.000475 6e-06 0.002619
-0.000451 7e-06 0.002625
-0.000427 7e-06 0.002632
-0.000404 7e-06 0.002639
-0.00038 7e-06 0.002646
-0.000357 6e-06 0.002655
-0.000333 7e-06 0.002661
-0.000309 8e-06 0.002666
-0.000282 1.3e-05 0.002662
-0.001356 7e-06 0.002299
-0.001334 6e-06 0.002308
-0.00131 7e-06 0.002314
-0.001286 7e-06 0.00232
-0.001262 7e-06 0.002328
-0.001239 6e-06 0.002336
-0.001216 6e-06 0.002344
-0.001192 5e-06 0.002352
-0.001169 5e-06 0.00236
-0.001145 4e-06 0.002367
-0.001122 4e-06 0.002374
-0.001096 9e-06 0.002372
-0.001025 4.8e-05 0.002304
-0.000995 5.8e-05 0.002292
-0.000968 6.4e-05 0.002287
-0.000942 6.7e-05 0.002287
-0.000918 6.8e-05 0.002291
-0.001506 0.000686 0.002597
-0.001465 0.00063 0.002626
-0.001532 0.000627 0.002593
-0.00151 0.000627 0.002605
-0.001532 0.000491 0.002593
-0.000411 -2.9e-05 0.002049
-0.000746 0.0 0.002494
-0.000723 0.0 0.002501
-0.000699 1e-06 0.002507
-0.000675 0.0 0.002514
-0.000533 1e-06 0.002555
-0.000509 1e-06 0.002562
-0.000461 3e-06 0.002573
-0.000438 3e-06 0.002579
-0.000414 3e-06 0.002586
-0.000391 2e-06 0.002594
-0.000366 3e-06 0.002599
-0.000318 3e-06 0.00261
-0.000295 4e-06 0.002617
-0.00027 7e-06 0.002619
-0.001343 3e-06 0.002252
-0.00132 2e-06 0.002261
-0.001296 1e-06 0.002269
-0.001273 1e-06 0.002276
-0.00125 1e-06 0.002285
-0.001226 1e-06 0.002292
-0.001532 0.0006 0.002592
-0.001911 0.000675 0.00195
-0.002323 0.000643 0.001776
-0.001131 2e-06 0.002317
-0.001107 2e-06 0.002323
-0.001083 2e-06 0.002329
-0.001057 7e-06 0.002327
-0.001025 2e-05 0.002307
-0.000995 3.1e-05 0.002291
-0.000967 3.7e-05 0.002286
-0.000942 4e-05 0.002287
-0.000918 4.1e-05 0.002291
-0.001605 0.00069 0.002524
-0.002017 0.000746 0.001978
-0.00151 0.0006 0.002605
-0.001489 0.000601 0.002617
-0.001404 0.000541 0.002615
-0.000752 2e-06 0.002426
-0.000728 3e-06 0.002432
-0.000704 3e-06 0.002438
-0.00068 4e-06 0.002444
-0.000656 4e-06 0.00245
-0.000633 4e-06 0.002458
-0.000609 4e-06 0.002465
-0.000445 3e-06 0.002516
-0.000421 2e-06 0.002524
-0.000398 2e-06 0.002531
-0.00028 2e-06 0.002567
-0.000255 3e-06 0.00257
-0.000435 -3e-05 0.002044
-0.001327 1e-06 0.002199
-0.001303 2e-06 0.002204
-0.001279 3e-06 0.00221
-0.001256 3e-06 0.002217
-0.001231 3e-06 0.002222
-0.001615 0.000716 0.002311
-0.001946 0.000689 0.00196
-0.00178 0.000735 0.001882
-0.001671 0.00072 0.001851
-0.001089 5e-06 0.002261
-0.001065 5e-06 0.002267
-0.001041 6e-06 0.002274
-0.001018 5e-06 0.002281
-0.000993 8e-06 0.002283
-0.000967 1.2e-05 0.002282
-0.000941 1.4e-05 0.002283
-0.000917 1.6e-05 0.002288
-0.001622 0.000639 0.002505
-0.001614 0.000662 0.00231
-0.001622 0.000539 0.002413
-0.001442 0.000524 0.002635
-0.000781 6e-06 0.002349
-0.000757 6e-06 0.002356
-0.000734 6e-06 0.002363
-0.00071 6e-06 0.002369
-0.000686 6e-06 0.002376
-0.000662 7e-06 0.002382
-0.000639 6e-06 0.002391
-0.000615 7e-06 0.002396
-0.000592 6e-06 0.002404
-0.000568 6e-06 0.002411
-0.000459 -3e-05 0.002038
-0.000262 5e-06 0.002505
-0.000238 4e-06 0.002512
-0.00131 4e-06 0.002139
-0.001285 5e-06 0.002142
-0.001261 6e-06 0.002147
-0.001237 6e-06 0.002154
-0.001214 6e-06 0.002162
-0.001192 4e-06 0.002173
-0.001168 4e-06 0.002179
-0.001475 0.000722 0.002595
-0.001623 0.000502 0.002506
-0.001645 0.000725 0.001855
-0.001619 0.000749 0.002363
-0.001048 6e-06 0.002211
-0.001025 5e-06 0.002219
-0.001002 5e-06 0.002226
-0.000978 4e-06 0.002234
-0.000955 3e-06 0.002242
-0.000932 3e-06 0.00225
-0.000908 3e-06 0.002257
-0.001611 0.00063 0.002534
-0.002018 0.000663 0.00198
-0.001623 0.000519 0.002461
-0.000483 -3e-05 0.002031
-0.000767 2e-06 0.0023
-0.000743 2e-06 0.002308
-0.000719 2e-06 0.002314
-0.000696 2e-06 0.002321
-0.000672 3e-06 0.002328
-0.000649 2e-06 0.002335
-0.000625 2e-06 0.002342
-0.000601 2e-06 0.002349
-0.000578 2e-06 0.002356
-0.000554 2e-06 0.002363
-0.00053 3e-06 0.002369
-0.000292 5e-06 0.002434
-0.000268 6e-06 0.002438
-0.000244 7e-06 0.002445
-0.000221 6e-06 0.002452
-0.001293 4e-06 0.002081
-0.001269 5e-06 0.002087
-0.001246 4e-06 0.002094
-0.001222 3e-06 0.002103
-0.001199 3e-06 0.002111
-0.001176 2e-06 0.00212
-0.001153 1e-06 0.002129
-0.00113 0.0 0.002137
-0.001106 0.0 0.002145
-0.001982 0.000622 0.001971
-0.001553 0.000518 0.00258
-0.001574 0.000518 0.002567
-0.001593 0.000627 0.002552
-0.001619 0.000586 0.002363
-0.000967 -2e-06 0.002195
-0.000943 -4e-06 0.002202
-0.00092 -5e-06 0.00221
-0.00191 0.000621 0.00195
-0.001538 0.000741 0.002002
-0.001623 0.000547 0.00246
-0.001825 0.000659 0.001907
-0.001778 0.000681 0.00188
-0.00073 -2e-06 0.002261
-0.000706 -3e-06 0.00227
-0.000683 -3e-06 0.002276
-0.000659 -3e-06 0.002283
-0.000635 -3e-06 0.002289
-0.000612 -3e-06 0.002298
-0.000564 -3e-06 0.00231
-0.000541 -3e-06 0.002318
-0.00028 -2e-06 0.002392
-0.000256 -1e-06 0.002397
-0.000232 0.0 0.002402
-0.000208 0.0 0.002408
-0.000184 1e-06 0.002413
-0.00016 2e-06 0.002419
-0.000135 3e-06 0.002424
-0.000112 4e-06 0.00243
-8.7e-05 4e-06 0.002435
-0.00128 -2e-06 0.002038
-0.001258 -4e-06 0.002048
-0.001234 -4e-06 0.002055
-0.001211 -4e-06 0.002063
-0.001163 -3e-06 0.002075
-0.00114 -4e-06 0.002084
-0.001116 -4e-06 0.00209
-0.001091 -2e-06 0.002094
-0.001946 0.000635 0.00196
-0.000826 0.000761 0.002357
-0.000933 0.000758 0.002296
-0.000908 0.000762 0.002302
-0.000507 -3.1e-05 0.002025
-0.001732 0.000703 0.001854
-0.000735 1e-06 0.002191
-0.000711 1e-06 0.002199
-0.00064 1e-06 0.002219
-0.000618 1e-06 0.002224
-0.000593 0.0 0.002234
-0.00053 -3.1e-05 0.002018
-0.000554 -3.1e-05 0.002012
-0.000578 -3.1e-05 0.002005
-0.000193 -3e-06 0.002358
-0.00017 -3e-06 0.002366
-0.000146 -3e-06 0.002373
-0.000123 -3e-06 0.00238
-9.9e-05 -3e-06 0.002388
-7.6e-05 -3e-06 0.002394
-5.1e-05 -2e-06 0.002399
-0.000602 -3.1e-05 0.001998
-0.001217 -2e-06 0.001996
-0.001193 -1e-06 0.002001
-0.001169 -1e-06 0.002007
-0.001145 0.0 0.002012
-0.00112 1e-06 0.002017
-0.001096 1e-06 0.002024
-0.000625 -3.1e-05 0.001992
-0.000978 2e-06 0.002056
-0.000953 4e-06 0.002059
-0.00093 4e-06 0.002067
-0.000906 3e-06 0.002075
-0.000883 3e-06 0.002083
-0.000859 4e-06 0.002088
-0.000835 4e-06 0.002094
-0.002017 0.000636 0.001982
-0.001572 0.000716 0.002133
-0.001622 0.000512 0.002413
-0.002326 0.000601 0.001909
-0.001622 0.000727 0.001865
-0.000649 -3.1e-05 0.001984
-0.000482 4e-06 0.002199
-0.000457 3e-06 0.002207
-0.000433 4e-06 0.002213
-0.00041 3e-06 0.002222
-0.000386 3e-06 0.002228
-0.000362 3e-06 0.002235
-0.000339 3e-06 0.002242
-0.00015 2e-06 0.002299
-0.000127 1e-06 0.002308
-0.000104 1e-06 0.002317
-8.1e-05 -0.0 0.002325
-5.7e-05 0.0 0.002332
-3.4e-05 -0.0 0.00234
-0.001198 2e-06 0.001931
-0.001174 3e-06 0.001937
-0.00115 3e-06 0.001944
-0.001126 3e-06 0.00195
-0.001102 4e-06 0.001956
-0.001079 4e-06 0.001963
-0.001055 3e-06 0.001971
-0.001032 3e-06 0.001977
-0.001008 3e-06 0.001984
-0.000984 3e-06 0.001991
-0.000961 3e-06 0.001999
-0.000937 3e-06 0.002006
-0.000914 3e-06 0.002014
-0.000891 2e-06 0.002021
-0.000867 3e-06 0.002028
-0.000843 2e-06 0.002036
-0.00082 2e-06 0.002043
-0.000962 0.00075 0.002296
-0.000773 2e-06 0.002057
-0.000749 1e-06 0.002065
-0.000726 1e-06 0.002072
-0.000702 1e-06 0.002079
-0.000679 0.0 0.002087
-0.000655 1e-06 0.002093
-0.000489 1e-06 0.002141
-0.000466 1e-06 0.002149
-0.000442 1e-06 0.002155
-0.000418 2e-06 0.00216
-0.000394 2e-06 0.002167
-0.00037 2e-06 0.002174
-0.000347 3e-06 0.00218
-0.000323 3e-06 0.002186
-0.000228 3e-06 0.002213
-0.000157 4e-06 0.002234
-0.000133 4e-06 0.002239
-0.00011 4e-06 0.002248
-8.6e-05 4e-06 0.002254
-6.2e-05 4e-06 0.002261
-4e-05 2e-06 0.002271
-1.6e-05 3e-06 0.002277
-0.001228 3e-06 0.001859
-0.001204 3e-06 0.001866
-0.001181 3e-06 0.001873
-0.001158 2e-06 0.001882
-0.001134 2e-06 0.00189
-0.001111 1e-06 0.001898
-0.001088 1e-06 0.001905
-0.001064 1e-06 0.001913
-0.001041 -0.0 0.001922
-0.001018 -1e-06 0.00193
-0.000995 -2e-06 0.001939
-0.000971 -2e-06 0.001947
-0.000948 -3e-06 0.001955
-0.000925 -4e-06 0.001964
-0.000902 -4e-06 0.001971
-0.000878 -5e-06 0.001979
-0.000855 -5e-06 0.001988
-0.000831 -5e-06 0.001994
-0.000808 -6e-06 0.002002
-0.000784 -6e-06 0.002009
-0.000761 -6e-06 0.002017
-0.000738 -7e-06 0.002025
-0.000714 -7e-06 0.002033
-0.00069 -7e-06 0.002039
-0.000667 -7e-06 0.002047
-0.000644 -7e-06 0.002054
-0.00062 -7e-06 0.002061
-0.000596 -7e-06 0.002068
-0.000573 -8e-06 0.002076
-0.000549 -7e-06 0.002082
-0.000525 -7e-06 0.002089
-0.000501 -7e-06 0.002094
-0.000477 -6e-06 0.0021
-0.000453 -6e-06 0.002106
-0.00043 -6e-06 0.002113
-0.000406 -6e-06 0.00212
-0.000382 -5e-06 0.002127
-0.000359 -5e-06 0.002133
-0.000334 -4e-06 0.002138
-0.000311 -4e-06 0.002145
-0.000215 -2e-06 0.002168
-0.000191 -1e-06 0.002174
-0.000143 0.0 0.002185
-0.000119 0.0 0.002191
-9.5e-05 2e-06 0.002196
-7.1e-05 2e-06 0.002202
-4.7e-05 2e-06 0.002208
-2.3e-05 3e-06 0.002213
-0.001597 0.000724 0.002512
-0.001192 -3e-06 0.001823
-0.001169 -4e-06 0.001831
-0.001146 -5e-06 0.00184
-0.001122 -5e-06 0.001848
-0.001099 -6e-06 0.001857
-0.001612 0.000602 0.002535
-0.001053 -8e-06 0.001875
-0.00103 -9e-06 0.001884
-0.001007 -1e-05 0.001893
-0.001588 0.000687 0.002543
-0.001617 0.000697 0.002498
-0.001622 0.000711 0.002459
-0.000914 -1.3e-05 0.001927
-0.000891 -1.4e-05 0.001935
-0.000868 -1.4e-05 0.001943
-0.000844 -1.5e-05 0.001951
-0.000821 -1.6e-05 0.00196
-0.000798 -1.6e-05 0.001968
-0.000775 -1.7e-05 0.001976
-0.000751 -1.7e-05 0.001984
-0.000728 -1.7e-05 0.001991
-0.000704 -1.8e-05 0.001999
-0.000681 -1.8e-05 0.002006
-0.000657 -1.8e-05 0.002013
-0.000634 -1.8e-05 0.002021
-0.00061 -1.8e-05 0.002028
-0.000586 -1.8e-05 0.002035
-0.000563 -1.8e-05 0.002041
-0.000539 -1.8e-05 0.002048
-0.000515 -1.7e-05 0.002054
-0.000492 -1.8e-05 0.002061
-0.000468 -1.7e-05 0.002068
-0.000444 -1.7e-05 0.002073
-0.00042 -1.7e-05 0.00208
-0.000396 -1.6e-05 0.002085
-0.000372 -1.6e-05 0.002091
-0.000348 -1.5e-05 0.002097
-0.000324 -1.5e-05 0.002103
-0.0003 -1.4e-05 0.002109
-0.000131 -8e-06 0.002146
-0.000107 -7e-06 0.00215
-8.3e-05 -6e-06 0.002156
-5.9e-05 -5e-06 0.00216
-0.001608 0.000604 0.002255
-0.001646 0.000751 0.001856
-0.001675 0.000744 0.001855
-0.001911 0.000648 0.00195
-0.00187 0.000665 0.001932
-0.002017 0.000609 0.001983
-0.001622 0.000529 0.002506
-0.001613 0.000519 0.002537
-0.001594 0.000518 0.002554
-0.002615 0.000686 0.001217
-0.001622 0.000566 0.002413
-0.001615 0.000607 0.002311
-0.001629 0.000793 0.00183
-0.001557 0.000708 0.002087
-0.001451 0.000725 0.002603
-0.000859 -2.6e-05 0.001912
-0.000836 -2.7e-05 0.001921
-0.000812 -2.8e-05 0.00193
-0.000789 -2.9e-05 0.001938
-0.000766 -2.9e-05 0.001946
-0.000742 -3e-05 0.001954
-0.000719 -3e-05 0.001961
-0.000696 -3e-05 0.001969
-0.000672 -3.1e-05 0.001977
-0.00093 0.000733 0.002291
-0.000905 0.000737 0.002297
-0.000861 0.00074 0.00232
-0.000841 0.000738 0.002335
-0.000825 0.000735 0.002355
-0.000813 0.000727 0.002382
-0.000803 0.000717 0.002413
-0.001574 0.000757 0.001906
-0.002226 0.000603 0.002018
-0.001981 0.000568 0.001972
-0.001945 0.000581 0.001959
-0.00191 0.000594 0.001949
-0.00187 0.000611 0.001932
-0.001825 0.000631 0.001908
-0.001779 0.000653 0.001881
-0.001733 0.000675 0.001855
-0.001698 0.000688 0.001846
-0.00167 0.000694 0.001849
-0.001645 0.000698 0.001854
-0.001622 0.0007 0.001864
-0.002324 0.000697 0.001776
-0.002339 0.000677 0.001822
-0.002338 0.000631 0.001887
-0.002325 0.000629 0.001908
-0.002359 0.000746 0.001218
-0.002395 0.00068 0.001217
-0.002613 0.000552 0.001216
-0.001607 0.000551 0.002253
-0.001615 0.000526 0.002311
-0.001619 0.000504 0.002364
-0.001621 0.000485 0.002413
-0.001623 0.000465 0.002461
-0.001623 0.000448 0.002506
-0.001613 0.000438 0.002538
-0.001595 0.000436 0.002554
-0.001574 0.000436 0.002567
-0.001553 0.000436 0.00258
-0.001532 0.000437 0.002593
-0.001511 0.000437 0.002605
-0.001489 0.000438 0.002618
-0.001467 0.000438 0.002629
-0.001442 0.000442 0.002635
-0.00093 0.000706 0.002291
-0.000905 0.00071 0.002297
-0.000881 0.000713 0.002307
-0.000859 0.000714 0.002318
-0.00084 0.000713 0.002332
-0.000823 0.000709 0.002353
-0.000815 0.000698 0.002385
-0.000799 0.000694 0.002406
-0.002197 0.000448 0.002025
-0.002301 0.000637 0.001728
-0.001982 0.00054 0.001972
-0.001946 0.000553 0.00196
-0.001911 0.000566 0.00195
-0.00187 0.000583 0.001933
-0.001825 0.000604 0.001908
-0.001779 0.000626 0.001882
-0.001733 0.000648 0.001855
-0.001698 0.000661 0.001846
-0.00167 0.000667 0.001848
-0.001644 0.000671 0.001854
-0.001622 0.000673 0.001864
-0.002329 0.000691 0.001879
-0.002188 0.000698 0.002017
-0.002347 0.000635 0.001862
-0.002311 0.000546 0.001928
-0.002327 0.000492 0.00191
-0.002151 0.00076 0.001233
-0.002133 0.000762 0.001249
-0.001583 0.000699 0.002176
-0.001607 0.000524 0.002253
-0.001614 0.0005 0.00231
