-0.000749 0.000198 0.002416
-0.000508 -3.3e-05 0.002029
-0.000531 -3.3e-05 0.002022
-0.000734 0.000105 0.002628
-0.000724 8.2e-05 0.002682
-0.000713 6.2e-05 0.002731
-0.000699 4.5e-05 0.002773
-0.000685 3e-05 0.00281
-0.000666 2.1e-05 0.002835
-0.000645 1.7e-05 0.00285
-0.000623 1.5e-05 0.002861
-0.000504 1.6e-05 0.002895
-0.00048 1.7e-05 0.0029
-0.000455 1.9e-05 0.002903
-0.00043 2.2e-05 0.002905
-0.001506 0.000747 0.002094
-0.001847 0.000703 0.001988
-0.001387 1.4e-05 0.00258
-0.001364 1.4e-05 0.002588
-0.00134 1.4e-05 0.002593
-0.001315 1.5e-05 0.002597
-0.001289 1.9e-05 0.002596
-0.001261 2.6e-05 0.002588
-0.001231 3.8e-05 0.002572
-0.001199 5.1e-05 0.002551
-0.001167 6.5e-05 0.00253
-0.001135 7.9e-05 0.002507
-0.001101 9.7e-05 0.002477
-0.001063 0.000121 0.002436
-0.001023 0.000147 0.002388
-0.000985 0.000172 0.002344
-0.000952 0.000186 0.002321
-0.000924 0.000194 0.002311
-0.000898 0.000199 0.002309
-0.000873 0.000201 0.002311
-0.000849 0.000202 0.002317
-0.000826 0.0002 0.002326
-0.000804 0.000198 0.002338
-0.000783 0.000193 0.002355
-0.000764 0.000185 0.00238
-0.000749 0.000172 0.002414
-0.000734 7.8e-05 0.002627
-0.000724 5.5e-05 0.002681
-0.000712 3.6e-05 0.002729
-0.000697 2.1e-05 0.002766
-0.000679 1.2e-05 0.002792
-0.000657 7e-06 0.002808
-0.000493 6e-06 0.002857
-0.000469 7e-06 0.002864
-0.000445 8e-06 0.00287
-0.000421 9e-06 0.002875
-0.001555 0.000651 0.002308
-0.001376 5e-06 0.002541
-0.001352 5e-06 0.002548
-0.001329 4e-06 0.002557
-0.001306 4e-06 0.002564
-0.001281 5e-06 0.002569
-0.001255 9e-06 0.002567
-0.001228 1.5e-05 0.002562
-0.001199 2.4e-05 0.00255
-0.001168 3.7e-05 0.002531
-0.001135 5.2e-05 0.002508
-0.001023 0.00012 0.002388
-0.000985 0.000145 0.002344
-0.000952 0.000159 0.002321
-0.000924 0.000167 0.002311
-0.000897 0.000172 0.002308
-0.000873 0.000174 0.002311
-0.000849 0.000174 0.002317
-0.000826 0.000173 0.002326
-0.000804 0.000171 0.002338
-0.000783 0.000166 0.002356
-0.000764 0.000158 0.00238
-0.000748 0.000145 0.002413
-0.000733 5.2e-05 0.002625
-0.000723 2.9e-05 0.002679
-0.000709 1.4e-05 0.002717
-0.00069 6e-06 0.00274
-0.000668 4e-06 0.002752
-0.000644 3e-06 0.002759
-0.000555 -3.3e-05 0.002016
-0.000579 -3.3e-05 0.002009
-0.000479 3e-06 0.002809
-0.000455 4e-06 0.002814
-0.000431 4e-06 0.002821
-0.000359 7e-06 0.002838
-0.000333 1.5e-05 0.002828
-0.000602 -3.3e-05 0.002002
-0.001361 3e-06 0.00249
-0.001338 2e-06 0.002498
-0.001314 2e-06 0.002506
-0.001291 2e-06 0.002513
-0.001267 2e-06 0.00252
-0.001391 0.000695 0.002647
-0.001219 4e-06 0.00253
-0.001194 6e-06 0.002532
-0.001165 1.4e-05 0.002523
-0.001134 2.6e-05 0.002505
-0.001024 9.2e-05 0.00239
-0.000985 0.000117 0.002344
-0.000952 0.000132 0.002321
-0.000924 0.00014 0.002311
-0.000897 0.000145 0.002308
-0.000872 0.000147 0.002311
-0.000849 0.000147 0.002317
-0.000826 0.000146 0.002326
-0.000803 0.000144 0.002338
-0.000783 0.000139 0.002355
-0.000764 0.000131 0.002379
-0.000748 0.000118 0.002412
-0.000719 9e-06 0.002664
-0.000699 3e-06 0.002683
-0.000675 3e-06 0.002691
-0.000652 3e-06 0.002699
-0.00063 2e-06 0.002705
-0.000604 4e-06 0.002711
-0.000626 -3.2e-05 0.001994
-0.000649 -3.2e-05 0.001987
-0.000673 -3.2e-05 0.00198
-0.000462 4e-06 0.002752
-0.000439 4e-06 0.002759
-0.000415 4e-06 0.002765
-0.000391 5e-06 0.00277
-0.000367 4e-06 0.002779
-0.000345 3e-06 0.002788
-0.00032 6e-06 0.00279
-0.000697 -3.2e-05 0.001972
-0.00072 -3.2e-05 0.001965
-0.001344 3e-06 0.002433
-0.001321 3e-06 0.00244
-0.001298 2e-06 0.00245
-0.001274 2e-06 0.002457
-0.001251 2e-06 0.002464
-0.001497 0.000737 0.001989
-0.00155 0.00052 0.002575
-0.001992 0.000595 0.002032
-0.001461 0.000688 0.00262
-0.001528 0.00071 0.002175
-0.000743 -3.1e-05 0.001957
-0.000985 9e-05 0.002344
-0.000952 0.000105 0.00232
-0.000924 0.000113 0.002311
-0.000897 0.000118 0.002308
-0.000872 0.00012 0.002311
-0.000849 0.00012 0.002317
-0.000826 0.000119 0.002326
-0.000803 0.000116 0.002338
-0.000783 0.000112 0.002355
-0.000764 0.000104 0.002379
-0.000748 9e-05 0.002413
-0.000728 6e-06 0.002608
-0.000707 1e-06 0.002625
-0.000684 0.0 0.002634
-0.000661 -0.0 0.002642
-0.000637 0.0 0.002648
-0.000613 1e-06 0.002652
-0.00059 0.0 0.002661
-0.000566 1e-06 0.002667
-0.000767 -3.1e-05 0.00195
-0.000448 1e-06 0.002702
-0.000424 0.0 0.00271
-0.000377 1e-06 0.002723
-0.000353 0.0 0.002731
-0.00033 1e-06 0.002737
-0.000306 1e-06 0.002745
-0.000282 4e-06 0.002747
-0.000249 1.6e-05 0.002726
-0.00079 -3e-05 0.001941
-0.001503 0.000688 0.002593
-0.001522 0.00069 0.002577
-0.000813 -3e-05 0.001933
-0.001561 0.000529 0.002546
-0.001416 0.000692 0.00264
-0.00144 0.00069 0.002632
-0.001374 0.000557 0.002664
-0.000984 6.4e-05 0.002341
-0.000952 7.8e-05 0.002319
-0.000924 8.6e-05 0.002311
-0.000897 9.1e-05 0.002308
-0.000872 9.3e-05 0.002311
-0.000849 9.3e-05 0.002317
-0.000825 9.2e-05 0.002326
-0.000803 8.9e-05 0.002338
-0.000782 8.5e-05 0.002354
-0.000764 7.7e-05 0.002378
-0.000736 4e-06 0.002549
-0.000715 1e-06 0.002563
-0.00069 2e-06 0.002566
-0.000666 3e-06 0.002572
-0.000643 2e-06 0.002579
-0.000596 2e-06 0.002594
-0.000572 3e-06 0.002599
-0.000549 2e-06 0.002608
-0.000525 3e-06 0.002614
-0.000501 3e-06 0.002621
-0.000336 1e-06 0.002673
-0.000313 2e-06 0.002679
-0.000289 2e-06 0.002685
-0.000265 1e-06 0.002693
-0.00024 4e-06 0.002695
-0.000837 -2.9e-05 0.001925
-0.00086 -2.8e-05 0.001916
-0.001218 2e-06 0.002351
-0.001846 0.000649 0.001987
-0.001957 0.000608 0.002022
-0.001562 0.000545 0.002503
-0.002175 0.000469 0.002071
-0.001466 0.000521 0.002628
-0.002088 0.000732 0.001308
-0.001629 0.000744 0.001888
-0.000983 3.9e-05 0.002338
-0.000951 5.2e-05 0.002317
-0.000923 5.9e-05 0.002309
-0.000897 6.4e-05 0.002308
-0.000872 6.6e-05 0.00231
-0.000848 6.6e-05 0.002316
-0.000825 6.5e-05 0.002325
-0.000803 6.3e-05 0.002337
-0.000782 5.8e-05 0.002354
-0.000764 5e-05 0.002378
-0.000724 -3e-06 0.002507
-0.0007 -2e-06 0.002513
-0.000677 -2e-06 0.00252
-0.000653 -2e-06 0.002527
-0.000629 -1e-06 0.002532
-0.000605 -1e-06 0.002537
-0.000582 -1e-06 0.002545
-0.000558 -1e-06 0.002553
-0.000533 -1e-06 0.002558
-0.00051 -0.0 0.002565
-0.001884 0.000689 0.002
-0.000296 2e-06 0.002621
-0.000272 1e-06 0.002628
-0.000249 1e-06 0.002636
-0.000226 4e-06 0.002642
-0.001344 1e-06 0.002256
-0.00132 0.0 0.002263
-0.001297 -0.0 0.002272
-0.001274 -0.0 0.002279
-0.001251 -1e-06 0.002288
-0.001228 -2e-06 0.002297
-0.001206 -5e-06 0.002309
-0.001756 0.000719 0.001936
-0.001545 0.00065 0.002247
-0.001528 0.000683 0.002175
-0.00151 0.000744 0.001963
-0.000951 2.5e-05 0.002317
-0.000923 3.2e-05 0.002309
-0.000897 3.7e-05 0.002307
-0.000872 3.9e-05 0.00231
-0.000848 3.9e-05 0.002316
-0.000825 3.8e-05 0.002324
-0.000803 3.6e-05 0.002336
-0.000782 3.1e-05 0.002354
-0.000763 2.3e-05 0.002377
-0.001993 0.000649 0.002033
-0.000709 -5e-06 0.002455
-0.000684 -3e-06 0.002458
-0.000661 -3e-06 0.002466
-0.00059 -3e-06 0.002485
-0.000424 -3e-06 0.002535
-0.000401 -3e-06 0.002542
-0.000306 -2e-06 0.002568
-0.000283 -3e-06 0.002576
-0.000259 -2e-06 0.002583
-0.000211 -2e-06 0.002596
-0.000183 6e-06 0.002587
-0.00133 -3e-06 0.002207
-0.001306 -3e-06 0.002214
-0.001282 -2e-06 0.00222
-0.001258 -1e-06 0.002225
-0.001234 -1e-06 0.002231
-0.00121 -1e-06 0.002238
-0.001559 0.000575 0.002361
-0.001562 0.000518 0.002503
-0.001483 0.000699 0.002023
-0.001884 0.000635 0.001999
-0.002028 0.000582 0.002042
-0.001021 0.0 0.002291
-0.000997 0.0 0.002299
-0.001561 0.000709 0.002502
-0.001802 0.000697 0.001963
-0.000923 8e-06 0.002305
-0.000897 1e-05 0.002306
-0.000872 1.2e-05 0.00231
-0.000848 1.2e-05 0.002316
-0.000825 1.2e-05 0.002323
-0.000802 1.1e-05 0.002336
-0.000782 4e-06 0.002353
-0.000762 -2e-06 0.002373
-0.001545 0.000677 0.002247
-0.000617 3e-06 0.002404
-0.001454 0.000722 0.002608
-0.000501 1e-06 0.002445
-0.000476 1e-06 0.002449
-0.000454 0.0 0.002459
-0.000431 -2e-06 0.00247
-0.000406 1e-06 0.00247
-0.000384 1e-06 0.002478
-0.000289 -1e-06 0.00251
-0.000194 -1e-06 0.002538
-0.00017 -0.0 0.002542
-0.001312 0.0 0.002145
-0.001287 2e-06 0.002149
-0.001264 1e-06 0.002158
-0.00124 1e-06 0.002164
-0.001217 1e-06 0.002171
-0.001193 1e-06 0.002177
-0.001169 2e-06 0.002183
-0.001333 0.000548 0.002642
-0.001555 0.000733 0.002308
-0.001423 0.000632 0.00265
-0.001666 0.000733 0.001888
-0.001003 2e-06 0.002232
-0.00098 1e-06 0.002241
-0.000956 2e-06 0.002247
-0.000932 2e-06 0.002253
-0.000909 1e-06 0.002262
-0.000886 1e-06 0.002269
-0.000863 0.0 0.002277
-0.000839 -0.0 0.002285
-0.000816 -0.0 0.002292
-0.000721 0.0 0.002319
-0.000697 1e-06 0.002325
-0.000674 0.0 0.002333
-0.00065 0.0 0.00234
-0.000626 -0.0 0.002347
-0.000602 1e-06 0.002352
-0.000578 2e-06 0.002358
-0.000555 0.0 0.002366
-0.000533 -0.0 0.002374
-0.000508 0.0 0.00238
-0.000484 0.0 0.002386
-0.00046 1e-06 0.002394
-0.000436 2e-06 0.002399
-0.000413 2e-06 0.002406
-0.000389 1e-06 0.002414
-0.000365 2e-06 0.002419
-0.000128 4e-06 0.002486
-0.00156 0.000602 0.002361
-0.00127 2e-06 0.002091
-0.001247 2e-06 0.002099
-0.001224 1e-06 0.002108
-0.001201 1e-06 0.002116
-0.001177 1e-06 0.002123
-0.001154 -0.0 0.002132
-0.001131 -1e-06 0.00214
-0.001375 0.000528 0.002666
-0.001084 -2e-06 0.002157
-0.001061 -3e-06 0.002164
-0.00151 0.000788 0.001918
-0.001496 0.000782 0.001942
-0.000991 -4e-06 0.002189
-0.000967 -5e-06 0.002196
-0.000944 -3e-06 0.002204
-0.00092 -3e-06 0.002212
-0.000897 -6e-06 0.002219
-0.000874 -6e-06 0.002227
-0.00085 -7e-06 0.002235
-0.000827 -7e-06 0.002243
-0.000803 -7e-06 0.00225
-0.00078 -7e-06 0.002257
-0.000756 -8e-06 0.002265
-0.000733 -6e-06 0.002272
-0.000709 -7e-06 0.002278
-0.000686 -8e-06 0.002287
-0.000662 -8e-06 0.002294
-0.000639 -7e-06 0.002302
-0.000615 -7e-06 0.002308
-0.000591 -8e-06 0.002315
-0.000567 -8e-06 0.002321
-0.000543 -7e-06 0.002327
-0.00052 -7e-06 0.002334
-0.000496 -8e-06 0.002341
-0.000472 -6e-06 0.002348
-0.000448 -5e-06 0.002352
-0.000377 -5e-06 0.002371
-0.000353 -5e-06 0.002377
-0.000256 -4e-06 0.002399
-0.000233 -3e-06 0.002406
-0.000137 1e-06 0.002428
-0.000113 1e-06 0.002434
-0.00155 0.000548 0.002575
-0.00156 0.000556 0.002546
-0.001445 0.000549 0.00264
-0.001212 -6e-06 0.002066
-0.001188 -6e-06 0.002074
-0.001165 -7e-06 0.002084
-0.001142 -8e-06 0.002092
-0.001118 -8e-06 0.002099
-0.001374 0.000584 0.002663
-0.001495 0.000723 0.00258
-0.001047 -7e-06 0.002118
-0.001024 -8e-06 0.002127
-0.000999 -6e-06 0.002129
-0.000976 -7e-06 0.002138
-0.000951 -5e-06 0.002142
-0.001531 0.000519 0.002591
-0.000834 -6e-06 0.002179
-0.000808 -3e-06 0.002179
-0.000786 -5e-06 0.002189
-0.000761 -4e-06 0.002194
-0.000739 -6e-06 0.002205
-0.000715 -6e-06 0.002212
-0.000691 -4e-06 0.002216
-0.000667 -4e-06 0.002223
-0.000644 -5e-06 0.002231
-0.000573 -4e-06 0.002251
-0.000549 -5e-06 0.002259
-0.000526 -5e-06 0.002267
-0.000502 -5e-06 0.002273
-0.000478 -5e-06 0.002281
-0.000455 -5e-06 0.002287
0.00056 -3.4e-05 0.002016
-0.000361 -6e-06 0.002317
-0.000338 -7e-06 0.002325
-0.000315 -8e-06 0.002336
-0.000268 -8e-06 0.00235
-0.000244 -8e-06 0.002356
-0.00022 -8e-06 0.002362
-0.000197 -9e-06 0.002371
-0.001514 0.000724 0.002565
-0.00154 0.000692 0.002559
-0.001562 0.000573 0.002503
-0.001423 0.00055 0.002652
-0.001195 -5e-06 0.00201
-0.001172 -6e-06 0.002018
-0.001147 -3e-06 0.002019
-0.001124 -4e-06 0.002029
-0.0011 -5e-06 0.002036
-0.001562 0.000555 0.00241
-0.001755 0.000693 0.001935
-0.001004 -3e-06 0.00206
-0.000981 -4e-06 0.002068
-0.000957 -2e-06 0.002072
-0.001554 0.000698 0.002536
-0.000838 -2e-06 0.002107
-0.000815 -2e-06 0.002113
-0.000791 -2e-06 0.002121
-0.00192 0.000648 0.002012
-0.000696 -1e-06 0.002147
-0.000673 -2e-06 0.002155
-0.000649 -1e-06 0.002161
-0.000625 -1e-06 0.002168
-0.000601 -1e-06 0.002173
-0.000578 -1e-06 0.002182
-0.000555 -2e-06 0.00219
-0.000531 -2e-06 0.002198
-0.000507 -2e-06 0.002203
-0.00046 -2e-06 0.002218
-0.000436 -1e-06 0.002223
0.000537 -3.4e-05 0.002024
0.000513 -3.3e-05 0.00203
-0.001847 0.000676 0.001987
-0.000248 -3e-06 0.002283
-0.000225 -3e-06 0.002289
-0.000201 -3e-06 0.002296
-0.001248 -3e-06 0.001928
-0.001225 -3e-06 0.001936
-0.001177 -2e-06 0.001947
-0.001153 -2e-06 0.001953
-0.001129 -1e-06 0.001959
-0.001106 -2e-06 0.001967
-0.001081 -0.0 0.001971
-0.001058 -1e-06 0.001979
-0.002062 0.00057 0.002053
-0.001563 0.000536 0.002458
-0.001399 0.000634 0.002659
-0.001802 0.00067 0.001963
-0.001526 0.000748 0.001942
-0.001488 0.00052 0.002616
-0.00151 0.000519 0.002604
-0.001561 0.000582 0.00241
-0.000822 -2e-06 0.002049
-0.000798 -2e-06 0.002057
-0.000775 -1e-06 0.002064
-0.000751 -2e-06 0.002071
-0.000727 -1e-06 0.002077
-0.000704 -2e-06 0.002085
-0.00068 -2e-06 0.002092
-0.000657 -2e-06 0.0021
-0.000633 -2e-06 0.002107
-0.000609 -2e-06 0.002113
-0.000586 -2e-06 0.002121
-0.000562 -2e-06 0.002128
-0.000207 -0.0 0.002228
-0.000183 0.0 0.002234
-1.9e-05 -3e-06 0.002288
-0.001559 0.000629 0.002361
-0.001207 -1e-06 0.001873
-0.001183 -1e-06 0.001881
-0.001159 -0.0 0.001887
-0.001136 -1e-06 0.001896
-0.001113 -1e-06 0.001903
-0.00109 -2e-06 0.001912
-0.001066 -3e-06 0.00192
-0.001043 -3e-06 0.001928
-0.00102 -4e-06 0.001936
-0.001563 0.000699 0.002458
-0.001562 0.000627 0.002503
-0.001466 0.000575 0.002628
-0.001556 0.000596 0.00231
-0.001544 0.00075 0.001925
-0.001333 0.000656 0.002643
-0.000856 -7e-06 0.001992
-0.000833 -8e-06 0.001999
-0.00081 -8e-06 0.002008
-0.000786 -9e-06 0.002015
-0.000763 -9e-06 0.002023
-0.000739 -9e-06 0.00203
-0.000716 -9e-06 0.002037
-0.000692 -9e-06 0.002044
-0.000668 -9e-06 0.002052
-0.000645 -1e-05 0.002059
-0.000621 -1e-05 0.002066
-0.000598 -1e-05 0.002073
-0.000574 -9e-06 0.00208
-0.00055 -1e-05 0.002086
-2.5e-05 -1e-06 0.002222
-1e-06 0.0 0.002227
-0.002244 0.000466 0.002001
-0.001193 -5e-06 0.001827
-0.00117 -5e-06 0.001834
-0.001147 -6e-06 0.001844
-0.001124 -8e-06 0.001854
-0.001101 -9e-06 0.001863
-0.001078 -1e-05 0.001871
-0.001054 -1e-05 0.00188
-0.001031 -1.1e-05 0.001887
-0.001483 0.000688 0.002607
-0.001563 0.000681 0.002504
-0.00156 0.000611 0.002545
-0.001445 0.000576 0.00264
-0.001423 0.000576 0.002652
-0.001363 0.000701 0.002649
-0.000869 -1.6e-05 0.001947
-0.000846 -1.7e-05 0.001955
-0.000822 -1.7e-05 0.001964
-0.000799 -1.8e-05 0.001972
-0.000776 -1.9e-05 0.00198
-0.000752 -1.9e-05 0.001988
-0.000729 -1.9e-05 0.001995
-0.000705 -1.9e-05 0.002003
-0.000682 -2e-05 0.00201
-0.000658 -2e-05 0.002017
-0.000635 -2e-05 0.002024
-0.000611 -2e-05 0.002031
-0.000587 -2e-05 0.002038
-0.000564 -1.9e-05 0.002044
-0.00054 -2e-05 0.002052
-0.000517 -2e-05 0.002059
-0.000493 -2e-05 0.002065
-0.000469 -1.9e-05 0.002072
-0.000445 -1.9e-05 0.002077
-0.000421 -1.9e-05 0.002083
-0.000397 -1.8e-05 0.00209
-0.000374 -1.8e-05 0.002096
-0.00156 0.000502 0.002546
-0.00155 0.000493 0.002576
-0.001531 0.000492 0.002591
-0.001509 0.000492 0.002604
-0.001488 0.000493 0.002616
-0.001467 0.000493 0.002628
-0.001445 0.000494 0.00264
-0.001424 0.000495 0.002652
-0.001401 0.000496 0.002663
-0.001375 0.000501 0.002665
-0.001334 0.00052 0.002643
-0.002296 0.000538 0.001883
-0.002062 0.000543 0.002052
-0.002028 0.000555 0.002042
-0.001991 0.000568 0.002031
-0.001956 0.000581 0.002021
-0.001921 0.000594 0.002012
-0.001883 0.000609 0.001998
-0.001846 0.000622 0.001987
-0.001802 0.000643 0.001963
-0.001755 0.000666 0.001935
-0.001707 0.000689 0.001905
-0.001666 0.000707 0.001887
-0.001635 0.000715 0.001885
-0.001608 0.000721 0.001889
-0.002291 0.000603 0.001944
-0.001563 0.000724 0.001909
-0.001543 0.000723 0.001924
-0.001525 0.000721 0.001941
-0.001509 0.000716 0.001962
-0.001495 0.00071 0.001987
-0.002791 0.00047 0.001109
-0.001557 0.000568 0.002311
-0.001559 0.000548 0.002361
-0.001562 0.000527 0.002411
-0.001563 0.000508 0.002459
-0.001562 0.000491 0.002504
-0.001561 0.000475 0.002546
-0.00155 0.000466 0.002576
-0.001531 0.000465 0.002591
-0.001509 0.000465 0.002603
-0.001488 0.000466 0.002616
-0.001467 0.000466 0.002628
-0.001445 0.000467 0.00264
-0.001423 0.000468 0.002652
-0.001401 0.000469 0.002663
-0.001375 0.000474 0.002666
-0.001334 0.000493 0.002644
-0.000886 0.000735 0.002314
-0.000812 0.000746 0.002335
-0.00079 0.000747 0.002346
-0.002281 0.00053 0.001837
-0.002061 0.000516 0.002052
-0.002028 0.000528 0.002042
-0.001992 0.000541 0.002032
-0.001956 0.000554 0.002021
-0.00192 0.000567 0.002011
-0.001883 0.000582 0.001998
-0.001846 0.000595 0.001986
-0.001802 0.000616 0.001963
-0.001755 0.000638 0.001935
-0.001707 0.000662 0.001906
-0.001666 0.00068 0.001887
-0.001635 0.000689 0.001884
-0.001608 0.000694 0.001889
-0.001584 0.000696 0.001897
-0.001563 0.000697 0.001909
-0.001543 0.000696 0.001923
-0.001525 0.000694 0.001941
-0.001508 0.00069 0.001961
-0.002299 0.000635 0.001918
-0.002298 0.000673 0.001263
-0.001544 0.00057 0.002245
-0.001555 0.000542 0.002309
-0.001559 0.00052 0.002361
-0.001561 0.000501 0.00241
-0.001563 0.000481 0.002458
-0.001563 0.000463 0.002504
-0.001561 0.000447 0.002547
-0.00155 0.000439 0.002576
-0.001531 0.000437 0.002591
-0.001509 0.000438 0.002604
-0.001488 0.000438 0.002616
-0.001467 0.000439 0.002628
-0.001445 0.00044 0.00264
-0.001423 0.000441 0.002652
-0.001401 0.000442 0.002663
-0.001375 0.000447 0.002666
-0.001334 0.000466 0.002643
-0.000884 0.00071 0.002311
-0.000858 0.000715 0.002315
-0.000833 0.000718 0.002323
-0.000811 0.00072 0.002334
-0.000791 0.00072 0.002347
-0.002201 0.000685 0.001244
-0.002061 0.000489 0.002054
-0.002027 0.000501 0.002042
-0.001991 0.000514 0.002032
-0.001956 0.000527 0.002022
-0.00192 0.00054 0.002012
-0.001883 0.000554 0.001999
-0.001846 0.000568 0.001986
-0.001802 0.000589 0.001962
-0.001755 0.000611 0.001935
-0.001707 0.000634 0.001906
-0.001666 0.000652 0.001887
-0.001635 0.000661 0.001884
-0.001608 0.000667 0.001888
-0.001584 0.000669 0.001897
-0.001563 0.00067 0.001908
-0.001543 0.000669 0.001923
-0.001525 0.000667 0.001941
-0.002183 0.000691 0.002045
-0.00226 0.000602 0.001982
-0.002292 0.00052 0.001945
-0.00153 0.000572 0.002178
-0.001543 0.000543 0.002245
-0.001555 0.000515 0.002309
-0.00156 0.000493 0.002362
-0.001561 0.000473 0.00241
-0.001563 0.000454 0.002458
-0.001563 0.000436 0.002505
-0.001561 0.00042 0.002547
-0.00155 0.000411 0.002576
-0.001531 0.00041 0.002592
-0.00151 0.00041 0.002604
-0.001488 0.000411 0.002616
-0.001467 0.000412 0.002628
-0.001445 0.000412 0.002641
-0.001424 0.000413 0.002653
-0.001401 0.000414 0.002663
-0.001375 0.00042 0.002666
-0.000884 0.000683 0.002311
-0.000858 0.000688 0.002315
-0.000833 0.000691 0.002323
-0.000811 0.000693 0.002334
-0.002175 0.000441 0.002071
-0.00214 0.000589 0.002073
-0.002027 0.000474 0.002044
-0.001991 0.000487 0.002032
-0.001956 0.0005 0.002022
-0.00192 0.000513 0.002011
-0.001883 0.000527 0.001998
-0.001845 0.000542 0.001985
-0.001802 0.000561 0.001963
-0.001753 0.000585 0.001932
-0.001707 0.000607 0.001906
-0.001666 0.000625 0.001887
-0.001634 0.000634 0.001884
-0.001608 0.00064 0.001888
-0.001584 0.000642 0.001897
-0.001562 0.000643 0.001908
-0.001543 0.000642 0.001923
-0.001524 0.00064 0.00194
-0.002192 0.000631 0.002054
-0.002091 0.000609 0.002064
-0.002091 0.000473 0.002063
-0.001529 0.000546 0.002176
-0.001543 0.000516 0.002244
-0.001555 0.000488 0.002309
-0.001559 0.000466 0.002361
-0.001562 0.000446 0.002411
-0.001562 0.000427 0.002458
-0.001563 0.000409 0.002504
-0.001561 0.000393 0.002547
-0.00155 0.000384 0.002576
-0.001531 0.000383 0.002592
-0.00151 0.000383 0.002604
-0.001488 0.000384 0.002616
-0.001467 0.000384 0.002629
-0.001445 0.000385 0.002641
-0.001423 0.000386 0.002652
-0.001401 0.000387 0.002663
-0.001375 0.000393 0.002665
-0.000833 0.000664 0.002323
-0.002139 0.000454 0.002073
-0.002429 0.000731 0.001279
-0.002027 0.000446 0.002044
-0.001991 0.00046 0.002032
-0.001955 0.000473 0.002021
-0.00192 0.000486 0.002011
-0.001883 0.0005 0.001998
-0.001845 0.000514 0.001985
-0.001801 0.000534 0.001962
-0.001754 0.000558 0.001933
-0.001705 0.000582 0.001902
-0.001665 0.000598 0.001886
-0.001634 0.000607 0.001883
-0.001608 0.000613 0.001888
-0.001584 0.000615 0.001896
-0.001562 0.000616 0.001908
-0.001542 0.000615 0.001923
-0.002202 0.000689 0.002029
-0.002244 0.000682 0.001739
-0.002865 0.000659 0.000363
-0.002175 0.000496 0.002071
-0.001528 0.00052 0.002175
-0.001543 0.000489 0.002244
-0.001555 0.00046 0.002309
-0.001559 0.000439 0.002362
-0.001561 0.000419 0.00241
-0.001562 0.0004 0.002458
-0.001563 0.000382 0.002504
-0.001561 0.000366 0.002547
-0.00155 0.000357 0.002576
-0.001531 0.000356 0.002591
-0.001509 0.000356 0.002604
-0.001488 0.000357 0.002616
-0.001467 0.000357 0.002628
-0.001445 0.000358 0.00264
-0.001423 0.000359 0.002652
-0.001401 0.00036 0.002663
-0.002428 0.000595 0.00128
-0.002061 0.000407 0.002054
-0.002027 0.000419 0.002042
-0.001991 0.000433 0.002031
-0.001956 0.000445 0.002021
-0.00192 0.000458 0.002011
-0.001883 0.000472 0.001999
-0.001846 0.000487 0.001986
-0.001801 0.000508 0.001962
-0.001754 0.00053 0.001934
-0.001705 0.000555 0.001903
-0.001666 0.000571 0.001887
-0.001634 0.00058 0.001883
-0.001607 0.000586 0.001887
-0.001584 0.000588 0.001896
-0.001562 0.000589 0.001908
-0.001542 0.000588 0.001923
-0.002273 0.000658 0.001961
-0.002139 0.000616 0.002073
-0.002227 0.000548 0.002019
-0.002265 0.00055 0.00179
-0.001557 0.000432 0.002311
-0.00156 0.000411 0.002362
-0.001561 0.000392 0.00241
-0.001563 0.000373 0.002458
-0.001563 0.000354 0.002505
-0.001561 0.000339 0.002547
-0.00155 0.00033 0.002576
-0.001531 0.000329 0.002591
-0.001509 0.000329 0.002604
-0.001488 0.00033 0.002616
-0.001467 0.00033 0.002629
-0.001445 0.000331 0.002641
-0.001424 0.000332 0.002653
-0.001401 0.000333 0.002663
-0.002992 0.000643 0.000133
-0.002062 0.00038 0.002051
-0.002026 0.000393 0.00204
-0.001991 0.000406 0.002031
-0.001955 0.000418 0.002021
-0.00192 0.000431 0.002011
-0.001884 0.000445 0.001999
-0.001845 0.00046 0.001985
-0.001801 0.000481 0.001961
-0.001705 0.000527 0.001903
-0.001665 0.000544 0.001886
-0.001634 0.000553 0.001883
-0.001607 0.000559 0.001887
-0.001584 0.000561 0.001896
-0.001562 0.000562 0.001908
-0.001542 0.000561 0.001923
-0.002226 0.000657 0.002018
-0.002219 0.000678 0.00169
-0.002282 0.000584 0.001838
-0.002345 0.000626 0.001271
-0.001556 0.000405 0.002311
-0.00156 0.000384 0.002362
-0.001561 0.000365 0.00241
-0.001563 0.000346 0.002458
-0.001563 0.000327 0.002505
-0.001561 0.000311 0.002547
-0.00155 0.000303 0.002576
-0.001531 0.000301 0.002591
-0.00151 0.000302 0.002604
-0.001488 0.000302 0.002616
-0.001467 0.000303 0.002629
-0.001445 0.000304 0.002641
-0.001424 0.000304 0.002653
-0.001401 0.000306 0.002663
-0.001498 0.000697 0.002102
-0.002062 0.000353 0.00205
-0.002026 0.000366 0.00204
-0.001991 0.000378 0.002031
-0.001955 0.000391 0.00202
-0.00192 0.000404 0.002011
-0.001884 0.000418 0.002
-0.001845 0.000433 0.001985
-0.001801 0.000453 0.001961
-0.001754 0.000476 0.001934
-0.001706 0.0005 0.001904
-0.001665 0.000517 0.001886
-0.001634 0.000526 0.001883
-0.001607 0.000532 0.001887
-0.001583 0.000534 0.001895
-0.001562 0.000535 0.001907
-0.001542 0.000533 0.001923
-0.002276 0.000629 0.001963
-0.002244 0.000575 0.002001
-0.00214 0.000562 0.002073
-0.002743 0.000495 0.001223
-0.001557 0.000377 0.002312
-0.00156 0.000357 0.002362
-0.001561 0.000338 0.002409
-0.001563 0.000318 0.002458
-0.001563 0.0003 0.002505
-0.00156 0.000284 0.002547
-0.00155 0.000275 0.002576
-0.001531 0.000274 0.002592
-0.00151 0.000275 0.002604
-0.001488 0.000275 0.002616
-0.001467 0.000276 0.002629
-0.001445 0.000277 0.002641
-0.001424 0.000277 0.002653
-0.002094 0.000316 0.002055
-0.002062 0.000325 0.002051
-0.002027 0.000338 0.002041
-0.001992 0.000351 0.002032
-0.001956 0.000364 0.002021
-0.00192 0.000377 0.002011
-0.001884 0.00039 0.002
-0.001846 0.000405 0.001986
-0.001801 0.000426 0.001962
-0.001754 0.000449 0.001934
-0.001706 0.000473 0.001904
-0.001665 0.00049 0.001886
-0.001633 0.000499 0.001882
-0.001607 0.000504 0.001887
-0.001583 0.000507 0.001895
-0.001562 0.000508 0.001907
-0.001542 0.000506 0.001922
-0.002281 0.000666 0.001837
-0.002282 0.000611 0.001837
-0.002092 0.000582 0.002064
-0.002297 0.000646 0.001262
-0.001557 0.00035 0.002312
-0.001559 0.00033 0.002362
-0.001561 0.000311 0.00241
-0.001562 0.000291 0.002458
-0.001563 0.000273 0.002505
-0.00156 0.000257 0.002547
-0.00155 0.000249 0.002576
-0.001531 0.000247 0.002591
-0.00151 0.000247 0.002604
-0.001488 0.000248 0.002617
-0.001467 0.000249 0.002629
-0.001445 0.000249 0.002641
-0.001424 0.00025 0.002653
-0.002095 0.000288 0.002056
-0.002062 0.000298 0.002051
-0.002027 0.000311 0.002042
-0.001992 0.000324 0.002031
-0.001955 0.000337 0.002021
-0.00192 0.000349 0.002011
-0.001884 0.000363 0.002
-0.001845 0.000379 0.001985
-0.001802 0.000398 0.001963
-0.001754 0.000422 0.001933
-0.001706 0.000445 0.001904
-0.001665 0.000463 0.001886
-0.001634 0.000472 0.001883
-0.001607 0.000477 0.001887
-0.001583 0.00048 0.001895
-0.001562 0.000481 0.001907
-0.001542 0.000479 0.001922
-0.002296 0.000664 0.001915
-0.002295 0.000593 0.001882
-0.002346 0.000734 0.001272
-0.002429 0.000676 0.00128
-0.002246 0.000667 0.00125
-0.001557 0.000323 0.002312
-0.001559 0.000303 0.002361
-0.001561 0.000283 0.00241
-0.001563 0.000264 0.002459
-0.001563 0.000246 0.002504
-0.001561 0.00023 0.002547
-0.001549 0.000222 0.002575
-0.00153 0.00022 0.002591
-0.001509 0.00022 0.002604
-0.001488 0.000221 0.002616
-0.001467 0.000221 0.002629
-0.001445 0.000222 0.002641
-0.001424 0.000223 0.002653
-0.002666 0.000627 0.001268
-0.002061 0.000272 0.002052
-0.002027 0.000284 0.002042
-0.001992 0.000296 0.002032
-0.001955 0.00031 0.002021
-0.00192 0.000322 0.002011
-0.001884 0.000336 0.002
-0.001846 0.000351 0.001987
-0.001801 0.000372 0.001962
-0.001754 0.000394 0.001934
-0.001706 0.000418 0.001904
-0.001665 0.000436 0.001886
-0.001634 0.000445 0.001883
-0.001607 0.00045 0.001887
-0.001583 0.000453 0.001895
-0.001562 0.000453 0.001907
-0.001542 0.000452 0.001922
-0.002167 0.000663 0.002065
-0.002291 0.000575 0.001944
-0.002211 0.000548 0.002038
-0.002303 0.000524 0.001921
-0.002244 0.000438 0.002001
-0.002228 0.000438 0.00202
-0.001556 0.000297 0.002311
-0.001559 0.000276 0.002361
-0.001562 0.000256 0.002411
-0.001563 0.000237 0.002458
-0.001563 0.000219 0.002505
-0.001561 0.000203 0.002547
-0.001549 0.000195 0.002574
-0.00153 0.000193 0.002591
-0.001509 0.000193 0.002604
-0.001488 0.000194 0.002616
-0.001467 0.000194 0.002629
-0.001445 0.000195 0.002641
-0.001423 0.000196 0.002653
-0.0014 0.000198 0.002662
-0.002389 0.000727 0.00059
-0.00226 0.000629 0.001982
-0.002027 0.000257 0.002043
-0.001992 0.000269 0.002032
-0.001956 0.000282 0.002022
-0.00192 0.000295 0.002011
-0.001884 0.000308 0.002001
-0.001846 0.000324 0.001986
-0.001801 0.000344 0.001962
-0.001754 0.000367 0.001934
-0.001706 0.000391 0.001904
-0.001665 0.000408 0.001886
-0.001634 0.000417 0.001883
-0.001607 0.000422 0.001887
-0.001583 0.000425 0.001896
-0.001562 0.000426 0.001908
-0.001542 0.000425 0.001923
-0.002296 0.000647 0.001882
-0.002211 0.000575 0.002037
-0.002292 0.000548 0.001945
-0.002345 0.000653 0.001271
-0.001546 0.000296 0.002249
-0.001555 0.00027 0.00231
-0.001559 0.000249 0.002361
-0.001562 0.000228 0.002411
-0.001563 0.00021 0.002459
-0.001563 0.000191 0.002505
-0.00156 0.000176 0.002546
-0.001548 0.000168 0.002573
-0.001529 0.000167 0.00259
-0.001509 0.000166 0.002603
-0.001488 0.000167 0.002616
-0.001466 0.000167 0.002628
-0.001445 0.000168 0.00264
-0.001423 0.000169 0.002652
-0.001399 0.000171 0.00266
-0.00214 0.000507 0.002074
-0.002173 0.000606 0.002069
-0.002026 0.00023 0.002043
-0.001992 0.000242 0.002032
-0.001956 0.000255 0.002021
-0.00192 0.000268 0.00201
-0.001884 0.000281 0.002
-0.001845 0.000297 0.001986
-0.001802 0.000316 0.001963
-0.001754 0.00034 0.001934
-0.001706 0.000364 0.001904
-0.001665 0.000381 0.001886
-0.001634 0.00039 0.001883
-0.001607 0.000395 0.001887
-0.001584 0.000398 0.001896
-0.001562 0.000398 0.001908
-0.001542 0.000397 0.001923
-0.002208 0.000658 0.002035
-0.002685 0.000736 0.000435
-0.002276 0.000547 0.001964
-0.002303 0.000442 0.001922
-0.000887 -2.8e-05 0.001904
-0.001545 0.00027 0.002248
-0.001555 0.000243 0.00231
-0.001559 0.000221 0.002361
-0.001562 0.000201 0.002412
-0.001563 0.000183 0.002458
-0.001563 0.000164 0.002505
-0.001559 0.000149 0.002545
-0.001547 0.000142 0.002571
-0.001528 0.000141 0.002588
-0.001508 0.00014 0.002602
-0.001487 0.00014 0.002615
-0.001465 0.000141 0.002627
-0.001444 0.000141 0.002639
-0.001422 0.000143 0.00265
-0.001398 0.000145 0.002658
-0.002767 0.000498 0.001017
-0.002392 0.000716 0.001279
-0.002027 0.000202 0.002043
-0.001992 0.000215 0.002032
-0.001956 0.000228 0.002021
-0.00192 0.000241 0.00201
-0.001884 0.000254 0.002
-0.001845 0.00027 0.001985
-0.001801 0.00029 0.001962
-0.001754 0.000313 0.001934
-0.001706 0.000336 0.001905
-0.001665 0.000354 0.001886
-0.001634 0.000363 0.001883
-0.001607 0.000368 0.001887
-0.001583 0.000371 0.001896
-0.001562 0.000371 0.001908
-0.001542 0.00037 0.001923
-0.002258 0.000657 0.001981
-0.002392 0.000743 0.00128
-0.00226 0.000547 0.001982
-0.001516 0.000705 0.002145
-0.001546 0.000242 0.002249
-0.001555 0.000216 0.00231
-0.001559 0.000194 0.002361
-0.001562 0.000174 0.002412
-0.001563 0.000155 0.002459
-0.001563 0.000137 0.002504
-0.001559 0.000123 0.002544
-0.001544 0.000117 0.002567
-0.001526 0.000115 0.002584
-0.001506 0.000115 0.002598
-0.001485 0.000115 0.002612
-0.001464 0.000115 0.002625
-0.001442 0.000116 0.002636
-0.001419 0.000118 0.002646
-0.001396 0.00012 0.002655
-0.002763 0.000632 0.001177
-0.00204 0.000631 0.002048
-0.002027 0.000175 0.002044
-0.001991 0.000188 0.002031
-0.001956 0.000201 0.002022
-0.00192 0.000214 0.002011
-0.001884 0.000227 0.002
-0.001845 0.000243 0.001985
-0.001801 0.000263 0.001962
-0.001753 0.000286 0.001933
-0.001706 0.000309 0.001905
-0.001665 0.000327 0.001886
-0.001634 0.000336 0.001883
-0.001607 0.000341 0.001887
-0.001583 0.000344 0.001896
-0.001562 0.000344 0.001908
-0.001542 0.000343 0.001923
-0.002264 0.000687 0.001789
-0.002263 0.000633 0.001789
-0.002244 0.000548 0.002001
-0.002143 0.000756 0.001258
-0.001545 0.000215 0.002249
-0.001556 0.000188 0.00231
-0.001559 0.000167 0.002362
-0.001563 0.000146 0.002413
-0.001563 0.000128 0.002459
-0.001562 0.000111 0.002504
-0.001556 9.8e-05 0.00254
-0.001541 9.3e-05 0.002562
-0.001522 9.2e-05 0.002578
-0.001502 9.1e-05 0.002593
-0.001482 9e-05 0.002606
-0.001461 9.1e-05 0.002619
-0.001438 9.2e-05 0.00263
-0.001416 9.4e-05 0.002641
-0.001392 9.6e-05 0.002649
-0.002244 0.000573 0.001739
-0.002061 0.000136 0.002054
-0.002027 0.000148 0.002042
-0.001992 0.00016 0.002032
-0.001956 0.000174 0.002021
-0.001919 0.000187 0.00201
-0.001884 0.0002 0.002001
-0.001845 0.000215 0.001986
-0.001801 0.000235 0.001963
-0.001753 0.000259 0.001933
-0.001705 0.000283 0.001904
-0.001665 0.0003 0.001886
-0.001634 0.000309 0.001883
-0.001607 0.000314 0.001887
-0.001583 0.000317 0.001896
-0.001562 0.000317 0.001908
-0.001542 0.000316 0.001923
-0.002287 0.00066 0.00194
-0.002211 0.000602 0.002037
-0.002429 0.000703 0.001279
-0.002391 0.000689 0.001279
-0.002228 0.000493 0.002019
-0.001527 0.000221 0.002174
-0.001546 0.000187 0.00225
-0.001555 0.000161 0.002309
-0.00156 0.000139 0.002362
-0.001562 0.000119 0.002412
-0.001563 0.000101 0.002459
-0.001562 8.4e-05 0.002503
-0.001552 7.4e-05 0.002534
-0.001535 7.1e-05 0.002553
-0.001516 6.9e-05 0.002569
-0.001497 6.8e-05 0.002584
-0.001476 6.8e-05 0.002598
-0.001455 6.8e-05 0.002611
-0.001433 7e-05 0.002622
-0.00141 7.1e-05 0.002632
-0.001387 7.4e-05 0.002641
-0.002195 0.000439 0.002056
-0.002061 0.000109 0.002052
-0.002027 0.000121 0.002041
-0.001992 0.000133 0.002032
-0.001955 0.000147 0.002021
-0.00192 0.000159 0.002011
-0.001884 0.000173 0.002
-0.001845 0.000188 0.001985
-0.001801 0.000208 0.001962
-0.001705 0.000256 0.001903
-0.001665 0.000273 0.001886
-0.001634 0.000281 0.001883
-0.001607 0.000287 0.001887
-0.001583 0.000289 0.001896
-0.001562 0.00029 0.001908
-0.001542 0.000289 0.001923
-0.002282 0.000693 0.001837
-0.002139 0.000644 0.002073
-0.002095 0.000754 0.001302
-0.002345 0.000708 0.001271
-0.002265 0.000605 0.00179
-0.001527 0.000195 0.002173
-0.001556 0.000133 0.002311
-0.00156 0.000112 0.002363
-0.001562 9.2e-05 0.002412
-0.001562 7.4e-05 0.002458
-0.001559 5.9e-05 0.002498
-0.001546 5.2e-05 0.002524
-0.001528 5e-05 0.002542
-0.001509 4.8e-05 0.002558
-0.001489 4.8e-05 0.002573
-0.001469 4.7e-05 0.002586
-0.001448 4.8e-05 0.002599
-0.001426 4.9e-05 0.002611
-0.001403 5e-05 0.002621
-0.00138 5.2e-05 0.00263
-0.002167 0.000724 0.001246
-0.002061 8.2e-05 0.002052
-0.002027 9.3e-05 0.002041
-0.001991 0.000106 0.002031
-0.001955 0.00012 0.002021
-0.00192 0.000132 0.002011
-0.001884 0.000146 0.002
-0.001845 0.000161 0.001986
-0.0018 0.000182 0.001961
-0.001753 0.000205 0.001932
-0.001705 0.000229 0.001903
-0.001664 0.000246 0.001886
-0.001634 0.000254 0.001883
-0.001607 0.00026 0.001887
-0.001583 0.000262 0.001896
-0.001562 0.000263 0.001908
-0.001542 0.000261 0.001923
-0.002189 0.00066 0.002051
-0.002302 0.000579 0.001921
-0.002194 0.000548 0.002055
-0.002228 0.00052 0.002019
-0.002538 0.000651 0.000449
-0.001556 0.000106 0.002311
-0.00156 8.4e-05 0.002364
-0.001562 6.5e-05 0.002412
-0.001561 4.8e-05 0.002456
-0.001552 3.8e-05 0.002488
-0.001537 3.3e-05 0.002511
-0.001519 3e-05 0.002528
-0.0015 2.9e-05 0.002544
-0.00148 2.9e-05 0.002558
-0.001459 2.8e-05 0.002571
-0.001438 2.9e-05 0.002584
-0.001416 3e-05 0.002595
-0.001394 3.1e-05 0.002606
-0.001371 3.3e-05 0.002616
-0.000908 -2.9e-05 0.001892
-0.002293 0.000438 0.001945
-0.00206 5.5e-05 0.00205
-0.002026 6.7e-05 0.002041
-0.001991 7.9e-05 0.002032
-0.001955 9.2e-05 0.002021
-0.00192 0.000105 0.002011
-0.001884 0.000118 0.002
-0.001845 0.000134 0.001985
-0.0018 0.000155 0.001961
-0.001753 0.000178 0.001933
-0.001704 0.000202 0.001902
-0.001664 0.000219 0.001885
-0.001634 0.000227 0.001883
-0.001607 0.000232 0.001887
-0.001583 0.000235 0.001896
-0.001562 0.000236 0.001908
-0.001542 0.000234 0.001923
-0.002244 0.000709 0.001739
-0.00226 0.000575 0.001982
-0.002174 0.000551 0.002071
-0.001491 0.000706 0.001996
-0.001556 7.9e-05 0.00231
-0.00156 5.8e-05 0.002363
-0.00156 4e-05 0.002409
-0.001555 2.6e-05 0.002447
-0.001542 2e-05 0.002472
-0.001525 1.6e-05 0.002492
-0.001506 1.4e-05 0.002508
-0.001486 1.4e-05 0.002522
-0.001465 1.4e-05 0.002535
-0.001445 1.3e-05 0.002549
-0.001424 1.3e-05 0.002562
-0.001403 1.4e-05 0.002575
-0.001381 1.5e-05 0.002586
-0.001358 1.7e-05 0.002597
-0.002264 0.000578 0.001789
-0.002057 3e-05 0.002044
-0.002025 4.1e-05 0.002038
-0.001991 5.2e-05 0.002031
-0.001955 6.5e-05 0.002021
-0.00192 7.8e-05 0.002012
-0.001883 9.1e-05 0.002003
-0.001845 0.000107 0.001985
-0.0018 0.000128 0.001961
-0.001753 0.00015 0.001933
-0.001704 0.000175 0.001901
-0.001664 0.000192 0.001884
-0.001634 0.0002 0.001883
-0.001607 0.000205 0.001887
-0.001583 0.000208 0.001896
-0.001562 0.000208 0.001908
-0.001542 0.000207 0.001923
-0.002137 0.000672 0.002071
-0.002276 0.000575 0.001964
-0.002761 0.00066 0.001176
-0.002264 0.000523 0.00179
-0.002277 0.000465 0.001964
-0.001528 0.000112 0.002175
-0.001555 5.2e-05 0.00231
-0.001558 3.2e-05 0.00236
-0.001554 1.8e-05 0.002399
-0.001542 1e-05 0.002426
-0.001525 6e-06 0.002446
-0.001506 5e-06 0.002462
-0.001485 6e-06 0.002474
-0.001467 3e-06 0.002492
-0.001449 0.0 0.00251
-0.001428 1e-06 0.002522
-0.001403 5e-06 0.002529
-0.001381 6e-06 0.002541
-0.002277 0.000493 0.001964
-0.002047 1.2e-05 0.002028
-0.00202 1.8e-05 0.00203
-0.001989 2.7e-05 0.002027
-0.001954 3.9e-05 0.002018
-0.00192 5.1e-05 0.002011
-0.001883 6.4e-05 0.002003
-0.001799 0.000101 0.00196
-0.001753 0.000124 0.001932
-0.001703 0.000149 0.0019
-0.001664 0.000165 0.001885
-0.001633 0.000173 0.001883
-0.001607 0.000178 0.001887
-0.001583 0.000181 0.001896
-0.001562 0.000181 0.001908
-0.001542 0.00018 0.001923
-0.002289 0.000631 0.001942
-0.002194 0.000575 0.002055
-0.002302 0.000551 0.001921
-0.002282 0.000503 0.001838
-0.001528 8.5e-05 0.002176
-0.001546 5.1e-05 0.002249
-0.001553 2.7e-05 0.002306
-0.001549 1.3e-05 0.002346
-0.001517 4e-06 0.002388
-0.001498 3e-06 0.002403
-0.001477 3e-06 0.002417
-0.001456 3e-06 0.00243
-0.001437 2e-06 0.002445
-0.001417 1e-06 0.00246
-0.001271 3e-06 0.002552
-0.002345 0.000681 0.001271
-0.00222 0.000688 0.002013
-0.002003 6e-06 0.002004
-0.001978 9e-06 0.002011
-0.001949 1.6e-05 0.002011
-0.001918 2.5e-05 0.002008
-0.001882 3.7e-05 0.002002
-0.001847 5.1e-05 0.001989
-0.0018 7.4e-05 0.00196
-0.001703 0.000121 0.0019
-0.001664 0.000137 0.001885
-0.001633 0.000146 0.001882
-0.001607 0.000151 0.001887
-0.001583 0.000154 0.001895
-0.001562 0.000154 0.001908
-0.001542 0.000153 0.001923
-0.002091 0.000691 0.002063
-0.002244 0.000602 0.002
-0.002296 0.000565 0.001883
-0.002261 0.000465 0.001983
-0.001547 2.4e-05 0.00225
-0.001542 9e-06 0.00229
-0.001528 4e-06 0.002313
-0.001508 3e-06 0.002327
-0.001487 3e-06 0.002341
-0.001467 3e-06 0.002354
-0.001446 3e-06 0.002367
-0.001425 3e-06 0.002381
-0.001405 3e-06 0.002395
-0.001384 3e-06 0.002407
-0.001362 3e-06 0.00242
-0.00093 -2.9e-05 0.001879
-0.001239 2e-06 0.002501
-0.001218 3e-06 0.002514
-0.001197 4e-06 0.002527
-0.002297 0.0007 0.001262
-0.002211 0.000521 0.002038
-0.002264 0.000659 0.001789
-0.001953 3e-06 0.001972
-0.001932 3e-06 0.001985
-0.001908 6e-06 0.001993
-0.001879 1.3e-05 0.001994
-0.001846 2.4e-05 0.001987
-0.0018 4.6e-05 0.001961
-0.001752 7e-05 0.001931
-0.001704 9.4e-05 0.001901
-0.001664 0.00011 0.001885
-0.001633 0.000119 0.001883
-0.001606 0.000124 0.001886
-0.001583 0.000127 0.001895
-0.001562 0.000127 0.001908
-0.001542 0.000126 0.001923
-0.002228 0.000629 0.002019
-0.002227 0.000602 0.002019
-0.002946 0.000624 0.000325
-0.002244 0.000546 0.001739
-0.001534 7e-06 0.002231
-0.00152 2e-06 0.002254
-0.0015 1e-06 0.002269
-0.001481 -0.0 0.002285
-0.001436 2e-06 0.002307
-0.001417 1e-06 0.002322
-0.001397 0.0 0.002336
-0.001376 0.0 0.002349
-0.001334 1e-06 0.002375
-0.001315 -0.0 0.002391
-0.000951 -3e-05 0.001867
-0.00121 0.0 0.002457
-0.00119 -1e-06 0.002471
-0.001169 -0.0 0.002484
-0.001147 2e-06 0.002494
-0.001116 1e-05 0.002491
-0.002428 0.000622 0.00128
-0.001603 0.000749 0.001899
-0.002244 0.000493 0.002001
-0.002075 0.000758 0.001329
-0.002213 0.000575 0.001683
-0.00186 3e-06 0.001964
-0.001835 6e-06 0.001971
-0.00175 4.4e-05 0.001929
-0.001704 6.7e-05 0.001901
-0.001664 8.3e-05 0.001885
-0.001633 9.2e-05 0.001882
-0.001606 9.7e-05 0.001886
-0.001583 0.0001 0.001895
-0.001561 0.0001 0.001907
-0.002242 0.000657 0.001999
-0.00221 0.00063 0.002037
-0.002244 0.000654 0.001739
-0.002245 0.000627 0.00174
-0.002303 0.000497 0.001921
-0.001524 6e-06 0.00217
-0.00151 1e-06 0.002193
-0.001488 2e-06 0.002205
-0.001467 2e-06 0.002218
-0.001446 2e-06 0.002231
-0.001425 3e-06 0.002243
-0.001404 3e-06 0.002256
-0.001343 2e-06 0.002298
-0.001301 2e-06 0.002323
-0.001281 1e-06 0.002338
-0.00126 1e-06 0.002352
-0.001158 1e-06 0.00242
-0.001136 1e-06 0.002432
-0.001115 2e-06 0.002444
-0.001092 3e-06 0.002455
-0.002799 0.000471 0.001086
-0.002907 0.000641 0.000344
-0.001577 0.000755 0.001909
-0.002296 0.00062 0.001882
-0.002281 0.000639 0.001837
-0.002276 0.000602 0.001964
-0.002261 0.000493 0.001983
-0.002391 0.000662 0.001279
-0.001753 1.5e-05 0.001933
-0.001703 4e-05 0.001901
-0.001664 5.6e-05 0.001885
-0.001633 6.4e-05 0.001883
-0.001606 7e-05 0.001886
-0.001582 7.3e-05 0.001895
-0.001561 7.3e-05 0.001907
-0.002244 0.000629 0.002001
-0.002091 0.000663 0.002063
-0.00204 0.000658 0.002049
-0.00149 0.000741 0.002056
-0.001501 0.000724 0.0021
-0.001502 -2e-06 0.002136
-0.001481 -1e-06 0.002147
-0.00146 -1e-06 0.002161
-0.001439 -1e-06 0.002174
-0.001418 -1e-06 0.002187
-0.001398 -1e-06 0.002201
-0.001377 -1e-06 0.002214
-0.001356 -1e-06 0.002227
-0.000972 -3e-05 0.001855
-0.001252 -0.0 0.002292
-0.001231 -0.0 0.002306
-0.001189 0.0 0.002331
-0.001168 0.0 0.002344
-0.001146 1e-06 0.002356
-0.001126 1e-06 0.00237
-0.001105 1e-06 0.002383
-0.001084 2e-06 0.002395
-0.001063 2e-06 0.002409
-0.001924 1e-06 0.001788
-0.001903 1e-06 0.001802
-0.001483 0.000726 0.002023
-0.001863 -0.0 0.001831
-0.001843 -1e-06 0.001845
-0.002301 0.000607 0.00192
-0.002211 0.000493 0.002038
-0.001783 -1e-06 0.001889
-0.001762 -2e-06 0.001902
-0.002292 0.000493 0.001945
-0.001664 2.9e-05 0.001885
-0.001633 3.7e-05 0.001882
-0.001606 4.3e-05 0.001887
-0.001582 4.6e-05 0.001895
-0.001561 4.6e-05 0.001907
-0.002171 0.000634 0.002068
-0.002174 0.000578 0.00207
-0.00209 0.000637 0.002063
-0.002167 0.000696 0.001246
-0.000994 -3.1e-05 0.001843
-0.001015 -3.1e-05 0.00183
-0.001388 -2e-06 0.002139
-0.001368 -2e-06 0.002154
-0.001036 -3.2e-05 0.001818
-0.001057 -3.2e-05 0.001804
-0.001078 -3.2e-05 0.001791
-0.001161 -2e-06 0.002287
-0.00114 -3e-06 0.0023
-0.001119 -2e-06 0.002313
-0.001098 -2e-06 0.002326
-0.001077 -2e-06 0.00234
-0.001057 -3e-06 0.002354
-0.001099 -3.2e-05 0.001778
-0.001897 -3e-06 0.001747
-0.001876 -2e-06 0.001759
-0.001857 -4e-06 0.001775
-0.001837 -5e-06 0.00179
-0.001813 -2e-06 0.001799
-0.002092 0.000757 0.001311
-0.001749 -1e-06 0.001836
-0.001728 -0.0 0.001848
-0.001707 -0.0 0.001861
-0.00166 5e-06 0.001878
-0.001632 1.1e-05 0.001881
-0.001606 1.6e-05 0.001885
-0.001582 1.8e-05 0.001894
-0.002709 0.000556 0.001261
-0.002765 0.000607 0.001017
-0.002228 0.000466 0.00202
-0.002194 0.000466 0.002056
-0.002142 0.000702 0.001258
-0.001119 -3.2e-05 0.001765
-0.001393 2e-06 0.002056
-0.001333 1e-06 0.002098
-0.001311 1e-06 0.002111
-0.001145 2e-06 0.002217
-0.001125 1e-06 0.002231
-0.001104 1e-06 0.002245
-0.001083 1e-06 0.002257
-0.001063 1e-06 0.002272
-0.001043 0.0 0.002286
-0.000982 -1e-06 0.002328
-0.000949 1e-05 0.002322
-0.001862 0.0 0.001691
-0.001841 0.0 0.001705
-0.001819 1e-06 0.001716
-0.00114 -3.2e-05 0.001752
-0.002428 0.000649 0.00128
-0.001714 2e-06 0.00178
-0.001693 2e-06 0.001794
-0.001672 3e-06 0.001807
-0.001652 2e-06 0.001821
-0.001632 2e-06 0.001835
-0.001611 2e-06 0.001848
-0.001589 3e-06 0.00186
-0.001161 -3.2e-05 0.001738
-0.002792 0.000589 0.001055
-0.002797 0.000581 0.001085
-0.001445 2e-06 0.001954
-0.001425 2e-06 0.001969
-0.001405 1e-06 0.001982
-0.001363 1e-06 0.00201
-0.001343 1e-06 0.002023
-0.001321 1e-06 0.002035
-0.001302 0.0 0.00205
-0.001281 0.0 0.002064
-0.001261 0.0 0.002078
-0.001135 1e-06 0.002155
-0.001114 2e-06 0.002168
-0.001093 1e-06 0.002182
-0.001073 1e-06 0.002195
-0.001052 1e-06 0.002209
-0.001031 2e-06 0.002221
-0.00101 2e-06 0.002234
-0.000947 2e-06 0.002274
-0.000927 2e-06 0.002287
-0.001181 -3.2e-05 0.001725
-0.002719 0.00055 0.000961
-0.002201 0.000713 0.001244
-0.002247 0.000694 0.00125
-0.002293 0.000466 0.001945
-0.002208 0.000723 0.002002
-0.001686 -1e-06 0.001736
-0.001666 -1e-06 0.001751
-0.001646 -1e-06 0.001765
-0.001626 -2e-06 0.001779
-0.001605 -2e-06 0.001793
-0.001585 -3e-06 0.001807
-0.00209 0.000501 0.002063
-0.001545 -4e-06 0.001836
-0.001525 -5e-06 0.001851
-0.001202 -3.2e-05 0.001711
-0.002139 0.000481 0.002073
-0.002075 0.000731 0.001329
-0.001222 -3.1e-05 0.001697
-0.001423 -6e-06 0.00192
-0.001403 -6e-06 0.001934
-0.001382 -6e-06 0.001948
-0.001362 -7e-06 0.001961
-0.001341 -7e-06 0.001975
-0.001321 -7e-06 0.001988
-0.0013 -7e-06 0.002002
-0.00128 -8e-06 0.002016
-0.001259 -8e-06 0.00203
-0.001238 -7e-06 0.002042
-0.001027 -4e-06 0.002169
-0.000793 1e-06 0.002306
-0.000771 2e-06 0.002318
-0.001243 -3.1e-05 0.001683
-0.002387 0.000574 -0.001325
-0.002791 0.000579 0.001109
-0.002211 0.000466 0.002038
-0.002619 0.000483 0.001274
-0.001703 -6e-06 0.001671
-0.001684 -8e-06 0.001687
-0.001664 -8e-06 0.001702
-0.001643 -8e-06 0.001715
-0.001623 -9e-06 0.001729
-0.001601 -8e-06 0.001741
-0.001579 -7e-06 0.001753
-0.002282 0.000557 0.001838
-0.001597 0.000726 0.001893
-0.001517 -7e-06 0.001792
-0.001496 -7e-06 0.001805
-0.001454 -6e-06 0.001831
-0.001434 -6e-06 0.001845
-0.002296 0.000484 0.001882
-0.001369 -5e-06 0.001882
-0.00135 -6e-06 0.001897
-0.001329 -6e-06 0.00191
-0.001308 -6e-06 0.001923
-0.001287 -5e-06 0.001935
-0.001267 -6e-06 0.001951
-0.001081 -6e-06 0.002071
-0.001059 -5e-06 0.002082
-0.000936 -7e-06 0.002165
-0.000915 -6e-06 0.002177
-0.000895 -7e-06 0.002192
-0.001263 -3.1e-05 0.001669
-0.00077 -7e-06 0.00227
-0.000747 -5e-06 0.00228
-0.000725 -3e-06 0.002291
-0.002253 0.000688 0.001975
-0.002267 0.000689 0.001955
-0.001692 -6e-06 0.001609
-0.001671 -6e-06 0.001622
-0.001651 -6e-06 0.001636
-0.001283 -3e-05 0.001655
-0.001481 -3e-06 0.001737
-0.001461 -3e-06 0.00175
-0.00144 -3e-06 0.001763
-0.001419 -3e-06 0.001776
-0.001398 -2e-06 0.001788
-0.002277 0.000723 0.001834
-0.002244 0.000519 0.001739
-0.002142 0.000729 0.001258
-0.001293 -2e-06 0.001854
-0.001273 -2e-06 0.001867
-0.002295 0.000457 0.001882
-0.002132 0.000718 0.001264
-0.001303 -3e-05 0.001641
-0.001044 -1e-06 0.002013
-0.001025 -3e-06 0.002029
-0.001005 -2e-06 0.002043
-0.000942 -3e-06 0.002081
-0.000923 -4e-06 0.002098
-0.0009 -3e-06 0.002108
-0.000882 -5e-06 0.002125
-0.00086 -4e-06 0.002137
-0.001323 -2.9e-05 0.001626
-0.00228 0.000691 0.001934
-0.002237 0.000688 0.001995
-0.001657 -3e-06 0.001554
-0.001636 -2e-06 0.001566
-0.001614 -2e-06 0.001579
-0.001593 -1e-06 0.001591
-0.001572 -1e-06 0.001603
-0.001551 -1e-06 0.001617
-0.001485 0.000715 0.002057
-0.002289 0.000706 0.001876
-0.001488 0.0 0.001655
-0.001467 -0.0 0.001669
-0.001448 -1e-06 0.001684
-0.001427 -1e-06 0.001697
-0.001406 -1e-06 0.00171
-0.001385 -1e-06 0.001723
-0.001365 -3e-06 0.001738
-0.00219 0.000724 0.002019
-0.002391 0.000635 0.001279
-0.001484 0.000753 0.002024
-0.002516 0.00058 0.00128
-0.001012 -2e-06 0.001963
-0.000991 -1e-06 0.001976
-0.000971 -1e-06 0.00199
-0.00095 -1e-06 0.002003
-0.000929 -1e-06 0.002015
-0.000908 -1e-06 0.002029
-0.000887 -1e-06 0.002042
-0.000866 -0.0 0.002054
-0.000844 0.0 0.002066
-0.000744 -2e-06 0.002138
-0.000722 -1e-06 0.002149
-0.001343 -2.8e-05 0.001612
-0.002201 0.00074 0.001244
-0.002248 0.000721 0.001251
-0.002295 0.000511 0.001882
-0.001623 -2e-06 0.001501
-0.001603 -1e-06 0.001515
-0.001583 -2e-06 0.00153
-0.001563 -3e-06 0.001544
-0.001543 -3e-06 0.001559
-0.001523 -4e-06 0.001573
-0.001503 -4e-06 0.001587
-0.001483 -5e-06 0.001602
-0.001462 -5e-06 0.001615
-0.001442 -5e-06 0.001629
-0.001422 -6e-06 0.001643
-0.001402 -6e-06 0.001657
-0.001382 -7e-06 0.001672
-0.001361 -7e-06 0.001685
-0.001341 -8e-06 0.001699
-0.001321 -8e-06 0.001714
-0.002243 0.000737 0.001738
-0.002193 0.000603 0.002055
-0.002074 0.000703 0.001329
-0.00273 0.000692 0.001216
-0.002281 0.000476 0.001837
-0.001574 0.00073 0.001905
-0.001177 -1e-05 0.001809
-0.001009 -8e-06 0.001913
-0.000989 -8e-06 0.001926
-0.000967 -7e-06 0.001938
-0.000946 -7e-06 0.001951
-0.000925 -6e-06 0.001963
-0.000903 -6e-06 0.001976
-0.000882 -5e-06 0.001988
-0.00086 -5e-06 0.002
-0.00084 -5e-06 0.002014
-0.000711 -1e-06 0.002087
-0.00069 -1e-06 0.002099
-0.002091 0.000555 0.002063
-0.002174 0.000523 0.002071
-0.002169 0.00075 0.001248
-0.00213 0.000704 0.002064
-0.00216 0.000695 0.002058
-0.00158 -8e-06 0.001479
-0.00156 -9e-06 0.001493
-0.00154 -1e-05 0.001508
-0.00152 -1.1e-05 0.001523
-0.0015 -1.2e-05 0.001537
-0.002266 0.000713 0.001791
-0.002294 0.000675 0.001881
-0.001441 -1.4e-05 0.001582
-0.001422 -1.5e-05 0.001597
-0.001401 -1.5e-05 0.001611
-0.001381 -1.6e-05 0.001625
-0.001361 -1.6e-05 0.001639
-0.001341 -1.7e-05 0.001654
-0.001321 -1.7e-05 0.001668
-0.0013 -1.8e-05 0.001682
-0.00128 -1.8e-05 0.001696
-0.00126 -1.8e-05 0.00171
-0.001239 -1.9e-05 0.001724
-0.001219 -1.9e-05 0.001737
-0.001198 -1.9e-05 0.001751
-0.001178 -1.9e-05 0.001765
-0.001157 -1.9e-05 0.001778
-0.001136 -1.9e-05 0.001791
-0.001116 -1.9e-05 0.001805
-0.001095 -1.9e-05 0.001818
-0.001074 -1.9e-05 0.001831
-0.001053 -1.9e-05 0.001844
-0.001032 -1.9e-05 0.001856
-0.00101 -1.8e-05 0.001869
-0.00099 -1.8e-05 0.001882
-0.000968 -1.8e-05 0.001894
-0.000947 -1.7e-05 0.001907
-0.000926 -1.7e-05 0.001919
-0.000904 -1.6e-05 0.001931
-0.000883 -1.6e-05 0.001944
-0.00214 0.000535 0.002073
-0.002194 0.000521 0.002056
-0.002212 0.000439 0.002038
-0.002391 0.000608 0.001278
-0.002732 0.000523 0.001244
-0.002763 0.000441 0.001178
-0.002303 0.00047 0.001921
-0.002244 0.00052 0.002001
-0.002276 0.00052 0.001964
-0.002251 0.000746 0.001254
-0.002297 0.000727 0.001262
-0.002264 0.000496 0.001789
-0.002261 0.000438 0.001983
-0.001512 0.000678 0.002147
-0.002087 0.000706 0.001307
