0.001151 0.000617 -0.00231
0.001803 0.000455 -0.002381
0.001608 0.000563 -0.002299
0.001816 0.000707 -0.002355
0.000932 -6e-06 -0.002222
0.000908 -6e-06 -0.002229
0.000885 -7e-06 -0.002236
0.000861 -7e-06 -0.002243
0.000837 -7e-06 -0.002251
0.000814 -8e-06 -0.002259
0.00079 -8e-06 -0.002265
0.000767 -9e-06 -0.002273
0.001688 0.000501 -0.002336
0.001767 0.000414 -0.002369
0.001869 0.000398 -0.002347
0.000672 -9e-06 -0.002301
0.000649 -9e-06 -0.002307
0.000625 -9e-06 -0.002313
0.000601 -9e-06 -0.002319
0.000577 -8e-06 -0.002325
0.000553 -8e-06 -0.002332
0.000529 -8e-06 -0.002339
0.000506 -8e-06 -0.002345
0.000482 -8e-06 -0.002351
0.000458 -8e-06 -0.002357
0.000434 -8e-06 -0.002364
0.00041 -7e-06 -0.002368
0.000386 -6e-06 -0.002374
0.000362 -6e-06 -0.00238
0.000338 -5e-06 -0.002386
0.000314 -5e-06 -0.002392
0.00029 -5e-06 -0.002398
0.000266 -4e-06 -0.002403
0.000242 -4e-06 -0.002408
0.000218 -4e-06 -0.002415
0.000194 -3e-06 -0.00242
0.00017 -2e-06 -0.002424
0.000122 -2e-06 -0.002438
9.9e-05 -2e-06 -0.002444
7.5e-05 -1e-06 -0.00245
5.1e-05 -1e-06 -0.002456
2.7e-05 -1e-06 -0.002461
0.001689 0.000528 -0.002336
0.001936 0.000592 -0.002292
0.001871 0.000683 -0.002333
0.001649 0.000708 -0.002319
0.001729 0.000674 -0.002355
0.001132 -9e-06 -0.002113
0.001108 -1e-05 -0.002122
0.001085 -1.1e-05 -0.00213
0.001061 -1.1e-05 -0.002136
0.001897 0.000541 -0.002324
0.001076 0.000523 -0.002798
0.001649 0.000545 -0.002318
0.000943 -1.1e-05 -0.002169
0.000919 -1.2e-05 -0.002177
0.000895 -1.1e-05 -0.002182
0.00087 -9e-06 -0.002185
0.000846 -8e-06 -0.00219
0.000822 -1e-05 -0.002196
0.000798 -8e-06 -0.002202
0.000775 -8e-06 -0.002209
0.000752 -9e-06 -0.002218
0.001262 0.000694 -0.002114
0.000657 -1e-05 -0.002246
0.000633 -9e-06 -0.002252
0.000609 -8e-06 -0.002255
0.000586 -9e-06 -0.002264
0.000562 -1e-05 -0.002272
0.000538 -9e-06 -0.002278
0.000514 -9e-06 -0.002283
0.00049 -9e-06 -0.00229
0.000466 -8e-06 -0.002295
0.000443 -9e-06 -0.002304
0.00042 -1e-05 -0.002312
0.000396 -9e-06 -0.002317
0.000373 -1.1e-05 -0.002327
0.000349 -1e-05 -0.002332
0.000325 -1e-05 -0.002338
0.000301 -1e-05 -0.002346
0.000278 -1.1e-05 -0.002353
0.000254 -1e-05 -0.002359
0.000231 -1.1e-05 -0.002367
0.000207 -1e-05 -0.002373
0.000183 -1e-05 -0.002379
0.000159 -9e-06 -0.002385
0.000111 -8e-06 -0.002395
8.6e-05 -8e-06 -0.0024
6.2e-05 -7e-06 -0.002405
3.8e-05 -5e-06 -0.002409
0.001121 0.000439 -0.002777
0.001165 0.000548 -0.002473
0.001161 0.000515 -0.002561
0.001162 0.000663 -0.002186
0.001525 0.000545 -0.002259
0.001077 0.000469 -0.002799
0.001092 -9e-06 -0.002063
0.000614 -2.9e-05 -0.001998
0.000995 -6e-06 -0.002082
0.000972 -6e-06 -0.00209
0.000924 -6e-06 -0.002102
0.0009 -6e-06 -0.002109
0.000638 -2.9e-05 -0.001991
0.000805 -5e-06 -0.002134
0.000782 -5e-06 -0.002141
0.000757 -5e-06 -0.002146
0.000734 -5e-06 -0.002154
0.001955 0.00073 -0.002176
0.001567 0.000554 -0.002279
0.001288 0.000689 -0.00211
0.001121 0.000494 -0.002776
0.000615 -6e-06 -0.002185
0.000591 -5e-06 -0.002192
0.000568 -5e-06 -0.0022
0.000544 -5e-06 -0.002207
0.00052 -5e-06 -0.002213
0.000497 -6e-06 -0.002221
0.000473 -5e-06 -0.002227
0.00045 -6e-06 -0.002236
0.000662 -2.9e-05 -0.001984
0.000331 -6e-06 -0.002268
0.000307 -6e-06 -0.002274
0.000283 -6e-06 -0.00228
0.00026 -6e-06 -0.002287
0.000236 -6e-06 -0.002294
0.000213 -7e-06 -0.002304
0.000189 -7e-06 -0.00231
0.000166 -7e-06 -0.002317
0.000142 -9e-06 -0.002325
0.000685 -2.9e-05 -0.001977
0.000709 -2.8e-05 -0.00197
0.001163 0.000717 -0.002188
0.00115 0.000709 -0.002214
0.001026 -3e-06 -0.002007
0.001002 -3e-06 -0.002013
0.000978 -3e-06 -0.002021
0.000954 -3e-06 -0.002026
0.000732 -2.8e-05 -0.001962
0.002509 0.000539 -0.001648
0.002457 0.000551 -0.001667
0.001928 0.000679 -0.002285
0.001262 0.000667 -0.002114
0.000788 -3e-06 -0.002073
0.000764 -2e-06 -0.002078
0.000741 -3e-06 -0.002085
0.000717 -3e-06 -0.002093
0.000694 -4e-06 -0.002101
0.001567 0.000716 -0.00228
0.002379 0.000634 -0.001663
0.002753 0.000679 -0.000396
0.000575 -4e-06 -0.002134
0.000551 -3e-06 -0.00214
0.000528 -3e-06 -0.002147
0.000504 -3e-06 -0.002152
0.00048 -3e-06 -0.002159
0.000456 -3e-06 -0.002165
0.000756 -2.7e-05 -0.001955
0.000314 -3e-06 -0.002205
0.00029 -3e-06 -0.002212
0.000266 -3e-06 -0.002219
0.000242 -3e-06 -0.002224
0.000219 -3e-06 -0.002232
0.000195 -4e-06 -0.002239
0.000171 -3e-06 -0.002245
0.000148 -4e-06 -0.002254
7.7e-05 -4e-06 -0.002273
0.000779 -2.7e-05 -0.001947
0.001849 0.000451 -0.002362
0.001176 -3e-06 -0.001904
0.001152 -2e-06 -0.00191
0.001129 -4e-06 -0.001919
0.001946 0.000722 -0.002237
0.001766 0.000524 -0.002368
0.001058 -4e-06 -0.00194
0.001034 -4e-06 -0.001945
0.001011 -4e-06 -0.001952
0.000987 -4e-06 -0.001959
0.000964 -5e-06 -0.001968
0.002166 0.000634 -0.001637
0.001077 0.00055 -0.002799
0.00116 0.000734 -0.002558
0.001914 0.000726 -0.001973
0.001146 0.000472 -0.002677
0.001288 0.000662 -0.00211
0.001766 0.000687 -0.00237
0.000752 -8e-06 -0.002034
0.000728 -8e-06 -0.00204
0.000705 -8e-06 -0.002047
0.000681 -8e-06 -0.002053
0.000657 -8e-06 -0.00206
0.001931 0.000716 -0.00226
0.001152 0.000513 -0.00264
0.00114 0.000486 -0.002714
0.000563 -9e-06 -0.002088
0.000538 -9e-06 -0.002094
0.000515 -9e-06 -0.002101
0.000491 -8e-06 -0.002107
0.000467 -8e-06 -0.002113
0.0003 -6e-06 -0.002155
0.000276 -5e-06 -0.00216
0.000252 -5e-06 -0.002166
0.000228 -5e-06 -0.002172
0.000204 -5e-06 -0.002179
0.00018 -4e-06 -0.002185
0.000156 -4e-06 -0.00219
0.000132 -4e-06 -0.002197
8.4e-05 -2e-06 -0.002207
6.1e-05 -3e-06 -0.002214
0.000803 -2.7e-05 -0.00194
0.001869 0.000453 -0.002347
0.001792 0.000709 -0.002363
0.001139 -6e-06 -0.001861
0.001115 -7e-06 -0.001869
0.001092 -7e-06 -0.001877
0.001069 -8e-06 -0.001885
0.001046 -9e-06 -0.001894
0.001022 -1e-05 -0.001902
0.000999 -1e-05 -0.00191
0.000976 -1.1e-05 -0.001919
0.002594 0.000506 -0.001483
0.001288 0.000716 -0.00211
0.001238 0.000723 -0.002123
0.001567 0.000581 -0.002279
0.001153 0.000703 -0.00264
0.000835 -1.5e-05 -0.001965
0.000812 -1.5e-05 -0.001973
0.000788 -1.6e-05 -0.00198
0.000765 -1.6e-05 -0.001988
0.000741 -1.7e-05 -0.001995
0.000718 -1.7e-05 -0.002003
0.000694 -1.7e-05 -0.00201
0.000671 -1.7e-05 -0.002017
0.000647 -1.8e-05 -0.002024
0.000623 -1.8e-05 -0.002031
0.000599 -1.8e-05 -0.002037
0.000576 -1.8e-05 -0.002044
0.000552 -1.8e-05 -0.002051
0.000528 -1.8e-05 -0.002057
0.000505 -1.8e-05 -0.002063
0.000481 -1.8e-05 -0.00207
0.000457 -1.8e-05 -0.002077
0.000433 -1.7e-05 -0.002082
0.000409 -1.7e-05 -0.002088
0.000385 -1.6e-05 -0.002094
0.000361 -1.6e-05 -0.002099
0.000337 -1.5e-05 -0.002105
0.000313 -1.5e-05 -0.00211
0.000289 -1.4e-05 -0.002116
0.000265 -1.4e-05 -0.002121
0.000241 -1.3e-05 -0.002127
0.000217 -1.2e-05 -0.002132
0.000193 -1.2e-05 -0.002138
0.000169 -1.1e-05 -0.002143
0.000144 -1e-05 -0.002148
0.00012 -1e-05 -0.002152
9.6e-05 -9e-06 -0.002157
7.2e-05 -8e-06 -0.002162
4.8e-05 -7e-06 -0.002167
0.002048 0.00066 -0.001597
0.001077 0.000441 -0.002799
0.001238 0.000669 -0.002123
0.001767 0.000442 -0.002369
0.00185 0.000424 -0.002362
0.001524 0.000572 -0.002258
0.0011 0.000494 -0.00279
0.001869 0.00048 -0.002347
0.001133 0.000528 -0.002749
0.001869 0.000665 -0.001867
0.001829 0.000451 -0.002376
0.001926 0.000707 -0.002018
0.001262 0.000721 -0.002114
0.001355 0.000694 -0.002125
0.001146 0.00069 -0.002677
0.000826 -2.6e-05 -0.001932
0.001649 0.000463 -0.002319
0.001608 0.000481 -0.002299
0.001567 0.000499 -0.002279
0.001525 0.000518 -0.002259
0.001354 0.000613 -0.002123
0.001318 0.000626 -0.002112
0.001288 0.000635 -0.00211
0.001262 0.00064 -0.002114
0.001238 0.000642 -0.002123
0.001216 0.000643 -0.002134
0.001196 0.000642 -0.002149
0.001178 0.00064 -0.002165
0.001161 0.000636 -0.002186
0.00115 0.000628 -0.002214
0.001144 0.000614 -0.002251
0.001151 0.000589 -0.00231
0.001158 0.000565 -0.002368
0.001163 0.000541 -0.002424
0.001165 0.000521 -0.002473
0.001164 0.000503 -0.002519
0.001161 0.000488 -0.00256
0.001157 0.000473 -0.002601
0.001152 0.000459 -0.002639
0.001147 0.000445 -0.002678
0.001141 0.000432 -0.002715
0.001134 0.00042 -0.00275
0.001121 0.000412 -0.002777
0.0011 0.000412 -0.00279
0.001077 0.000414 -0.002799
0.002111 0.000631 -0.001621
0.002211 0.000589 -0.001644
0.001869 0.000638 -0.001867
0.001966 0.000604 -0.002219
0.002297 0.000691 -0.001656
0.001958 0.000681 -0.002245
0.001927 0.000375 -0.0023
0.001907 0.000374 -0.002316
0.001888 0.000372 -0.002331
0.001869 0.000371 -0.002347
0.00185 0.00037 -0.002363
0.001829 0.000369 -0.002377
0.001803 0.000374 -0.002381
0.001767 0.000387 -0.002369
0.001728 0.000403 -0.002353
0.001688 0.00042 -0.002336
0.001649 0.000436 -0.002318
0.001607 0.000454 -0.002299
0.001567 0.000472 -0.00228
0.001525 0.00049 -0.002259
0.001415 0.000551 -0.002174
0.001356 0.000584 -0.002126
0.001318 0.000599 -0.002112
0.001288 0.000608 -0.00211
0.001262 0.000612 -0.002114
0.001238 0.000615 -0.002122
0.001216 0.000616 -0.002134
0.001196 0.000615 -0.002148
0.001178 0.000613 -0.002165
0.001162 0.000609 -0.002186
0.00115 0.0006 -0.002214
0.001144 0.000587 -0.002252
0.001151 0.000562 -0.00231
0.001159 0.000537 -0.00237
0.001162 0.000515 -0.002422
0.001165 0.000494 -0.002473
0.001164 0.000476 -0.002519
0.001161 0.00046 -0.002561
0.001157 0.000446 -0.0026
0.001152 0.000431 -0.00264
0.001147 0.000417 -0.002678
0.001141 0.000405 -0.002715
0.001134 0.000393 -0.00275
0.001121 0.000385 -0.002777
0.0011 0.000385 -0.00279
0.00249 0.00054 -0.001663
0.001961 0.000617 -0.002182
0.001947 0.000674 -0.002103
0.002548 0.000653 -0.001583
0.001927 0.000348 -0.0023
0.001907 0.000347 -0.002315
0.001888 0.000345 -0.002331
0.001869 0.000344 -0.002347
0.00185 0.000342 -0.002363
0.001829 0.000342 -0.002377
0.001803 0.000347 -0.002381
0.001766 0.00036 -0.002368
0.001728 0.000376 -0.002353
0.001688 0.000393 -0.002335
0.001649 0.000409 -0.002319
0.001607 0.000427 -0.002298
0.001567 0.000445 -0.00228
0.001524 0.000464 -0.002258
0.001474 0.000489 -0.002224
0.001355 0.000558 -0.002124
0.001318 0.000572 -0.002111
0.001288 0.000581 -0.002109
0.001261 0.000585 -0.002114
0.001238 0.000588 -0.002122
0.001216 0.000589 -0.002134
0.001196 0.000588 -0.002148
0.001177 0.000586 -0.002165
0.001161 0.000581 -0.002186
0.00115 0.000573 -0.002214
0.001144 0.000559 -0.002252
0.001151 0.000535 -0.00231
0.001159 0.000509 -0.00237
0.001163 0.000488 -0.002422
0.001165 0.000467 -0.002474
0.001164 0.000449 -0.002519
0.001161 0.000434 -0.00256
0.001157 0.000418 -0.002601
0.001153 0.000404 -0.00264
0.001147 0.00039 -0.002678
0.001141 0.000377 -0.002715
0.001134 0.000365 -0.00275
0.001121 0.000358 -0.002777
0.002696 0.000677 -0.000821
0.001917 0.000594 -0.002308
0.001917 0.000621 -0.002308
0.002379 0.000688 -0.001663
0.001927 0.000321 -0.0023
0.001908 0.000319 -0.002316
0.001889 0.000317 -0.002332
0.001869 0.000316 -0.002348
0.00185 0.000315 -0.002363
0.001829 0.000315 -0.002377
0.001803 0.00032 -0.002381
0.001766 0.000334 -0.002368
0.001728 0.000349 -0.002353
0.001688 0.000366 -0.002335
0.001648 0.000383 -0.002317
0.001608 0.0004 -0.002299
0.001567 0.000417 -0.00228
0.001524 0.000437 -0.002258
0.001474 0.000463 -0.002223
0.001355 0.000531 -0.002124
0.001318 0.000545 -0.002111
0.001288 0.000554 -0.002109
0.001261 0.000558 -0.002113
0.001238 0.000561 -0.002122
0.001216 0.000562 -0.002134
0.001196 0.000561 -0.002148
0.001177 0.000559 -0.002165
0.001161 0.000554 -0.002186
0.00115 0.000546 -0.002214
0.001144 0.000532 -0.002252
0.001158 0.000483 -0.002368
0.001162 0.000461 -0.002422
0.001165 0.00044 -0.002473
0.001164 0.000422 -0.002519
0.00116 0.000407 -0.00256
0.001158 0.00039 -0.002602
0.001153 0.000376 -0.002641
0.001147 0.000363 -0.002678
0.001141 0.00035 -0.002715
0.001135 0.000338 -0.00275
0.001121 0.00033 -0.002777
0.001947 0.000538 -0.002103
0.002397 0.000717 -0.000841
0.001897 0.000623 -0.002323
0.001967 0.000658 -0.002219
0.001927 0.000294 -0.0023
0.001907 0.000292 -0.002316
0.001888 0.000291 -0.002332
0.001869 0.000289 -0.002348
0.00185 0.000288 -0.002363
0.001829 0.000287 -0.002377
0.001803 0.000293 -0.00238
0.001766 0.000306 -0.002368
0.001728 0.000322 -0.002353
0.001689 0.000338 -0.002336
0.001648 0.000355 -0.002318
0.001607 0.000373 -0.002298
0.001567 0.00039 -0.00228
0.001525 0.000409 -0.002259
0.001355 0.000504 -0.002124
0.001318 0.000518 -0.002111
0.001288 0.000526 -0.002109
0.001261 0.000531 -0.002113
0.001238 0.000534 -0.002122
0.001216 0.000534 -0.002134
0.001196 0.000534 -0.002148
0.001177 0.000532 -0.002165
0.001161 0.000527 -0.002186
0.00115 0.000519 -0.002214
0.001145 0.000505 -0.002253
0.001151 0.00048 -0.00231
0.001157 0.000456 -0.002367
0.001162 0.000434 -0.002421
0.001165 0.000413 -0.002473
0.001164 0.000395 -0.002518
0.001161 0.000379 -0.00256
0.001158 0.000363 -0.002603
0.001153 0.000349 -0.002641
0.001147 0.000336 -0.002678
0.001141 0.000323 -0.002715
0.001135 0.000311 -0.00275
0.001121 0.000303 -0.002777
0.001961 0.000508 -0.002182
0.001955 0.000523 -0.002143
0.002538 0.000714 -0.001374
0.002254 0.000681 -0.00165
0.001937 0.000691 -0.00206
0.001947 0.000728 -0.002102
0.001908 0.000265 -0.002316
0.001888 0.000263 -0.002332
0.001869 0.000262 -0.002347
0.00185 0.000261 -0.002363
0.001829 0.00026 -0.002377
0.001803 0.000265 -0.002381
0.001766 0.000279 -0.002368
0.001728 0.000294 -0.002354
0.001688 0.000311 -0.002336
0.001648 0.000328 -0.002317
0.001607 0.000346 -0.002298
0.001567 0.000363 -0.00228
0.001524 0.000382 -0.002258
0.001355 0.000477 -0.002125
0.001318 0.000491 -0.002111
0.001287 0.000499 -0.002109
0.001261 0.000504 -0.002113
0.001237 0.000507 -0.002122
0.001216 0.000507 -0.002134
0.001196 0.000507 -0.002148
0.001177 0.000504 -0.002165
0.001161 0.0005 -0.002186
0.00115 0.000492 -0.002214
0.001144 0.000478 -0.002253
0.00115 0.000454 -0.002309
0.001157 0.00043 -0.002366
0.001162 0.000406 -0.002422
0.001166 0.000384 -0.002475
0.001164 0.000368 -0.002519
0.00116 0.000353 -0.002559
0.001158 0.000336 -0.002603
0.001152 0.000322 -0.00264
0.001147 0.000309 -0.002679
0.001142 0.000296 -0.002715
0.001135 0.000284 -0.00275
0.000852 -2.5e-05 -0.00192
0.002296 0.000584 -0.001654
0.002166 0.000688 -0.001637
0.001875 0.000743 -0.001873
0.001935 0.00062 -0.002291
0.001962 0.000699 -0.002182
0.001908 0.000237 -0.002316
0.001888 0.000236 -0.002332
0.001869 0.000235 -0.002348
0.00185 0.000233 -0.002363
0.001829 0.000233 -0.002376
0.001803 0.000238 -0.002381
0.001766 0.000252 -0.002369
0.001728 0.000267 -0.002353
0.001688 0.000284 -0.002336
0.001648 0.000301 -0.002318
0.001607 0.000319 -0.002298
0.001566 0.000336 -0.00228
0.001525 0.000354 -0.002259
0.001356 0.000449 -0.002126
0.001318 0.000464 -0.002111
0.001287 0.000472 -0.002109
0.001261 0.000477 -0.002113
0.001237 0.000479 -0.002122
0.001216 0.00048 -0.002134
0.001196 0.000479 -0.002148
0.001177 0.000477 -0.002165
0.001161 0.000473 -0.002186
0.00115 0.000464 -0.002214
0.001145 0.00045 -0.002253
0.00115 0.000427 -0.002309
0.001157 0.000402 -0.002366
0.001164 0.000378 -0.002424
0.001165 0.000358 -0.002474
0.001164 0.00034 -0.002519
0.001161 0.000325 -0.00256
0.001157 0.00031 -0.002601
0.001153 0.000295 -0.002641
0.001147 0.000282 -0.002678
0.001142 0.000269 -0.002715
0.001135 0.000256 -0.002751
0.001914 0.000644 -0.001974
0.002418 0.000592 -0.001665
0.002489 0.000595 -0.001663
0.002329 0.000714 -0.000863
0.001908 0.00021 -0.002317
0.001889 0.000209 -0.002332
0.001869 0.000207 -0.002348
0.00185 0.000206 -0.002363
0.001829 0.000206 -0.002376
0.001803 0.000211 -0.00238
0.001767 0.000224 -0.00237
0.001729 0.000239 -0.002356
0.001688 0.000257 -0.002336
0.001648 0.000274 -0.002317
0.001607 0.000292 -0.002298
0.001566 0.000309 -0.002279
0.001524 0.000328 -0.002258
0.001474 0.000354 -0.002224
0.001415 0.000388 -0.002174
0.001356 0.000422 -0.002126
0.001318 0.000437 -0.002111
0.001287 0.000445 -0.002109
0.001261 0.00045 -0.002114
0.001238 0.000452 -0.002122
0.001216 0.000453 -0.002134
0.001196 0.000452 -0.002148
0.001177 0.00045 -0.002165
0.001161 0.000445 -0.002186
0.00115 0.000437 -0.002214
0.001145 0.000423 -0.002253
0.00115 0.0004 -0.002309
0.001164 0.000351 -0.002424
0.001166 0.00033 -0.002475
0.001164 0.000313 -0.002519
0.001161 0.000297 -0.002561
0.001157 0.000282 -0.002601
0.001153 0.000268 -0.002641
0.001148 0.000254 -0.002679
0.001142 0.000241 -0.002715
0.001135 0.000229 -0.00275
0.001121 0.000222 -0.002777
0.000873 -2.6e-05 -0.001908
0.000895 -2.7e-05 -0.001897
0.002907 0.000731 0.000153
0.002456 0.000578 -0.001667
0.002167 0.000715 -0.001638
0.002522 0.000622 -0.001626
0.00248 0.000683 -0.001654
0.001889 0.000181 -0.002332
0.001869 0.00018 -0.002348
0.001849 0.000179 -0.002363
0.001828 0.00018 -0.002375
0.001802 0.000184 -0.00238
0.001766 0.000197 -0.002369
0.001728 0.000213 -0.002353
0.001688 0.00023 -0.002336
0.001648 0.000246 -0.002318
0.001607 0.000265 -0.002298
0.001567 0.000282 -0.00228
0.001524 0.000301 -0.002257
0.001474 0.000327 -0.002223
0.001414 0.000361 -0.002174
0.001355 0.000395 -0.002125
0.001318 0.000409 -0.002111
0.001287 0.000418 -0.002109
0.001261 0.000422 -0.002114
0.001238 0.000425 -0.002122
0.001216 0.000426 -0.002134
0.001196 0.000425 -0.002148
0.001177 0.000423 -0.002165
0.001161 0.000418 -0.002186
0.001149 0.00041 -0.002214
0.001145 0.000395 -0.002254
0.001151 0.000372 -0.00231
0.001157 0.000348 -0.002367
0.001164 0.000323 -0.002425
0.001166 0.000303 -0.002475
0.001164 0.000286 -0.002518
0.001161 0.00027 -0.002561
0.001156 0.000256 -0.0026
0.001153 0.000241 -0.002641
0.001147 0.000227 -0.002679
0.001141 0.000214 -0.002715
0.001134 0.000202 -0.00275
0.00112 0.000195 -0.002776
0.00249 0.000513 -0.001664
0.002296 0.000638 -0.001655
0.001947 0.000647 -0.002103
0.001955 0.000659 -0.002143
0.001849 0.000686 -0.002346
0.001888 0.000154 -0.002332
0.001869 0.000153 -0.002347
0.001849 0.000153 -0.002361
0.001827 0.000153 -0.002373
0.001802 0.000157 -0.002379
0.001766 0.00017 -0.002369
0.001727 0.000186 -0.002352
0.001688 0.000202 -0.002336
0.001648 0.00022 -0.002318
0.001607 0.000237 -0.002298
0.001567 0.000254 -0.00228
0.001524 0.000274 -0.002257
0.001473 0.0003 -0.002222
0.001414 0.000334 -0.002173
0.001356 0.000367 -0.002126
0.001317 0.000383 -0.002111
0.001287 0.000391 -0.002109
0.001261 0.000395 -0.002113
0.001238 0.000398 -0.002122
0.001216 0.000398 -0.002134
0.001195 0.000398 -0.002148
0.001177 0.000396 -0.002165
0.001161 0.000391 -0.002186
0.00115 0.000383 -0.002214
0.001145 0.000368 -0.002254
0.001151 0.000345 -0.00231
0.001158 0.00032 -0.002368
0.001163 0.000297 -0.002423
0.001166 0.000275 -0.002475
0.001164 0.000259 -0.002519
0.001161 0.000243 -0.002561
0.001156 0.000228 -0.0026
0.001153 0.000213 -0.002642
0.001147 0.0002 -0.002678
0.001141 0.000187 -0.002716
0.001134 0.000175 -0.00275
0.00112 0.000168 -0.002775
0.001099 0.000168 -0.002789
0.000917 -2.8e-05 -0.001885
0.001936 0.000483 -0.002292
0.001936 0.000565 -0.002292
0.002337 0.000622 -0.001659
0.001955 0.000631 -0.002143
0.001878 0.000624 -0.002339
0.002504 0.00065 -0.001643
0.001887 0.000128 -0.002331
0.001868 0.000127 -0.002345
0.001847 0.000127 -0.002359
0.001825 0.000128 -0.002371
0.0018 0.000131 -0.002377
0.001766 0.000143 -0.002368
0.001727 0.000159 -0.002352
0.001688 0.000176 -0.002335
0.001648 0.000193 -0.002317
0.001606 0.00021 -0.002297
0.001567 0.000227 -0.002281
0.001524 0.000246 -0.002258
0.001473 0.000273 -0.002222
0.001414 0.000307 -0.002173
0.001356 0.00034 -0.002126
0.001317 0.000355 -0.002111
0.001287 0.000363 -0.002109
0.001261 0.000368 -0.002113
0.001238 0.000371 -0.002122
0.001216 0.000371 -0.002134
0.001195 0.000371 -0.002148
0.001177 0.000368 -0.002165
0.001161 0.000364 -0.002186
0.001149 0.000356 -0.002214
0.001145 0.000341 -0.002253
0.001151 0.000317 -0.002311
0.001158 0.000293 -0.002368
0.001167 0.000248 -0.002476
0.001165 0.000231 -0.00252
0.001161 0.000216 -0.002561
0.001157 0.000201 -0.002601
0.001153 0.000186 -0.002642
0.001146 0.000174 -0.002677
0.001141 0.000159 -0.002716
0.001133 0.000148 -0.00275
0.001118 0.000142 -0.002773
0.001098 0.000142 -0.002787
0.000938 -2.8e-05 -0.001873
0.001955 0.000482 -0.002276
0.001967 0.000484 -0.002254
0.002254 0.000654 -0.00165
0.001893 0.000721 -0.001922
0.002568 0.000638 -0.001553
0.002211 0.000725 -0.001644
0.001954 0.000713 -0.002142
0.001885 0.000103 -0.002326
0.001865 0.000103 -0.002341
0.001844 0.000102 -0.002354
0.001823 0.000103 -0.002367
0.001798 0.000106 -0.002374
0.001765 0.000116 -0.002368
0.001727 0.000132 -0.002352
0.001687 0.000149 -0.002335
0.001647 0.000166 -0.002316
0.001606 0.000183 -0.002297
0.001566 0.000201 -0.002279
0.001524 0.00022 -0.002257
0.001473 0.000246 -0.002222
0.001355 0.000313 -0.002125
0.001317 0.000328 -0.002111
0.001287 0.000336 -0.002109
0.001261 0.000341 -0.002113
0.001237 0.000343 -0.002122
0.001216 0.000344 -0.002134
0.001195 0.000344 -0.002148
0.001177 0.000341 -0.002165
0.001161 0.000337 -0.002186
0.001149 0.000329 -0.002214
0.001145 0.000314 -0.002253
0.001151 0.00029 -0.002311
0.001158 0.000265 -0.002369
0.001164 0.000241 -0.002425
0.001167 0.00022 -0.002477
0.001165 0.000203 -0.002521
0.001162 0.000188 -0.002562
0.001158 0.000173 -0.002602
0.001153 0.000159 -0.002641
0.001146 0.000146 -0.002678
0.001141 0.000132 -0.002716
0.001132 0.000121 -0.002749
0.001116 0.000117 -0.002769
0.001096 0.000117 -0.002783
0.001961 0.00059 -0.002182
0.002559 0.00067 -0.001411
0.002617 0.000707 -0.000838
0.001946 0.000702 -0.002102
0.002581 0.00061 -0.001531
0.0019 8.1e-05 -0.002304
0.001881 8e-05 -0.00232
0.00186 7.9e-05 -0.002334
0.00184 7.9e-05 -0.002347
0.001819 7.9e-05 -0.00236
0.001794 8.2e-05 -0.002368
0.001764 9e-05 -0.002366
0.001727 0.000105 -0.002352
0.001687 0.000121 -0.002335
0.001647 0.000139 -0.002316
0.001606 0.000156 -0.002297
0.001566 0.000173 -0.002279
0.001523 0.000193 -0.002257
0.001471 0.00022 -0.002219
0.001414 0.000253 -0.002173
0.001355 0.000286 -0.002126
0.001317 0.000301 -0.002111
0.001287 0.000309 -0.002109
0.001261 0.000314 -0.002113
0.001237 0.000316 -0.002122
0.001216 0.000317 -0.002134
0.001195 0.000316 -0.002148
0.001177 0.000314 -0.002165
0.001161 0.000309 -0.002186
0.001149 0.000302 -0.002214
0.001145 0.000287 -0.002253
0.001151 0.000263 -0.002311
0.001159 0.000238 -0.00237
0.001164 0.000215 -0.002424
0.001167 0.000193 -0.002476
0.001165 0.000176 -0.002521
0.001162 0.00016 -0.002563
0.001158 0.000145 -0.002603
0.001153 0.000131 -0.002642
0.001147 0.000118 -0.002679
0.001141 0.000105 -0.002716
0.00113 9.6e-05 -0.002746
0.001113 9.3e-05 -0.002764
0.001092 9.2e-05 -0.002778
0.002337 0.000595 -0.001658
0.001897 0.000595 -0.002324
0.002558 0.000589 -0.001411
0.002419 0.000673 -0.001665
0.002491 0.000559 -0.001297
0.001894 5.9e-05 -0.002295
0.001874 5.8e-05 -0.00231
0.001854 5.8e-05 -0.002324
0.001833 5.8e-05 -0.002337
0.001812 5.8e-05 -0.002349
0.001789 6e-05 -0.002359
0.001762 6.5e-05 -0.002362
0.001727 7.8e-05 -0.002352
0.001687 9.4e-05 -0.002335
0.001646 0.000112 -0.002315
0.001606 0.000129 -0.002297
0.001566 0.000146 -0.002279
0.001523 0.000165 -0.002257
0.001355 0.000259 -0.002124
0.001317 0.000274 -0.002111
0.001287 0.000282 -0.002109
0.001261 0.000287 -0.002113
0.001237 0.000289 -0.002122
0.001216 0.00029 -0.002134
0.001195 0.000289 -0.002148
0.001177 0.000287 -0.002165
0.001161 0.000282 -0.002187
0.00115 0.000274 -0.002214
0.001145 0.00026 -0.002254
0.001151 0.000236 -0.00231
0.001159 0.00021 -0.002371
0.001164 0.000188 -0.002424
0.001167 0.000166 -0.002477
0.001165 0.000149 -0.002521
0.001162 0.000133 -0.002563
0.001157 0.000119 -0.002601
0.001153 0.000104 -0.002642
0.001147 9.1e-05 -0.002679
0.00114 7.8e-05 -0.002715
0.001127 7.2e-05 -0.00274
0.001108 7e-05 -0.002756
0.001087 7e-05 -0.002769
0.00096 -2.9e-05 -0.001861
0.001824 0.000745 -0.001661
0.002211 0.00067 -0.001644
0.002523 0.000595 -0.001627
0.001956 0.000686 -0.002143
0.002499 0.000681 -0.001638
0.002594 0.000533 -0.001483
0.001886 3.9e-05 -0.002282
0.002583 0.000473 -0.001533
0.001846 3.8e-05 -0.002311
0.001825 3.8e-05 -0.002324
0.001804 3.8e-05 -0.002336
0.001782 3.9e-05 -0.002347
0.001756 4.3e-05 -0.002353
0.001726 5.2e-05 -0.00235
0.001687 6.8e-05 -0.002334
0.001646 8.5e-05 -0.002314
0.001606 0.000102 -0.002296
0.001566 0.000119 -0.002278
0.001524 0.000138 -0.002257
0.000981 -2.9e-05 -0.001849
0.001317 0.000247 -0.002111
0.001287 0.000255 -0.002109
0.001261 0.000259 -0.002114
0.001238 0.000262 -0.002122
0.001216 0.000262 -0.002134
0.001196 0.000262 -0.002148
0.001177 0.00026 -0.002165
0.001161 0.000255 -0.002187
0.00115 0.000247 -0.002215
0.001145 0.000233 -0.002253
0.001151 0.000209 -0.002311
0.001159 0.000183 -0.002371
0.001163 0.00016 -0.002424
0.001168 0.000138 -0.002478
0.001165 0.000122 -0.002521
0.001162 0.000106 -0.002563
0.001158 9.1e-05 -0.002602
0.001153 7.7e-05 -0.002642
0.001147 6.4e-05 -0.002679
0.001137 5.4e-05 -0.002709
0.001121 5e-05 -0.00273
0.001101 4.9e-05 -0.002745
0.00108 4.9e-05 -0.002758
0.002929 0.000614 -0.00055
0.002211 0.000698 -0.001644
0.001952 0.000619 -0.002273
0.001933 0.000648 -0.002289
0.001964 0.000687 -0.002217
0.002339 0.00073 -0.00166
0.001876 2.1e-05 -0.002265
0.001856 2e-05 -0.00228
0.002453 0.000689 -0.001664
0.001815 1.9e-05 -0.002308
0.001794 2e-05 -0.00232
0.001772 2.1e-05 -0.002331
0.001748 2.3e-05 -0.002339
0.00172 3e-05 -0.002341
0.001685 4.2e-05 -0.002331
0.001645 5.9e-05 -0.002313
0.001605 7.6e-05 -0.002296
0.001565 9.2e-05 -0.002278
0.001524 0.00011 -0.002259
0.001355 0.000205 -0.002124
0.001318 0.000219 -0.002111
0.001287 0.000227 -0.002109
0.001261 0.000232 -0.002114
0.001238 0.000234 -0.002123
0.001216 0.000235 -0.002135
0.001196 0.000235 -0.002149
0.001177 0.000232 -0.002166
0.001162 0.000228 -0.002187
0.00115 0.00022 -0.002215
0.001145 0.000205 -0.002254
0.001152 0.00018 -0.002313
0.00116 0.000155 -0.002371
0.001164 0.000133 -0.002425
0.001167 0.000111 -0.002478
0.001165 9.5e-05 -0.002521
0.001163 7.8e-05 -0.002564
0.001158 6.4e-05 -0.002602
0.001152 5.1e-05 -0.00264
0.001144 3.9e-05 -0.002674
0.001131 3.2e-05 -0.002699
0.001112 3e-05 -0.002717
0.001092 2.9e-05 -0.002731
0.001002 -2.9e-05 -0.001836
0.001938 0.000581 -0.002061
0.002509 0.000566 -0.001647
0.002582 0.000555 -0.001532
0.00257 0.000501 -0.001554
0.00195 0.000648 -0.002271
0.001963 0.000671 -0.002182
0.001862 6e-06 -0.002243
0.001842 6e-06 -0.002257
0.001822 6e-06 -0.002271
0.001801 5e-06 -0.002285
0.00178 5e-06 -0.002297
0.001757 6e-06 -0.002308
0.001734 8e-06 -0.002318
0.001709 1.2e-05 -0.002323
0.00168 2e-05 -0.002323
0.001643 3.3e-05 -0.002311
0.001605 4.8e-05 -0.002296
0.001565 6.5e-05 -0.002278
0.001524 8.4e-05 -0.002258
0.001024 -3e-05 -0.001824
0.001355 0.000177 -0.002125
0.001318 0.000192 -0.002111
0.001288 0.0002 -0.00211
0.001261 0.000205 -0.002114
0.001238 0.000207 -0.002123
0.001216 0.000208 -0.002135
0.001196 0.000207 -0.002149
0.001177 0.000205 -0.002166
0.001162 0.0002 -0.002187
0.00115 0.000192 -0.002215
0.001146 0.000178 -0.002255
0.001161 0.000127 -0.002373
0.001165 0.000105 -0.002426
0.001167 8.4e-05 -0.002477
0.001165 6.7e-05 -0.002521
0.001162 5.2e-05 -0.002563
0.001157 3.8e-05 -0.002601
0.00115 2.6e-05 -0.002635
0.001137 1.8e-05 -0.002662
0.00112 1.4e-05 -0.002683
0.001101 1.3e-05 -0.002698
0.001045 -3e-05 -0.001811
0.002772 0.000567 -0.000803
0.001961 0.000563 -0.002182
0.001966 0.000549 -0.00222
0.001894 0.000667 -0.001922
0.001818 0.000745 -0.001755
0.002211 0.000643 -0.001644
0.001839 -1e-06 -0.002206
0.001817 -0.0 -0.002218
0.001796 0.0 -0.00223
0.001776 0.0 -0.002244
0.001754 1e-06 -0.002255
0.001733 1e-06 -0.002269
0.001712 1e-06 -0.002281
0.001689 3e-06 -0.002291
0.001665 5e-06 -0.002299
0.001637 1.2e-05 -0.0023
0.001603 2.3e-05 -0.002293
0.001564 3.9e-05 -0.002276
0.001524 5.6e-05 -0.002258
0.001355 0.00015 -0.002125
0.001317 0.000165 -0.002111
0.001288 0.000173 -0.00211
0.001261 0.000178 -0.002114
0.001238 0.00018 -0.002123
0.001216 0.000181 -0.002135
0.001196 0.00018 -0.002149
0.001177 0.000178 -0.002166
0.001162 0.000173 -0.002187
0.00115 0.000165 -0.002215
0.001146 0.00015 -0.002255
0.001161 0.0001 -0.002373
0.001164 7.8e-05 -0.002426
0.001167 5.7e-05 -0.002477
0.001165 4.1e-05 -0.00252
0.00116 2.6e-05 -0.00256
0.001152 1.5e-05 -0.002593
0.001139 7e-06 -0.002619
0.002847 0.000567 -0.000785
0.002513 0.000678 -0.001335
0.002537 0.00046 -0.001607
0.002418 0.000538 -0.001665
0.00184 0.000667 -0.001808
0.00181 -2e-06 -0.002158
0.001786 1e-06 -0.002167
0.001765 1e-06 -0.00218
0.001744 0.0 -0.002193
0.001723 1e-06 -0.002205
0.001703 0.0 -0.002219
0.002557 0.000503 -0.001575
0.00249 0.000486 -0.001664
0.002457 0.000497 -0.001667
0.001618 1e-06 -0.00227
0.001592 6e-06 -0.002275
0.00156 1.5e-05 -0.00227
0.001523 3e-05 -0.002256
0.00141 9.3e-05 -0.002167
0.001355 0.000123 -0.002126
0.001317 0.000138 -0.002111
0.001287 0.000146 -0.00211
0.001261 0.000151 -0.002114
0.001238 0.000153 -0.002123
0.001216 0.000153 -0.002135
0.001196 0.000153 -0.002149
0.001177 0.000151 -0.002166
0.001162 0.000146 -0.002187
0.00115 0.000138 -0.002215
0.001145 0.000123 -0.002255
0.001152 9.9e-05 -0.002313
0.001159 7.4e-05 -0.002371
0.001165 5.1e-05 -0.002426
0.001166 3.1e-05 -0.002476
0.001162 1.6e-05 -0.002516
0.001152 6e-06 -0.002546
0.001136 1e-06 -0.002567
0.001914 0.000617 -0.001973
0.001903 1e-06 -0.002029
0.002534 0.000717 -0.001571
0.002517 0.000717 -0.001589
0.002412 0.000732 -0.00166
0.002457 0.000524 -0.001667
0.001801 -3e-06 -0.002097
0.002521 0.000718 -0.000847
0.002488 0.000715 -0.001628
0.002469 0.000717 -0.001645
0.001955 0.000604 -0.002143
0.001674 -2e-06 -0.002174
0.001654 -2e-06 -0.002187
0.001633 -2e-06 -0.002201
0.00159 -2e-06 -0.002225
0.001568 -0.0 -0.002236
0.001544 2e-06 -0.002244
0.001515 1e-05 -0.002244
0.001409 6.7e-05 -0.002165
0.001354 9.7e-05 -0.002124
0.001317 0.000111 -0.002111
0.001287 0.000119 -0.002109
0.001261 0.000123 -0.002114
0.001238 0.000126 -0.002123
0.001216 0.000126 -0.002135
0.001196 0.000126 -0.002149
0.001178 0.000124 -0.002166
0.001162 0.000119 -0.002187
0.00115 0.000111 -0.002215
0.001145 9.7e-05 -0.002254
0.001151 7.3e-05 -0.002311
0.00116 4.6e-05 -0.002373
0.001164 2.4e-05 -0.002426
0.00116 9e-06 -0.002467
0.001148 1e-06 -0.002494
0.00113 -2e-06 -0.002511
0.001111 -3e-06 -0.002526
0.001906 7e-06 -0.001939
0.001895 -2e-06 -0.001968
0.001874 -2e-06 -0.001981
0.001853 -1e-06 -0.001993
0.001831 -0.0 -0.002005
0.00181 -1e-06 -0.002018
0.001791 -2e-06 -0.002034
0.001768 -0.0 -0.002043
0.001747 -0.0 -0.002056
0.002048 0.000687 -0.001597
0.001662 -1e-06 -0.002107
0.001642 -0.0 -0.002121
0.00162 0.0 -0.002133
0.001599 1e-06 -0.002146
0.001579 -0.0 -0.00216
0.001559 -1e-06 -0.002174
0.002504 0.000715 -0.00161
0.001494 1e-06 -0.00221
0.001466 7e-06 -0.002212
0.001355 6.9e-05 -0.002125
0.001317 8.4e-05 -0.002111
0.001287 9.2e-05 -0.002109
0.001261 9.6e-05 -0.002114
0.001238 9.9e-05 -0.002123
0.001216 9.9e-05 -0.002135
0.001196 9.9e-05 -0.002149
0.001177 9.6e-05 -0.002166
0.001162 9.2e-05 -0.002187
0.00115 8.4e-05 -0.002215
0.001144 7e-05 -0.002253
0.001151 4.5e-05 -0.002311
0.001161 1.8e-05 -0.002374
0.001156 3e-06 -0.002413
0.00114 -1e-06 -0.002433
0.001119 -1e-06 -0.002447
0.001098 -0.0 -0.002459
0.001877 1e-06 -0.001901
0.001863 -1e-06 -0.001917
0.00184 1e-06 -0.001926
0.00182 0.0 -0.001941
0.001799 0.0 -0.001954
0.001779 -1e-06 -0.001968
0.001758 -0.0 -0.001981
0.002509 0.000484 -0.001648
0.00211 0.000659 -0.00162
0.001676 -2e-06 -0.002036
0.001656 -2e-06 -0.002049
0.001634 -2e-06 -0.002062
0.001614 -3e-06 -0.002076
0.001594 -3e-06 -0.00209
0.001573 -3e-06 -0.002103
0.001552 -4e-06 -0.002117
0.001532 -5e-06 -0.002131
0.001984 0.00069 -0.001573
0.001814 0.000741 -0.001685
0.001919 0.000712 -0.002276
0.001446 -3e-06 -0.00218
0.001352 4.4e-05 -0.00212
0.001316 5.7e-05 -0.00211
0.001287 6.5e-05 -0.002109
0.001261 6.9e-05 -0.002113
0.001237 7.2e-05 -0.002122
0.001216 7.2e-05 -0.002134
0.001196 7.2e-05 -0.002149
0.001177 6.9e-05 -0.002166
0.001161 6.5e-05 -0.002187
0.00115 5.7e-05 -0.002215
0.001144 4.3e-05 -0.002253
0.001152 -2e-06 -0.002359
0.001136 -5e-06 -0.002379
0.001113 -4e-06 -0.002391
0.001091 -3e-06 -0.002401
0.000984 -1e-06 -0.002462
0.000964 -1e-06 -0.002476
0.000943 -2e-06 -0.00249
0.000921 -0.0 -0.002501
0.001066 -3e-05 -0.001799
0.001856 -2e-06 -0.00186
0.001837 -5e-06 -0.001874
0.001817 -6e-06 -0.001889
0.001797 -5e-06 -0.001904
0.001775 -5e-06 -0.001915
0.001755 -6e-06 -0.001929
0.001732 -4e-06 -0.001939
0.001983 0.000718 -0.001572
0.001649 -5e-06 -0.001992
0.001629 -6e-06 -0.002006
0.001608 -6e-06 -0.002019
0.001586 -5e-06 -0.002031
0.001566 -6e-06 -0.002045
0.001545 -6e-06 -0.002058
0.001523 -5e-06 -0.00207
0.001502 -5e-06 -0.002083
0.001482 -6e-06 -0.002097
0.001878 0.000716 -0.002305
0.001898 0.000714 -0.002291
0.001087 -3e-05 -0.001786
0.001316 3e-05 -0.002109
0.001286 3.8e-05 -0.002108
0.00126 4.3e-05 -0.002113
0.001237 4.5e-05 -0.002122
0.001215 4.5e-05 -0.002134
0.001195 4.5e-05 -0.002148
0.001177 4.2e-05 -0.002166
0.001161 3.7e-05 -0.002187
0.001149 3e-05 -0.002214
0.001146 -4e-06 -0.002302
0.001128 -7e-06 -0.002321
0.001107 -6e-06 -0.002333
0.001064 -6e-06 -0.002357
0.001042 -5e-06 -0.002369
0.001 -5e-06 -0.002395
0.00098 -5e-06 -0.002409
0.00096 -6e-06 -0.002424
0.000939 -7e-06 -0.002436
0.000917 -6e-06 -0.002448
0.000897 -6e-06 -0.002461
0.001108 -3e-05 -0.001773
0.001129 -3e-05 -0.00176
0.00115 -3e-05 -0.001747
0.001846 -3e-06 -0.001795
0.001828 -6e-06 -0.001813
0.001807 -6e-06 -0.001827
0.001784 -4e-06 -0.001836
0.001741 -3e-06 -0.00186
0.001721 -3e-06 -0.001874
0.001699 -3e-06 -0.001886
0.001678 -2e-06 -0.001898
0.001657 -3e-06 -0.001911
0.002575 0.000696 -0.000845
0.001616 -3e-06 -0.001938
0.001593 -2e-06 -0.001949
0.001572 -2e-06 -0.001962
0.001553 -3e-06 -0.001977
0.002166 0.000661 -0.001637
0.00211 0.000686 -0.00162
0.001891 0.000744 -0.001588
0.002296 0.000556 -0.001655
0.001955 0.00055 -0.002143
0.001967 0.000511 -0.002254
0.00134 0.0 -0.002102
0.001313 6e-06 -0.002105
0.001285 1.2e-05 -0.002106
0.00126 1.6e-05 -0.002112
0.001236 1.8e-05 -0.002121
0.001215 1.8e-05 -0.002133
0.001195 1.8e-05 -0.002147
0.001176 1.6e-05 -0.002164
0.001161 1e-05 -0.002187
0.00115 2e-06 -0.002215
0.001171 -3e-05 -0.001734
0.001117 -6e-06 -0.002256
0.001032 -5e-06 -0.002306
0.001012 -6e-06 -0.00232
0.000967 -3e-06 -0.002341
0.000947 -3e-06 -0.002355
0.000926 -4e-06 -0.002369
0.000906 -4e-06 -0.002383
0.000885 -4e-06 -0.002395
0.001191 -3e-05 -0.00172
0.001212 -2.9e-05 -0.001707
0.001817 -4e-06 -0.001748
0.001796 -4e-06 -0.001761
0.001772 -2e-06 -0.00177
0.001751 -1e-06 -0.001782
0.001232 -2.9e-05 -0.001693
0.001708 -0.0 -0.001806
0.001687 -1e-06 -0.00182
0.001667 -1e-06 -0.001834
0.001645 -0.0 -0.001845
0.001624 -0.0 -0.001858
0.001603 -0.0 -0.001871
0.001583 -1e-06 -0.001885
0.001562 -1e-06 -0.001899
0.001541 -1e-06 -0.00191
0.002523 0.000485 -0.001628
0.001984 0.000744 -0.001573
0.001836 0.000721 -0.001638
0.002514 0.000596 -0.001335
0.00184 0.000694 -0.001807
0.001815 0.00072 -0.001752
0.002657 0.000637 -0.00083
0.002579 0.000638 -0.001531
0.001313 -3e-06 -0.002057
0.001293 -3e-06 -0.002071
0.001271 -3e-06 -0.002083
0.001248 -1e-06 -0.002094
0.001227 -1e-06 -0.002105
0.001207 -2e-06 -0.00212
0.001187 -3e-06 -0.002135
0.001169 -6e-06 -0.002153
0.001148 -5e-06 -0.002165
0.001127 -5e-06 -0.002178
0.001017 0.0 -0.002234
0.000914 -2e-06 -0.002303
0.000893 -2e-06 -0.002316
0.00087 -0.0 -0.002325
0.00085 -1e-06 -0.002339
0.00081 -2e-06 -0.002368
0.000788 -2e-06 -0.00238
0.000768 -2e-06 -0.002394
0.00174 -1e-06 -0.001718
0.00172 -1e-06 -0.001732
0.002735 0.000527 -0.000813
0.001898 0.000568 -0.002324
0.001914 0.000671 -0.001974
0.001967 0.000631 -0.00222
0.001599 -5e-06 -0.001817
0.001578 -5e-06 -0.00183
0.00252 0.00065 -0.001625
0.002508 0.000594 -0.001647
0.002338 0.00054 -0.001659
0.001815 0.000713 -0.001686
0.002537 0.000487 -0.001606
0.001851 0.000722 -0.001619
0.001868 0.000721 -0.001601
0.002253 0.000573 -0.001649
0.001954 0.000509 -0.002275
0.00181 0.000733 -0.001714
0.001966 0.000522 -0.00222
0.001961 0.000536 -0.002182
0.002774 0.000648 -0.000804
0.00129 -1e-05 -0.002021
0.00127 -1e-05 -0.002034
0.001248 -1e-05 -0.002047
0.001227 -1e-05 -0.00206
0.001206 -9e-06 -0.002071
0.001185 -9e-06 -0.002084
0.001164 -9e-06 -0.002098
0.001122 -9e-06 -0.002123
0.0011 -8e-06 -0.002134
0.001057 -7e-06 -0.002159
0.001036 -7e-06 -0.002172
0.001015 -7e-06 -0.002184
0.000993 -6e-06 -0.002196
0.000971 -6e-06 -0.002208
0.000885 -5e-06 -0.002256
0.000864 -3e-06 -0.002268
0.000843 -3e-06 -0.002281
0.000821 -2e-06 -0.002292
0.00078 -3e-06 -0.002319
0.000758 -2e-06 -0.002332
0.000736 -1e-06 -0.002342
0.001947 0.00062 -0.002103
0.001937 0.000636 -0.002061
0.001966 0.000566 -0.002253
0.001717 -8e-06 -0.001681
0.001698 -8e-06 -0.001696
0.002338 0.000676 -0.001659
0.001914 0.00059 -0.001974
0.00246 0.000663 -0.000844
0.001595 -9e-06 -0.001764
0.001573 -1e-05 -0.001776
0.001553 -1e-05 -0.00179
0.001532 -1e-05 -0.001804
0.001513 -1.1e-05 -0.001819
0.002297 0.000664 -0.001655
0.001823 0.000718 -0.00166
0.001913 0.000714 -0.001575
0.001942 0.000706 -0.001568
0.001917 0.000512 -0.002308
0.001936 0.00051 -0.002292
0.000874 -2e-05 0.001945
0.001238 -9e-06 -0.001983
0.001219 -1.1e-05 -0.002
0.001196 -9e-06 -0.002009
0.001175 -9e-06 -0.002022
0.001155 -1e-05 -0.002036
0.001133 -9e-06 -0.002048
0.001113 -9e-06 -0.002061
0.001253 -2.9e-05 -0.001679
0.001031 -1.1e-05 -0.002116
0.001011 -1.2e-05 -0.002131
0.000988 -1e-05 -0.002141
0.000967 -1e-05 -0.002154
0.000947 -1.1e-05 -0.002168
0.000733 -7e-06 -0.002291
0.000711 -6e-06 -0.002302
0.001917 0.000566 -0.002308
0.001927 0.000653 -0.002018
0.001966 0.000576 -0.00222
0.001889 0.000719 -0.001586
0.002379 0.000661 -0.001663
0.001894 0.000613 -0.001922
0.001927 0.000571 -0.002019
0.001584 -9e-06 -0.001699
0.001561 -8e-06 -0.001709
0.001538 -6e-06 -0.001719
0.001518 -7e-06 -0.001733
0.001496 -6e-06 -0.001745
0.001474 -5e-06 -0.001756
0.002338 0.000649 -0.001659
0.002378 0.000525 -0.001662
0.001954 0.000536 -0.002275
0.001967 0.000539 -0.002253
0.00221 0.000616 -0.001644
0.000851 -2.1e-05 0.001954
0.000827 -2.1e-05 0.001962
0.001244 -4e-06 -0.001899
0.001223 -4e-06 -0.001912
0.00116 -5e-06 -0.001951
0.001138 -3e-06 -0.001962
0.001117 -3e-06 -0.001974
0.001096 -4e-06 -0.001988
0.001077 -4e-06 -0.002003
0.001273 -2.8e-05 -0.001666
0.001294 -2.8e-05 -0.001652
0.001314 -2.7e-05 -0.001638
0.001334 -2.6e-05 -0.001623
0.000726 -9e-06 -0.002232
0.000706 -1e-05 -0.002247
0.000685 -1.1e-05 -0.002261
0.001954 0.000564 -0.002275
0.001955 0.00072 -0.002209
0.001894 0.000694 -0.001922
0.002457 0.000632 -0.001668
0.002456 0.00066 -0.001667
0.001568 -4e-06 -0.001627
0.001546 -3e-06 -0.001638
0.001526 -4e-06 -0.001653
0.001504 -3e-06 -0.001664
0.001484 -3e-06 -0.001678
0.001463 -4e-06 -0.001691
0.001442 -3e-06 -0.001704
0.00142 -3e-06 -0.001716
0.002418 0.000511 -0.001665
0.002517 0.000732 -5.7e-05
0.001946 0.000565 -0.002103
0.002116 0.000736 -0.001626
0.002253 0.0006 -0.001649
0.002559 0.000616 -0.001412
0.002657 0.000719 -0.00083
0.002446 0.000721 -0.001657
0.001212 -3e-06 -0.001847
0.001191 -4e-06 -0.00186
0.001086 -3e-06 -0.001925
0.001065 -4e-06 -0.001938
0.000938 -2e-06 -0.002014
0.000918 -3e-06 -0.002027
0.000876 -3e-06 -0.002053
0.000856 -4e-06 -0.002068
0.000835 -4e-06 -0.002081
0.000814 -3e-06 -0.002094
0.000711 -5e-06 -0.002162
0.00069 -5e-06 -0.002175
0.000671 -6e-06 -0.00219
0.000651 -7e-06 -0.002205
0.002905 0.000493 -0.000758
0.00257 0.000474 -0.001554
0.002524 0.000513 -0.001628
0.001937 0.000609 -0.002061
0.002488 0.000623 -0.001661
0.002485 0.000652 -0.001659
0.001538 -4e-06 -0.001578
0.001517 -4e-06 -0.001591
0.001496 -5e-06 -0.001605
0.001476 -5e-06 -0.001618
0.001456 -6e-06 -0.001633
0.001435 -6e-06 -0.001645
0.001414 -6e-06 -0.001659
0.002594 0.000473 -0.001511
0.002339 0.000703 -0.00166
0.001926 0.000735 -0.002018
0.001333 -8e-06 -0.001715
0.001312 -8e-06 -0.001728
0.001963 0.00065 -0.00225
0.002457 0.000605 -0.001668
0.001846 0.000744 -0.001813
0.001871 0.000719 -0.001869
0.001967 0.000495 -0.00222
0.001187 -9e-06 -0.001807
0.001166 -9e-06 -0.00182
0.001145 -9e-06 -0.001833
0.001124 -1e-05 -0.001846
0.001061 -9e-06 -0.001885
0.000976 -8e-06 -0.001935
0.000956 -8e-06 -0.001948
0.000935 -8e-06 -0.001961
0.000913 -7e-06 -0.001973
0.000891 -6e-06 -0.001985
0.000871 -6e-06 -0.001998
0.000849 -6e-06 -0.00201
0.000828 -6e-06 -0.002022
0.000806 -5e-06 -0.002034
0.000785 -6e-06 -0.002046
0.000678 -3e-06 -0.002107
0.000657 -3e-06 -0.002121
0.000636 -3e-06 -0.002134
0.000615 -3e-06 -0.002147
0.001945 0.000731 -0.00157
0.001634 -6e-06 -0.001453
0.002896 0.000661 -0.000753
0.001816 0.000692 -0.001753
0.001927 0.000625 -0.002019
0.002169 0.000741 -0.001639
0.001876 0.000653 -0.002338
0.002536 0.000623 -0.001606
0.001856 0.000655 -0.002352
0.001896 0.000651 -0.002322
0.001453 -1.2e-05 -0.001582
0.001433 -1.3e-05 -0.001596
0.001413 -1.3e-05 -0.00161
0.001392 -1.4e-05 -0.001624
0.001372 -1.4e-05 -0.001638
0.001352 -1.5e-05 -0.001652
0.001332 -1.6e-05 -0.001666
0.001311 -1.6e-05 -0.00168
0.001291 -1.6e-05 -0.001694
0.00127 -1.7e-05 -0.001707
0.00125 -1.7e-05 -0.001721
0.001229 -1.8e-05 -0.001735
0.001208 -1.8e-05 -0.001748
0.001188 -1.8e-05 -0.001761
0.001167 -1.8e-05 -0.001775
0.001146 -1.8e-05 -0.001788
0.001125 -1.8e-05 -0.001801
0.001104 -1.8e-05 -0.001814
0.001083 -1.8e-05 -0.001827
0.001062 -1.8e-05 -0.001839
0.001041 -1.8e-05 -0.001852
0.00102 -1.8e-05 -0.001865
0.000999 -1.8e-05 -0.001877
0.000977 -1.7e-05 -0.00189
0.000956 -1.7e-05 -0.001902
0.000935 -1.6e-05 -0.001914
0.000913 -1.5e-05 -0.001926
0.000891 -1.5e-05 -0.001938
0.00087 -1.4e-05 -0.00195
0.000848 -1.4e-05 -0.001962
0.000826 -1.3e-05 -0.001973
0.000805 -1.3e-05 -0.001986
0.000784 -1.2e-05 -0.001998
0.000762 -1.2e-05 -0.002009
0.000652 -7e-06 -0.002067
0.000631 -7e-06 -0.002078
0.00061 -6e-06 -0.002091
0.000587 -5e-06 -0.002102
0.001922 0.000735 -0.001583
0.001955 0.000577 -0.002143
0.001947 0.000592 -0.002103
0.001811 0.000705 -0.001716
0.002331 0.000745 -0.00111
0.001837 0.000748 -0.001639
0.00187 0.000692 -0.001868
0.001936 0.000538 -0.002292
0.002296 0.000611 -0.001655
0.002509 0.000511 -0.001648
0.002538 0.000633 -0.001374
0.001917 0.000539 -0.002308
0.002552 0.000668 -0.001572
0.002254 0.000627 -0.00165
0.00249 0.000459 -0.001664
0.002456 0.00047 -0.001667
0.002418 0.000483 -0.001665
0.002377 0.000499 -0.001662
0.002337 0.000514 -0.001659
0.002295 0.00053 -0.001654
0.002253 0.000546 -0.001649
0.00221 0.000562 -0.001644
0.002166 0.000579 -0.001637
0.002111 0.000604 -0.001621
0.002047 0.000633 -0.001597
0.001984 0.000663 -0.001572
0.001942 0.000679 -0.001568
0.001913 0.000687 -0.001575
0.001888 0.000692 -0.001586
0.001868 0.000694 -0.001601
0.001851 0.000695 -0.001619
0.001836 0.000694 -0.001638
0.001823 0.000691 -0.00166
0.001815 0.000686 -0.001685
0.001811 0.000679 -0.001715
0.001816 0.000665 -0.001753
0.00184 0.000639 -0.001808
0.001869 0.000611 -0.001867
0.001894 0.000585 -0.001923
0.001914 0.000562 -0.001974
0.001927 0.000544 -0.002018
0.001937 0.000527 -0.002061
0.001947 0.000511 -0.002103
0.001955 0.000495 -0.002143
0.001961 0.000481 -0.002182
0.001967 0.000468 -0.00222
0.001967 0.000457 -0.002253
0.001955 0.000455 -0.002276
0.001936 0.000456 -0.002292
0.002544 0.000531 -0.001596
0.002736 0.000608 -0.000813
0.002922 0.000551 -0.000698
0.002735 0.000662 -0.000813
0.002489 0.000723 -0.001296
0.002537 0.000433 -0.001607
0.002523 0.000431 -0.001628
0.002509 0.00043 -0.001648
0.00249 0.000431 -0.001664
0.002457 0.000442 -0.001667
0.002418 0.000456 -0.001665
0.002377 0.000471 -0.001662
0.002337 0.000487 -0.001658
0.002295 0.000502 -0.001654
0.002252 0.000519 -0.001649
0.00221 0.000535 -0.001643
0.002166 0.000553 -0.001637
0.00211 0.000577 -0.00162
0.002045 0.000607 -0.001595
0.001983 0.000636 -0.001572
0.001942 0.000652 -0.001568
0.001912 0.00066 -0.001574
0.001888 0.000665 -0.001586
0.001868 0.000667 -0.001601
0.001851 0.000668 -0.001618
0.001835 0.000667 -0.001638
0.001823 0.000664 -0.00166
0.001814 0.00066 -0.001685
0.001809 0.000653 -0.001714
0.001815 0.000638 -0.001752
0.001871 0.000583 -0.001869
0.001893 0.000559 -0.001922
0.001914 0.000535 -0.001974
0.001927 0.000517 -0.002019
0.001937 0.0005 -0.002061
0.001947 0.000484 -0.002103
0.001955 0.000468 -0.002143
0.001961 0.000454 -0.002182
0.001967 0.00044 -0.00222
0.001967 0.00043 -0.002253
0.001955 0.000427 -0.002276
0.001936 0.000429 -0.002292
0.002476 0.000545 -0.001262
0.002773 0.000594 -0.000804
0.002847 0.000594 -0.000785
0.002883 0.000608 -0.000775
0.002737 0.000716 -0.000814
0.002537 0.000406 -0.001607
0.002523 0.000404 -0.001628
0.002509 0.000403 -0.001648
0.002491 0.000404 -0.001664
0.002457 0.000415 -0.001667
0.002417 0.000429 -0.001665
0.002377 0.000444 -0.001662
0.002336 0.00046 -0.001658
0.002295 0.000475 -0.001654
0.002253 0.000491 -0.001649
0.00221 0.000508 -0.001643
0.002165 0.000526 -0.001637
0.002109 0.000551 -0.001619
0.001983 0.000609 -0.001572
0.001941 0.000625 -0.001568
0.001912 0.000633 -0.001574
0.001888 0.000638 -0.001586
0.001868 0.00064 -0.001601
0.00185 0.000641 -0.001618
0.001835 0.00064 -0.001638
0.001822 0.000637 -0.001659
0.001813 0.000633 -0.001684
0.001809 0.000625 -0.001714
0.001814 0.000612 -0.001752
0.001841 0.000585 -0.001808
0.001871 0.000556 -0.001868
0.001892 0.000532 -0.001921
0.001914 0.000508 -0.001974
0.001927 0.00049 -0.002019
0.001937 0.000473 -0.002061
0.001947 0.000456 -0.002103
0.001954 0.000441 -0.002143
0.001961 0.000427 -0.002182
0.001967 0.000413 -0.00222
0.001967 0.000403 -0.002254
0.001955 0.0004 -0.002276
0.001936 0.000402 -0.002292
0.002845 0.000486 -0.000784
0.002809 0.000581 -0.000794
0.002942 0.000604 -0.000602
0.002926 0.00067 -0.000549
0.002527 0.000729 -3.3e-05
0.002537 0.000379 -0.001607
0.002523 0.000377 -0.001628
0.002509 0.000375 -0.001648
0.00249 0.000377 -0.001664
0.002457 0.000388 -0.001667
0.002418 0.000402 -0.001665
0.002378 0.000417 -0.001662
0.002336 0.000433 -0.001658
0.002295 0.000448 -0.001654
0.002252 0.000464 -0.001649
0.00221 0.000481 -0.001644
0.002165 0.000499 -0.001637
0.002109 0.000524 -0.001619
0.001983 0.000582 -0.001572
0.001942 0.000597 -0.001568
0.001912 0.000606 -0.001574
0.001888 0.00061 -0.001586
0.001868 0.000613 -0.001601
0.00185 0.000614 -0.001618
0.001835 0.000613 -0.001638
0.001822 0.00061 -0.001659
0.001813 0.000606 -0.001684
0.001809 0.000598 -0.001714
0.001814 0.000584 -0.001752
0.00184 0.000558 -0.001808
0.001869 0.00053 -0.001867
0.001914 0.000481 -0.001974
0.001926 0.000463 -0.002018
0.001938 0.000445 -0.002062
0.001947 0.000429 -0.002103
0.001955 0.000414 -0.002143
0.001961 0.0004 -0.002182
0.001967 0.000386 -0.00222
0.001968 0.000375 -0.002254
0.001954 0.000373 -0.002276
0.001936 0.000374 -0.002292
0.002265 0.000714 -0.000997
0.002904 0.000548 -0.000757
0.002882 0.000582 -0.000774
0.002753 0.000706 -0.000396
0.002811 0.000689 -0.000794
0.002537 0.000352 -0.001607
0.002523 0.00035 -0.001628
0.002509 0.000348 -0.001648
0.00249 0.00035 -0.001664
0.002456 0.000361 -0.001667
0.002417 0.000376 -0.001664
0.002377 0.00039 -0.001662
0.002336 0.000405 -0.001658
0.002295 0.000421 -0.001654
0.002253 0.000437 -0.001649
0.002209 0.000454 -0.001643
0.002165 0.000471 -0.001637
0.00211 0.000496 -0.00162
0.002047 0.000525 -0.001597
0.001983 0.000555 -0.001572
0.001942 0.00057 -0.001568
0.001912 0.000579 -0.001574
0.001888 0.000583 -0.001586
0.001868 0.000586 -0.001601
0.00185 0.000586 -0.001618
0.001835 0.000586 -0.001637
0.001822 0.000583 -0.001659
0.001813 0.000579 -0.001684
0.001809 0.000571 -0.001714
0.001814 0.000558 -0.001751
0.001914 0.000454 -0.001974
0.001927 0.000435 -0.002018
0.001937 0.000418 -0.002061
0.001947 0.000402 -0.002103
0.001954 0.000387 -0.002143
0.001961 0.000373 -0.002182
0.001968 0.000358 -0.002221
0.001968 0.000348 -0.002254
0.001954 0.000346 -0.002276
0.001936 0.000347 -0.002292
0.002904 0.000521 -0.000758
0.002913 0.000549 -0.000735
0.002903 0.000576 -0.000757
0.002902 0.000603 -0.000756
0.00294 0.000634 -0.000576
0.002537 0.000324 -0.001607
0.002524 0.000322 -0.001628
0.002509 0.000321 -0.001648
0.00249 0.000323 -0.001664
0.002456 0.000334 -0.001667
0.002417 0.000348 -0.001664
0.002377 0.000363 -0.001662
0.002336 0.000378 -0.001658
0.002295 0.000394 -0.001654
0.002253 0.00041 -0.001649
0.002209 0.000427 -0.001643
0.002165 0.000444 -0.001637
0.002109 0.000469 -0.001619
0.002047 0.000497 -0.001597
0.001983 0.000527 -0.001572
0.001941 0.000543 -0.001568
0.001912 0.000551 -0.001574
0.001888 0.000556 -0.001586
0.001868 0.000558 -0.001601
