-0.001696 0.000195 -0.002418
-0.001731 0.000182 -0.002427
-0.001756 0.000179 -0.002419
-0.001777 0.000179 -0.002406
-0.001797 0.00018 -0.002391
-0.001816 0.00018 -0.002376
-0.001836 0.000181 -0.002362
-0.001856 0.000182 -0.002347
-0.001282 -2.7e-05 -0.001656
-0.001262 -2.8e-05 -0.00167
-0.001241 -2.8e-05 -0.001684
0.000142 0.000714 -0.002947
-0.000203 0.00066 -0.002714
-0.001056 0.000224 -0.002696
-0.00106 0.000237 -0.00266
-0.001064 0.00025 -0.002623
-0.001069 0.000263 -0.002586
-0.001073 0.000277 -0.002547
-0.001078 0.00029 -0.00251
-0.00108 0.000306 -0.002468
-0.001077 0.000326 -0.002419
-0.001069 0.00035 -0.002362
-0.00106 0.000375 -0.002304
-0.001059 0.000393 -0.002258
-0.001068 0.000403 -0.002226
-0.001081 0.000409 -0.002202
-0.001098 0.000412 -0.002183
-0.001118 0.000413 -0.002168
-0.001139 0.000412 -0.002156
-0.001162 0.00041 -0.002145
-0.000985 0.000586 -0.002824
-0.000961 0.000531 -0.002831
-0.001332 0.000711 -0.002192
-0.001369 0.000322 -0.002235
-0.001426 0.000292 -0.002277
-0.001481 0.000263 -0.002315
-0.001528 0.000241 -0.002342
-0.001572 0.00022 -0.002364
-0.001615 0.000202 -0.002384
-0.001656 0.000184 -0.002402
-0.001696 0.000168 -0.002418
-0.00173 0.000156 -0.002425
-0.001755 0.000153 -0.002418
-0.001776 0.000152 -0.002405
-0.001797 0.000152 -0.002391
-0.001817 0.000153 -0.002377
-0.001836 0.000154 -0.002362
-0.001855 0.000155 -0.002346
-0.001008 0.000478 -0.002815
0.000166 0.000478 -0.00293
-0.000867 0.000614 -0.002858
-0.001061 0.00021 -0.002659
-0.001065 0.000223 -0.002623
-0.001069 0.000235 -0.002586
-0.001073 0.00025 -0.002547
-0.001078 0.000263 -0.00251
-0.001079 0.000279 -0.002467
-0.001076 0.000299 -0.002418
-0.001069 0.000323 -0.002362
-0.00106 0.000348 -0.002304
-0.001059 0.000366 -0.002258
-0.001068 0.000376 -0.002226
-0.001081 0.000382 -0.002202
-0.001098 0.000385 -0.002183
-0.001118 0.000386 -0.002168
-0.001139 0.000385 -0.002156
-0.001162 0.000383 -0.002146
-0.001061 0.000646 -0.002664
-0.000891 0.000531 -0.002854
-0.000368 0.000718 -0.00241
-0.001221 -2.8e-05 -0.001698
-0.001368 0.000296 -0.002233
-0.001482 0.000235 -0.002317
-0.001528 0.000213 -0.002342
-0.001572 0.000193 -0.002364
-0.001615 0.000174 -0.002385
-0.001656 0.000157 -0.002402
-0.001696 0.000141 -0.002417
-0.001729 0.00013 -0.002423
-0.001753 0.000127 -0.002415
-0.001775 0.000126 -0.002403
-0.001796 0.000126 -0.00239
-0.001816 0.000126 -0.002376
-0.001835 0.000127 -0.00236
-0.001854 0.000129 -0.002344
-0.000915 0.000449 -0.002847
-0.000807 0.000525 -0.00283
-8.1e-05 0.000488 -0.002963
-0.001062 0.000182 -0.00266
-0.001066 0.000196 -0.002623
-0.00107 0.000209 -0.002586
-0.001074 0.000222 -0.002548
-0.001078 0.000236 -0.00251
-0.00108 0.000251 -0.002468
-0.001076 0.000272 -0.002418
-0.001069 0.000295 -0.002363
-0.00106 0.000321 -0.002304
-0.001059 0.000339 -0.002258
-0.001068 0.000349 -0.002226
-0.001081 0.000354 -0.002202
-0.001099 0.000357 -0.002184
-0.001118 0.000358 -0.002169
-0.001139 0.000358 -0.002156
-0.001162 0.000355 -0.002146
-0.001007 0.000614 -0.002813
-0.000867 0.000531 -0.00286
-0.000188 0.000593 -0.002747
-0.001483 0.000207 -0.002319
-0.001528 0.000186 -0.002342
-0.001572 0.000166 -0.002364
-0.001615 0.000147 -0.002385
-0.001655 0.00013 -0.002401
-0.001695 0.000114 -0.002416
-0.001727 0.000105 -0.00242
-0.001751 0.000102 -0.002411
-0.001772 0.000101 -0.002399
-0.001793 0.000101 -0.002386
-0.001813 0.000101 -0.002372
-0.001833 0.000102 -0.002356
-0.001851 0.000104 -0.00234
-0.001201 -2.8e-05 -0.001712
-0.000962 0.000449 -0.002832
-0.000735 0.000564 -0.002766
-0.000203 0.000714 -0.002713
-0.000837 0.000677 -0.002846
-0.001066 0.000169 -0.002622
-0.001071 0.000182 -0.002585
-0.001076 0.000195 -0.002548
-0.00108 0.000208 -0.002511
-0.00108 0.000224 -0.002469
-0.001076 0.000245 -0.002417
-0.001069 0.000268 -0.002362
-0.00106 0.000294 -0.002304
-0.001059 0.000312 -0.002257
-0.001068 0.000322 -0.002226
-0.001082 0.000327 -0.002203
-0.001099 0.00033 -0.002184
-0.001118 0.000331 -0.002169
-0.001139 0.00033 -0.002156
-0.001162 0.000328 -0.002146
-0.001029 0.00059 -0.0028
-0.000218 0.000701 -0.002678
-5.6e-05 0.000505 -0.002985
-0.00118 -2.8e-05 -0.001725
-0.001369 0.000241 -0.002235
-0.001426 0.00021 -0.002277
-0.001482 0.00018 -0.002317
-0.001529 0.000158 -0.002343
-0.001572 0.000139 -0.002364
-0.001615 0.00012 -0.002384
-0.001655 0.000103 -0.002401
-0.001694 8.8e-05 -0.002415
-0.001723 8.1e-05 -0.002414
-0.001746 7.9e-05 -0.002404
-0.001768 7.8e-05 -0.002392
-0.001789 7.8e-05 -0.002379
-0.001809 7.8e-05 -0.002365
-0.001828 7.9e-05 -0.00235
-0.001847 8.1e-05 -0.002333
-0.001159 -2.8e-05 -0.001738
-0.001139 -2.8e-05 -0.001752
-0.001265 0.000742 -0.002143
-0.000698 0.000585 -0.00273
-0.001052 0.000677 -0.002717
-0.000864 0.000673 -0.002848
-0.001005 0.000673 -0.002804
-0.000937 0.000669 -0.002834
-0.000962 0.000558 -0.002832
-0.000909 0.000703 -0.002828
-0.00108 0.000197 -0.002468
-0.001075 0.000219 -0.002416
-0.001068 0.000241 -0.002362
-0.00106 0.000266 -0.002304
-0.001058 0.000285 -0.002257
-0.001068 0.000294 -0.002226
-0.001082 0.0003 -0.002203
-0.001099 0.000303 -0.002184
-0.001118 0.000304 -0.002169
-0.00114 0.000303 -0.002156
-0.001065 0.000727 -0.002664
-0.000807 0.000607 -0.002831
-0.000807 0.000553 -0.00283
-0.000203 0.000606 -0.002713
-0.001369 0.000214 -0.002235
-0.001426 0.000183 -0.002276
-0.001482 0.000153 -0.002317
-0.001528 0.000131 -0.002343
-0.001572 0.000112 -0.002364
-0.001615 9.3e-05 -0.002384
-0.001655 7.7e-05 -0.0024
-0.001691 6.3e-05 -0.00241
-0.001717 5.9e-05 -0.002405
-0.00174 5.7e-05 -0.002394
-0.001761 5.6e-05 -0.002382
-0.001782 5.6e-05 -0.002369
-0.001803 5.6e-05 -0.002355
-0.001822 5.7e-05 -0.00234
-0.001841 5.9e-05 -0.002323
-0.001119 -2.9e-05 -0.001766
-0.001261 0.000775 -0.002131
0.000396 0.000748 -0.002412
-0.000938 0.00064 -0.002838
-0.001026 0.000677 -0.002788
-0.000697 0.000722 -0.002727
-0.000962 0.000612 -0.002832
-0.000915 0.000504 -0.002846
-0.000938 0.000504 -0.002839
-0.001074 0.000192 -0.002415
-0.001069 0.000214 -0.002362
-0.00106 0.000239 -0.002304
-0.001058 0.000258 -0.002256
-0.001068 0.000267 -0.002226
-0.001081 0.000273 -0.002202
-0.001099 0.000276 -0.002184
-0.001118 0.000277 -0.002169
-0.001139 0.000276 -0.002156
-0.001162 0.000274 -0.002146
-0.000417 0.000746 -0.002406
-0.000735 0.000591 -0.002765
-0.001265 0.000714 -0.002144
-0.001045 0.000466 -0.002768
-0.001368 0.000187 -0.002234
-0.001483 0.000125 -0.002318
-0.001529 0.000104 -0.002343
-0.001572 8.5e-05 -0.002363
-0.001614 6.6e-05 -0.002383
-0.001653 5.1e-05 -0.002397
-0.001685 4.2e-05 -0.0024
-0.001709 3.8e-05 -0.002393
-0.001732 3.7e-05 -0.002382
-0.001753 3.6e-05 -0.00237
-0.001774 3.6e-05 -0.002357
-0.001794 3.6e-05 -0.002343
-0.001814 3.7e-05 -0.002327
-0.001832 3.8e-05 -0.002311
-0.001098 -2.9e-05 -0.001779
-0.001077 -2.9e-05 -0.001793
-0.001008 0.000505 -0.002815
-0.000239 0.000715 -0.002579
-0.001007 0.000643 -0.002811
-0.001061 7.4e-05 -0.002659
-0.001066 8.7e-05 -0.002622
-0.001072 0.0001 -0.002586
-0.000834 0.00071 -0.002835
-0.001073 0.000166 -0.002413
-0.001068 0.000187 -0.002361
-0.001059 0.000212 -0.002303
-0.001058 0.000231 -0.002256
-0.001068 0.00024 -0.002226
-0.001081 0.000246 -0.002202
-0.001099 0.000249 -0.002184
-0.001118 0.00025 -0.002168
-0.001139 0.000249 -0.002156
-0.001162 0.000247 -0.002146
-0.001008 0.000587 -0.002814
-0.000938 0.000531 -0.002839
-8e-05 0.000652 -0.002962
-0.00103 0.000453 -0.002802
-0.001483 9.8e-05 -0.002318
-0.001528 7.8e-05 -0.002341
-0.001571 5.8e-05 -0.002362
-0.001612 4.1e-05 -0.00238
-0.001648 2.8e-05 -0.002389
-0.001675 2.3e-05 -0.002386
-0.001699 2e-05 -0.002377
-0.001721 1.9e-05 -0.002366
-0.001742 1.8e-05 -0.002353
-0.001763 1.8e-05 -0.00234
-0.001783 1.8e-05 -0.002326
-0.001803 1.9e-05 -0.002311
-0.001822 2e-05 -0.002295
-0.00184 2.3e-05 -0.002278
-0.001056 -2.8e-05 -0.001805
-0.000239 0.00066 -0.002579
-0.000292 0.00078 -0.002416
-0.000807 0.000579 -0.002831
-0.00106 4.7e-05 -0.002659
-0.001066 6e-05 -0.002622
-0.001071 7.3e-05 -0.002585
-0.001073 8.6e-05 -0.002547
-0.001079 9.9e-05 -0.002511
-0.001075 0.000137 -0.002416
-0.001068 0.00016 -0.002361
-0.001058 0.000186 -0.002301
-0.001058 0.000204 -0.002256
-0.001067 0.000213 -0.002226
-0.001081 0.000219 -0.002201
-0.001099 0.000222 -0.002184
-0.001118 0.000222 -0.002168
-0.001139 0.000222 -0.002156
-0.001162 0.00022 -0.002146
-0.001054 0.000623 -0.002718
-0.000985 0.000532 -0.002823
-0.000735 0.000537 -0.002765
-0.001035 -2.7e-05 -0.001818
-0.001484 7e-05 -0.00232
-0.001527 5.1e-05 -0.00234
-0.00157 3.2e-05 -0.00236
-0.001607 1.8e-05 -0.002372
-0.001636 1.1e-05 -0.002372
-0.001661 7e-06 -0.002365
-0.001684 5e-06 -0.002355
-0.001705 5e-06 -0.002342
-0.001726 4e-06 -0.002329
-0.001747 4e-06 -0.002315
-0.001768 4e-06 -0.002302
-0.001787 5e-06 -0.002288
-0.001807 6e-06 -0.002273
-0.001826 7e-06 -0.002256
-0.001843 1e-05 -0.002239
-0.00023 0.000638 -0.002631
-0.000261 0.000673 -0.002484
-0.000771 0.000544 -0.0028
-0.00096 0.00067 -0.002826
-0.000203 0.000742 -0.002713
-0.00107 4.6e-05 -0.002585
-0.001073 5.9e-05 -0.002547
-0.001079 7.2e-05 -0.002511
-0.001081 8.8e-05 -0.002469
-0.001076 0.000109 -0.002417
-0.001069 0.000133 -0.002362
-0.001058 0.000177 -0.002255
-0.001067 0.000186 -0.002225
-0.001081 0.000192 -0.002202
-0.001098 0.000195 -0.002183
-0.001118 0.000196 -0.002168
-0.001139 0.000195 -0.002156
-0.001162 0.000193 -0.002145
-0.000735 0.000646 -0.002765
-0.001008 0.000532 -0.002815
-0.000699 0.000557 -0.002731
-0.001482 4.4e-05 -0.002317
-0.001525 2.6e-05 -0.002337
-0.001562 1.1e-05 -0.002349
-0.001592 3e-06 -0.00235
-0.001617 0.0 -0.002342
-0.001639 -1e-06 -0.002331
-0.001659 -1e-06 -0.002317
-0.00168 -1e-06 -0.002304
-0.001702 -2e-06 -0.002292
-0.001722 -2e-06 -0.002278
-0.001742 -1e-06 -0.002264
-0.001763 -2e-06 -0.002251
-0.001782 -1e-06 -0.002235
-0.001802 0.0 -0.002221
-0.001822 1e-06 -0.002205
-0.001841 3e-06 -0.00219
-0.001014 -2.7e-05 -0.001831
-0.000249 0.000709 -0.002527
-0.000983 0.000671 -0.002816
-0.001 0.000708 -0.002789
-0.001068 1.9e-05 -0.002582
-0.001073 3.2e-05 -0.002547
-0.001078 4.5e-05 -0.00251
-0.00108 6.1e-05 -0.002469
-0.001074 8.4e-05 -0.002414
-0.001068 0.000106 -0.002361
-0.001058 0.000149 -0.002256
-0.001067 0.000159 -0.002225
-0.001081 0.000165 -0.002201
-0.001099 0.000167 -0.002183
-0.001118 0.000168 -0.002168
-0.001139 0.000168 -0.002155
-0.001162 0.000165 -0.002145
-0.000915 0.000585 -0.002847
-0.00103 0.000535 -0.002802
-0.000175 0.000555 -0.002778
-0.001479 2e-05 -0.002312
-0.001516 6e-06 -0.002324
-0.001542 1e-06 -0.002319
-0.001565 -0.0 -0.002308
-0.001584 0.0 -0.002293
-0.001605 0.0 -0.00228
-0.001626 0.0 -0.002267
-0.001668 -1e-06 -0.002241
-0.001688 -0.0 -0.002226
-0.001709 -1e-06 -0.002214
-0.001729 -1e-06 -0.0022
-0.00175 -0.0 -0.002186
-0.001771 -1e-06 -0.002173
-0.001791 -0.0 -0.002159
-0.001811 0.0 -0.002144
-0.001832 1e-06 -0.002132
-0.000204 0.000632 -0.002714
-0.000189 0.00062 -0.002748
-0.001046 -7e-06 -0.002595
-0.001058 1e-06 -0.002568
-0.001068 9e-06 -0.00254
-0.001077 1.9e-05 -0.002508
-0.001082 3.2e-05 -0.002471
-0.001066 8e-05 -0.002358
-0.001057 0.000105 -0.0023
-0.001058 0.000122 -0.002256
-0.001067 0.000132 -0.002225
-0.001081 0.000138 -0.002201
-0.001099 0.00014 -0.002183
-0.001118 0.000141 -0.002168
-0.001139 0.000141 -0.002155
-0.001162 0.000138 -0.002145
-0.000938 0.000585 -0.00284
-0.00103 0.000562 -0.002801
-0.000218 0.000646 -0.002678
-0.001427 1.9e-05 -0.002278
-0.001467 2e-06 -0.002295
-0.001494 -3e-06 -0.00229
-0.001516 -4e-06 -0.002279
-0.001536 -3e-06 -0.002264
-0.001556 -3e-06 -0.00225
-0.000993 -2.7e-05 -0.001844
-0.001641 -5e-06 -0.002199
-0.00166 -4e-06 -0.002184
-0.001681 -4e-06 -0.002171
-0.001743 -5e-06 -0.002131
-0.001763 -4e-06 -0.002117
-0.001784 -4e-06 -0.002104
-0.001804 -4e-06 -0.002089
-0.001824 -3e-06 -0.002075
-0.000928 -4e-06 -0.002596
-0.00095 -5e-06 -0.002584
-0.000972 -2.6e-05 -0.001856
-0.001015 -8e-06 -0.002548
-0.001032 -5e-06 -0.00253
-0.001049 -2e-06 -0.00251
-0.001066 1e-06 -0.002492
-0.001079 8e-06 -0.002464
-0.001076 2.7e-05 -0.002418
-0.001068 5.2e-05 -0.002361
-0.001057 7.8e-05 -0.0023
-0.001058 9.5e-05 -0.002256
-0.001068 0.000104 -0.002226
-0.001081 0.00011 -0.002201
-0.001099 0.000113 -0.002183
-0.001118 0.000114 -0.002168
-0.001139 0.000113 -0.002155
-0.000914 0.00064 -0.002845
-0.000218 0.000728 -0.002678
-0.000203 0.000687 -0.002713
-0.000393 0.000716 -0.002407
-0.001416 1e-06 -0.002262
-0.001442 -3e-06 -0.002256
-0.001461 -2e-06 -0.002241
-0.001482 -2e-06 -0.002228
-0.001563 -1e-06 -0.002171
-0.001583 -1e-06 -0.002157
-0.001646 -2e-06 -0.002119
-0.001666 -2e-06 -0.002104
-0.001708 -2e-06 -0.002077
-0.00173 -3e-06 -0.002066
-0.00175 -3e-06 -0.002052
-0.00177 -2e-06 -0.002038
-0.001792 -3e-06 -0.002026
-0.001813 -3e-06 -0.002013
-0.000896 -4e-06 -0.002547
-0.000914 -2e-06 -0.00253
-0.000934 -1e-06 -0.002514
-0.000978 -3e-06 -0.002492
-0.000995 -1e-06 -0.002474
-0.001017 -2e-06 -0.002462
-0.001037 -2e-06 -0.002448
-0.000735 0.000727 -0.002766
-0.001072 4e-06 -0.002411
-0.001056 5.2e-05 -0.002298
-0.001058 6.8e-05 -0.002255
-0.001067 7.7e-05 -0.002225
-0.001081 8.3e-05 -0.002202
-0.001099 8.6e-05 -0.002183
-0.001118 8.7e-05 -0.002168
-0.001139 8.6e-05 -0.002155
-0.000698 0.000695 -0.002728
-0.000841 0.000536 -0.002856
-0.00066 0.000581 -0.002688
-0.001366 -1e-06 -0.00223
-0.001393 -6e-06 -0.002226
-0.001413 -6e-06 -0.002212
-0.001433 -5e-06 -0.002197
-0.001453 -5e-06 -0.002184
-0.001474 -5e-06 -0.00217
-0.001536 -5e-06 -0.00213
-0.001556 -5e-06 -0.002116
-0.001617 -4e-06 -0.002074
-0.001638 -5e-06 -0.002061
-0.001698 -4e-06 -0.002018
-0.001719 -3e-06 -0.002005
-0.001739 -3e-06 -0.00199
-0.001759 -3e-06 -0.001976
-0.001779 -3e-06 -0.001962
-0.000862 -3e-06 -0.002496
-0.000885 -4e-06 -0.002485
-0.000905 -4e-06 -0.002471
-0.000926 -4e-06 -0.002459
-0.000947 -5e-06 -0.002446
-0.000969 -6e-06 -0.002434
-0.000991 -7e-06 -0.002422
-0.001012 -6e-06 -0.00241
-0.001051 -6e-06 -0.00238
-0.001057 4.1e-05 -0.002255
-0.001067 5.1e-05 -0.002225
-0.001081 5.6e-05 -0.002201
-0.001098 5.9e-05 -0.002183
-0.001118 6e-05 -0.002168
-0.001139 5.9e-05 -0.002155
-0.000985 0.000613 -0.002823
-0.000915 0.000557 -0.002847
-0.001296 0.000756 -0.002162
-0.001342 -8e-06 -0.002194
-0.001363 -8e-06 -0.002181
-0.001383 -8e-06 -0.002168
-0.001424 -7e-06 -0.002139
-0.001443 -6e-06 -0.002123
-0.001712 -7e-06 -0.001949
-0.001773 -7e-06 -0.001908
-0.001787 -1e-06 -0.001884
-0.000835 -6e-06 -0.002454
-0.000857 -8e-06 -0.002443
-0.000875 -6e-06 -0.002426
-0.000897 -7e-06 -0.002414
-0.000916 -6e-06 -0.002398
-0.000936 -5e-06 -0.002384
-0.00096 -8e-06 -0.002376
-0.000978 -6e-06 -0.002359
-0.000998 -5e-06 -0.002344
-0.001018 -5e-06 -0.002329
-0.001038 -4e-06 -0.002315
-0.001052 2e-06 -0.002291
-0.001057 1.4e-05 -0.002255
-0.001066 2.4e-05 -0.002224
-0.001081 2.9e-05 -0.002201
-0.001098 3.2e-05 -0.002183
-0.001117 3.3e-05 -0.002167
-0.001139 3.2e-05 -0.002155
-0.000961 0.00064 -0.002831
-0.00084 0.000564 -0.002855
-0.000868 0.000449 -0.002861
-0.001289 -8e-06 -0.002159
-0.001309 -7e-06 -0.002144
-0.001324 -3e-06 -0.002123
-0.001366 -3e-06 -0.002096
-0.001386 -2e-06 -0.002082
-0.001407 -3e-06 -0.002068
-0.00095 -2.6e-05 -0.001869
-0.000929 -2.5e-05 -0.001882
-0.001614 -4e-06 -0.001936
-0.001634 -4e-06 -0.001922
-0.001655 -4e-06 -0.001908
-0.001676 -4e-06 -0.001896
-0.001719 -6e-06 -0.001871
-0.00174 -6e-06 -0.001858
-0.00176 -5e-06 -0.001843
-0.000822 -6e-06 -0.002391
-0.00084 -4e-06 -0.002373
-0.000861 -4e-06 -0.00236
-0.000879 -2e-06 -0.002343
-0.000261 0.0007 -0.002484
-0.001022 0.00071 -0.002777
-0.000961 -2e-06 -0.002288
-0.001003 -2e-06 -0.002262
-0.001023 -1e-06 -0.002248
-0.001043 -1e-06 -0.002234
-0.001061 1e-06 -0.002216
-0.001079 4e-06 -0.002198
-0.001096 6e-06 -0.00218
-0.001116 7e-06 -0.002165
-0.001137 6e-06 -0.002152
-0.000913 0.00067 -0.00284
-0.001062 0.000699 -0.002666
-0.000321 0.000745 -0.002425
-0.001252 -3e-06 -0.002102
-0.001271 -2e-06 -0.002087
-0.001291 -1e-06 -0.002072
-0.001311 -2e-06 -0.002058
-0.001333 -2e-06 -0.002046
-0.001353 -2e-06 -0.002031
-0.001476 -1e-06 -0.00195
-0.001497 -2e-06 -0.001937
-0.001517 -2e-06 -0.001923
-0.001538 -2e-06 -0.00191
-0.00158 -2e-06 -0.001884
-0.001601 -3e-06 -0.001871
-0.001621 -2e-06 -0.001856
-0.00164 -1e-06 -0.001841
-0.001682 -2e-06 -0.001815
-0.001703 -2e-06 -0.001802
-0.001726 -4e-06 -0.001791
-0.000806 -1e-06 -0.002321
-0.000827 -2e-06 -0.002308
-0.000847 -2e-06 -0.002294
-0.000867 0.000504 -0.00286
4.2e-05 0.000476 -0.00299
-0.000343 0.000692 -0.002415
-0.000239 0.000634 -0.002578
-0.001296 0.00073 -0.002161
-0.000938 0.000476 -0.002839
-0.001045 0.000657 -0.002768
-0.001015 -5e-06 -0.002191
-0.001036 -5e-06 -0.002178
-0.001057 -5e-06 -0.002165
-0.001079 -6e-06 -0.002153
-0.0011 -7e-06 -0.002141
-0.001121 -7e-06 -0.002128
-0.001142 -7e-06 -0.002115
-0.001163 -7e-06 -0.002101
-0.00086 0.000705 -0.002837
-0.001163 0.000728 -0.002146
-0.001226 -8e-06 -0.002063
-0.001246 -8e-06 -0.002049
-0.001267 -9e-06 -0.002036
-0.001287 -8e-06 -0.002021
-0.001308 -8e-06 -0.002008
-0.001328 -8e-06 -0.001995
-0.000908 -2.5e-05 -0.001894
-0.001451 -8e-06 -0.001912
-0.001471 -8e-06 -0.001898
-0.001491 -7e-06 -0.001883
-0.001512 -7e-06 -0.00187
-0.001532 -6e-06 -0.001856
-0.001653 -4e-06 -0.00177
-0.001673 -4e-06 -0.001756
-0.001694 -4e-06 -0.001744
-0.001713 -3e-06 -0.001728
-0.001733 -2e-06 -0.001714
-0.001751 0.0 -0.001696
-0.001785 6e-06 -0.001659
-0.001805 7e-06 -0.001643
-0.001825 7e-06 -0.001629
-0.000915 0.000476 -0.002847
-0.000757 -5e-06 -0.002292
-0.000779 -6e-06 -0.00228
-0.0008 -7e-06 -0.002268
-0.000822 -8e-06 -0.002256
-0.000368 0.000745 -0.00241
0.000445 0.000754 -0.002399
-0.000979 0.000704 -0.002803
-0.000907 -8e-06 -0.002206
-0.000929 -1e-05 -0.002194
-0.000951 -1.1e-05 -0.002182
-0.000971 -1.2e-05 -0.002169
-0.000992 -1.2e-05 -0.002155
-0.001012 -1.2e-05 -0.002142
-0.001033 -1.2e-05 -0.002128
-0.001052 -1.1e-05 -0.002113
-0.001072 -1e-05 -0.002098
-0.001093 -1.1e-05 -0.002086
-0.001114 -1.1e-05 -0.002073
-0.001135 -1.1e-05 -0.002059
-0.000885 0.000703 -0.002834
-0.00114 0.000726 -0.002156
-0.001237 0.000722 -0.002137
-0.00028 0.00071 -0.002457
-0.001341 -1.1e-05 -0.001924
-0.001362 -1.2e-05 -0.001911
-0.000218 0.00062 -0.002677
-0.00163 -1e-05 -0.001736
-0.00165 -1.1e-05 -0.001722
-0.00167 -1e-05 -0.001706
-0.001689 -1e-05 -0.001692
-0.00171 -1e-05 -0.001678
-0.001729 -9e-06 -0.001662
-0.001749 -8e-06 -0.001648
-0.001769 -7e-06 -0.001633
-0.001789 -7e-06 -0.001619
-0.001809 -7e-06 -0.001605
-0.000713 -1.2e-05 -0.00227
-0.000733 -1.2e-05 -0.002255
-0.000753 -1.1e-05 -0.002241
-0.000774 -1.2e-05 -0.002228
-0.000794 -1.1e-05 -0.002214
-0.000393 0.000743 -0.002408
-0.000956 0.000702 -0.002814
-0.000896 -1e-05 -0.002144
-0.000915 -9e-06 -0.002129
-0.000936 -9e-06 -0.002115
-0.000955 -8e-06 -0.002099
-0.000975 -7e-06 -0.002085
-0.000996 -7e-06 -0.002072
-0.001016 -7e-06 -0.002058
-0.001037 -8e-06 -0.002045
-0.001057 -7e-06 -0.002031
-0.001077 -7e-06 -0.002017
-0.001098 -7e-06 -0.002004
0.000141 0.000681 -0.002959
-0.001237 0.000748 -0.002137
-0.001211 0.000752 -0.002136
-0.001201 -7e-06 -0.001936
-0.001221 -7e-06 -0.001922
-0.001241 -6e-06 -0.001907
-0.001262 -7e-06 -0.001895
-0.001283 -7e-06 -0.001881
-0.001304 -7e-06 -0.001868
-0.001331 0.000684 -0.002191
-0.001595 -9e-06 -0.001683
-0.001616 -1e-05 -0.00167
-0.001637 -1e-05 -0.001657
-0.001657 -1e-05 -0.001643
-0.001721 -1.1e-05 -0.001605
-0.001741 -1.1e-05 -0.001591
-0.001762 -1.2e-05 -0.001578
-0.001783 -1.2e-05 -0.001566
-0.000678 -1e-05 -0.002216
-0.000698 -1e-05 -0.002203
-0.000719 -9e-06 -0.00219
-0.000738 -9e-06 -0.002174
-0.001054 0.000542 -0.002716
-0.000858 -6e-06 -0.002087
-0.000878 -5e-06 -0.002073
-0.000898 -5e-06 -0.002059
-0.000919 -5e-06 -0.002045
-0.000941 -6e-06 -0.002034
-0.00096 -5e-06 -0.002018
-0.000981 -5e-06 -0.002005
-0.001021 -4e-06 -0.001977
-0.001043 -5e-06 -0.001965
-0.000188 0.000566 -0.002747
-0.001084 -5e-06 -0.001937
-0.001104 -5e-06 -0.001923
-0.001124 -4e-06 -0.001909
-0.001145 -4e-06 -0.001895
-0.001165 -4e-06 -0.001881
-0.001185 -4e-06 -0.001867
-0.001206 -4e-06 -0.001854
-0.001227 -4e-06 -0.001841
-0.001247 -4e-06 -0.001827
-0.001495 -5e-06 -0.001665
-0.001514 -3e-06 -0.001649
-0.001535 -4e-06 -0.001637
-0.001557 -5e-06 -0.001625
-0.001577 -4e-06 -0.001611
-0.001599 -5e-06 -0.001599
-0.001621 -7e-06 -0.001589
-0.000239 0.000687 -0.00258
-0.00103 0.000508 -0.002802
-0.001045 0.000521 -0.002768
-0.000933 0.000702 -0.002822
-0.000722 -5e-06 -0.002105
-0.000742 -4e-06 -0.00209
-0.000892 0.000449 -0.002855
-0.000825 -4e-06 -0.002036
-0.000846 -5e-06 -0.002024
-0.000865 -4e-06 -0.002009
-0.000887 -5e-06 -0.001997
-0.000909 -6e-06 -0.001985
-0.00084 0.000619 -0.002855
-0.000299 0.000742 -0.002438
-0.000972 -7e-06 -0.001946
-0.000993 -7e-06 -0.001933
-0.001014 -8e-06 -0.001921
-0.001034 -8e-06 -0.001907
-0.001055 -8e-06 -0.001894
-0.001076 -8e-06 -0.00188
-0.001097 -8e-06 -0.001867
-0.001118 -9e-06 -0.001855
-0.001138 -9e-06 -0.001841
-0.001159 -9e-06 -0.001827
-0.00118 -9e-06 -0.001814
-0.0012 -9e-06 -0.001801
-0.001221 -9e-06 -0.001787
-0.001242 -9e-06 -0.001774
-0.001465 -6e-06 -0.00162
-0.001485 -5e-06 -0.001605
-0.001505 -5e-06 -0.001592
-0.001525 -5e-06 -0.001576
-0.001545 -4e-06 -0.001562
-0.001566 -4e-06 -0.001549
-0.001587 -4e-06 -0.001536
-0.001608 -5e-06 -0.001523
-0.000129 0.000581 -0.00288
-0.001008 0.00045 -0.002815
-0.000771 0.00049 -0.002799
-0.000735 0.00051 -0.002765
-0.000299 0.000688 -0.002438
-0.000915 0.000612 -0.002847
-0.000715 -8e-06 -0.002049
-0.001211 0.000726 -0.002136
-0.001186 0.000728 -0.002138
-0.000938 0.000612 -0.002839
-0.0008 -1.1e-05 -0.001999
-0.000822 -1.2e-05 -0.001988
-0.000844 -1.3e-05 -0.001976
-0.000864 -1.3e-05 -0.001962
-0.000885 -1.3e-05 -0.001949
-0.00104 0.000686 -0.002762
-0.000928 -1.4e-05 -0.001924
-0.000949 -1.5e-05 -0.001911
-0.00097 -1.5e-05 -0.001899
-0.00099 -1.5e-05 -0.001885
-0.001012 -1.6e-05 -0.001873
-0.001033 -1.6e-05 -0.00186
-0.001054 -1.7e-05 -0.001848
-0.001075 -1.7e-05 -0.001834
-0.001095 -1.7e-05 -0.00182
-0.001116 -1.7e-05 -0.001808
-0.001137 -1.7e-05 -0.001794
-0.001158 -1.7e-05 -0.001781
-0.001178 -1.7e-05 -0.001767
-0.001199 -1.7e-05 -0.001753
-0.001219 -1.7e-05 -0.00174
-0.00124 -1.7e-05 -0.001726
-0.00126 -1.7e-05 -0.001712
-0.001281 -1.7e-05 -0.001699
-0.001301 -1.7e-05 -0.001685
-0.001321 -1.6e-05 -0.00167
-0.001341 -1.6e-05 -0.001656
-0.00136 -1.5e-05 -0.001641
-0.001381 -1.5e-05 -0.001626
-0.001402 -1.5e-05 -0.001614
-0.001422 -1.4e-05 -0.0016
-0.001441 -1.3e-05 -0.001584
-0.001461 -1.3e-05 -0.00157
-0.001481 -1.2e-05 -0.001555
-0.001501 -1.2e-05 -0.001541
-0.001521 -1.1e-05 -0.001526
-0.00154 -1e-05 -0.001511
-0.00156 -9e-06 -0.001496
-0.001081 0.000708 -0.002215
-0.000985 0.00045 -0.002824
-0.000698 0.00053 -0.00273
-0.000321 0.000691 -0.002424
-0.000939 0.000449 -0.00284
-0.000176 0.000624 -0.002786
0.000166 0.000668 -0.00293
0.000208 0.000623 -0.002839
-8.1e-05 0.000569 -0.002964
-0.000105 0.000588 -0.002923
-0.00066 0.000527 -0.002689
-0.000698 0.000504 -0.00273
-0.000735 0.000483 -0.002765
-0.000771 0.000463 -0.002799
-0.000807 0.000444 -0.00283
-0.000841 0.000427 -0.002857
-0.000868 0.000422 -0.00286
-0.000891 0.000422 -0.002854
-0.000915 0.000422 -0.002847
-0.000938 0.000422 -0.002839
-0.000962 0.000422 -0.002832
-0.000985 0.000423 -0.002824
-0.001008 0.000423 -0.002815
-0.00103 0.000426 -0.002802
-0.001045 0.000439 -0.002768
-0.001053 0.00046 -0.002717
-0.001098 0.000691 -0.002187
-0.001118 0.000696 -0.002169
-0.00114 0.000699 -0.002156
-0.001162 0.000701 -0.002145
-0.001186 0.000701 -0.002138
-0.001211 0.000699 -0.002135
-0.001237 0.000695 -0.002136
-0.001265 0.000688 -0.002142
-0.001297 0.000674 -0.002163
-0.001332 0.000656 -0.002193
-0.000175 0.000528 -0.002777
-0.000188 0.000538 -0.002746
-0.000203 0.000551 -0.002713
-0.000218 0.000565 -0.002677
-0.000229 0.000585 -0.00263
-0.000239 0.000606 -0.002578
-0.000249 0.000627 -0.002528
-0.000262 0.000645 -0.002485
-0.000279 0.000655 -0.002457
-0.000299 0.000661 -0.002438
-0.00032 0.000664 -0.002424
-0.000343 0.000665 -0.002415
-0.000367 0.000664 -0.00241
0.000217 0.000739 -0.002837
6.7e-05 0.000641 -0.002987
-0.000152 0.000684 -0.002833
-7e-06 0.000476 -0.00299
-0.000666 0.000499 -0.002686
-0.000698 0.000477 -0.002729
-0.000735 0.000455 -0.002766
-0.000771 0.000436 -0.002799
-0.000807 0.000416 -0.002832
-0.000841 0.0004 -0.002857
-0.000868 0.000395 -0.002861
-0.000892 0.000394 -0.002855
-0.000915 0.000394 -0.002847
-0.000939 0.000395 -0.002839
-0.000962 0.000395 -0.002831
-0.000985 0.000395 -0.002824
-0.001008 0.000396 -0.002815
-0.00103 0.000399 -0.002802
-0.001045 0.000413 -0.002766
-0.001053 0.000433 -0.002717
-0.001097 0.000664 -0.002186
-0.001118 0.000669 -0.002169
-0.00114 0.000672 -0.002156
-0.001162 0.000674 -0.002145
-0.001186 0.000674 -0.002138
-0.001211 0.000672 -0.002135
-0.001237 0.000667 -0.002137
-0.001265 0.000661 -0.002143
-0.001296 0.000648 -0.002161
-0.001331 0.00063 -0.002192
-0.000175 0.000501 -0.002778
-0.000188 0.000511 -0.002746
-0.000203 0.000524 -0.002713
-0.000218 0.000538 -0.002677
-0.000229 0.000558 -0.00263
-0.000239 0.000579 -0.002578
-0.00025 0.0006 -0.002529
-0.000262 0.000618 -0.002484
-0.000279 0.000628 -0.002456
-0.000299 0.000634 -0.002438
-0.000321 0.000637 -0.002424
-0.000343 0.000638 -0.002415
-0.000367 0.000637 -0.002409
4.2e-05 0.000669 -0.002984
-0.000105 0.000669 -0.002924
-0.000194 0.000728 -0.002735
-5.6e-05 0.000478 -0.002985
-0.000665 0.000472 -0.002684
-0.000698 0.00045 -0.002729
-0.000735 0.000429 -0.002764
-0.000771 0.000409 -0.002798
-0.000807 0.000389 -0.002831
-0.000841 0.000373 -0.002857
-0.000868 0.000368 -0.00286
-0.000892 0.000367 -0.002854
-0.000915 0.000367 -0.002847
-0.000939 0.000367 -0.00284
-0.000962 0.000368 -0.002832
-0.000985 0.000368 -0.002824
-0.001008 0.000369 -0.002815
-0.00103 0.000372 -0.002802
-0.001045 0.000386 -0.002766
-0.001052 0.000407 -0.002715
-0.00114 0.000645 -0.002156
-0.001162 0.000647 -0.002145
-0.001186 0.000647 -0.002138
-0.001211 0.000645 -0.002135
-0.001237 0.00064 -0.002136
-0.001265 0.000633 -0.002143
-0.001296 0.000621 -0.002162
-0.001332 0.000602 -0.002193
0.000141 0.000541 -0.002969
-0.000188 0.000484 -0.002747
-0.000204 0.000497 -0.002714
-0.000218 0.000511 -0.002677
-0.000229 0.00053 -0.00263
-0.000239 0.000552 -0.002578
-0.000248 0.000574 -0.002525
-0.000262 0.000591 -0.002484
-0.00028 0.000601 -0.002457
-0.000299 0.000607 -0.002438
-0.000321 0.00061 -0.002424
-0.000343 0.000611 -0.002415
-0.000367 0.00061 -0.002409
1.8e-05 0.000669 -0.002983
-0.000152 0.000711 -0.002834
0.000116 0.000588 -0.002984
-0.000152 0.00063 -0.002833
-0.000665 0.000445 -0.002685
-0.000698 0.000422 -0.002729
-0.000735 0.000401 -0.002765
-0.000771 0.000381 -0.002799
-0.000807 0.000362 -0.002832
-0.000841 0.000346 -0.002856
-0.000868 0.000341 -0.00286
-0.000891 0.00034 -0.002854
-0.000915 0.00034 -0.002847
-0.000938 0.000341 -0.002839
-0.000962 0.000341 -0.002831
-0.000985 0.000341 -0.002823
-0.001008 0.000342 -0.002815
-0.00103 0.000345 -0.002802
-0.001045 0.000358 -0.002767
-0.001052 0.000379 -0.002715
-0.001162 0.000619 -0.002145
-0.001186 0.000619 -0.002138
-0.00121 0.000618 -0.002134
-0.001237 0.000613 -0.002136
-0.001265 0.000606 -0.002143
-0.001297 0.000593 -0.002163
-0.001332 0.000575 -0.002193
-3.2e-05 0.000558 -0.002989
-0.000188 0.000457 -0.002746
-0.000203 0.00047 -0.002713
-0.000218 0.000484 -0.002677
-0.000229 0.000504 -0.002629
-0.000239 0.000524 -0.002579
-0.000261 0.000564 -0.002483
-0.000279 0.000574 -0.002455
-0.000299 0.00058 -0.002437
-0.00032 0.000583 -0.002424
-0.000343 0.000584 -0.002415
-0.000367 0.000583 -0.002409
-8e-05 0.000714 -0.002944
-0.000176 0.000731 -0.00279
-0.000105 0.000642 -0.002923
-3.2e-05 0.000504 -0.002989
-0.000666 0.000418 -0.002685
-0.000698 0.000395 -0.002729
-0.000735 0.000374 -0.002765
-0.000771 0.000354 -0.002799
-0.000807 0.000334 -0.002832
-0.000841 0.000319 -0.002856
-0.000868 0.000313 -0.00286
-0.000892 0.000313 -0.002854
-0.000915 0.000313 -0.002847
-0.000939 0.000313 -0.002839
-0.000962 0.000313 -0.002832
-0.000985 0.000314 -0.002823
-0.001008 0.000314 -0.002815
-0.00103 0.000317 -0.002802
-0.001045 0.000332 -0.002765
-0.001052 0.000352 -0.002716
-0.001162 0.000592 -0.002145
-0.001186 0.000592 -0.002138
-0.00121 0.000591 -0.002134
-0.001237 0.000586 -0.002136
-0.001265 0.000579 -0.002143
-0.001297 0.000566 -0.002163
-0.001332 0.000548 -0.002192
-0.000171 0.000419 -0.002775
-0.000188 0.00043 -0.002747
-0.000203 0.000443 -0.002711
-0.000218 0.000456 -0.002678
-0.00023 0.000476 -0.002631
-0.000239 0.000497 -0.002579
-0.000248 0.00052 -0.002525
-0.000261 0.000538 -0.002482
-0.000279 0.000547 -0.002455
-0.000299 0.000553 -0.002436
-0.00032 0.000556 -0.002423
-0.000343 0.000557 -0.002414
-0.000367 0.000556 -0.002409
-0.000392 0.000553 -0.002406
6.7e-05 0.000613 -0.002989
-3.2e-05 0.000585 -0.002988
-0.000541 0.000793 -0.002476
-0.000617 0.000422 -0.002633
-0.000663 0.000391 -0.002687
-0.000698 0.000368 -0.00273
-0.000735 0.000347 -0.002766
-0.000772 0.000326 -0.0028
-0.000808 0.000307 -0.002833
-0.000841 0.000292 -0.002856
-0.000868 0.000286 -0.00286
-0.000892 0.000286 -0.002854
-0.000915 0.000286 -0.002847
-0.000938 0.000286 -0.002839
-0.000962 0.000287 -0.002831
-0.000985 0.000287 -0.002823
-0.001008 0.000288 -0.002815
-0.00103 0.00029 -0.002802
-0.001045 0.000304 -0.002766
-0.001053 0.000326 -0.002715
-0.001162 0.000565 -0.002145
-0.001186 0.000565 -0.002138
-0.001211 0.000563 -0.002134
-0.001237 0.000559 -0.002135
-0.001265 0.000551 -0.002144
-0.001297 0.000539 -0.002162
-0.001332 0.000521 -0.002192
-0.000171 0.000392 -0.002775
-0.000188 0.000402 -0.002747
-0.000202 0.000417 -0.002709
-0.000218 0.00043 -0.002676
-0.000229 0.000449 -0.002629
-0.000249 0.000492 -0.002526
-0.000261 0.000511 -0.002482
-0.000279 0.00052 -0.002455
-0.000299 0.000526 -0.002437
-0.00032 0.000529 -0.002423
-0.000343 0.000529 -0.002414
-0.000367 0.000528 -0.002409
-0.000392 0.000526 -0.002406
0.000947 0.000643 -0.002831
-8.1e-05 0.000596 -0.002964
-0.000105 0.000561 -0.002924
-0.000663 0.000363 -0.002687
-0.000699 0.00034 -0.00273
-0.000736 0.000319 -0.002767
-0.000772 0.000299 -0.0028
-0.000808 0.00028 -0.002832
-0.000841 0.000265 -0.002856
-0.000868 0.000259 -0.002861
-0.000892 0.000259 -0.002854
-0.000915 0.000259 -0.002847
-0.000939 0.000259 -0.002839
-0.000962 0.000259 -0.002831
-0.000985 0.00026 -0.002823
-0.001008 0.00026 -0.002815
-0.00103 0.000263 -0.002801
-0.001045 0.000277 -0.002766
-0.001053 0.000298 -0.002714
-0.001162 0.000538 -0.002145
-0.001186 0.000538 -0.002138
-0.001211 0.000536 -0.002134
-0.001237 0.000532 -0.002135
-0.001265 0.000524 -0.002144
-0.001297 0.000511 -0.002163
-0.001332 0.000494 -0.002192
-0.000171 0.000365 -0.002774
-0.000188 0.000376 -0.002746
-0.000202 0.00039 -0.002709
-0.000218 0.000403 -0.002675
-0.000229 0.000422 -0.002628
-0.00024 0.000442 -0.00258
-0.000248 0.000466 -0.002524
-0.000261 0.000483 -0.002482
-0.000279 0.000493 -0.002455
-0.000299 0.000499 -0.002437
-0.00032 0.000502 -0.002423
-0.000343 0.000502 -0.002414
-0.000367 0.000501 -0.002408
0.000192 0.000716 -0.002886
9.2e-05 0.000614 -0.002987
-7e-06 0.000585 -0.002989
0.000282 0.000674 -0.002644
-0.000664 0.000336 -0.002688
-0.000698 0.000314 -0.002729
-0.000736 0.000292 -0.002767
-0.000772 0.000271 -0.002801
-0.000808 0.000252 -0.002833
-0.000841 0.000238 -0.002856
-0.000868 0.000232 -0.00286
-0.000892 0.000231 -0.002854
-0.000915 0.000232 -0.002847
-0.000939 0.000232 -0.002839
-0.000962 0.000232 -0.002831
-0.000985 0.000232 -0.002823
-0.001008 0.000233 -0.002815
-0.00103 0.000236 -0.002802
-0.001045 0.00025 -0.002766
-0.001053 0.000271 -0.002714
-0.001162 0.000511 -0.002145
-0.001186 0.000511 -0.002138
-0.001211 0.000509 -0.002135
-0.001237 0.000505 -0.002136
-0.001265 0.000497 -0.002144
-0.001297 0.000484 -0.002163
-0.001332 0.000466 -0.002192
-0.000171 0.000338 -0.002774
-0.000188 0.000348 -0.002746
-0.000203 0.000362 -0.002711
-0.000218 0.000376 -0.002676
-0.000229 0.000395 -0.002629
-0.00024 0.000416 -0.002579
-0.000261 0.000456 -0.002482
-0.000278 0.000466 -0.002455
-0.000299 0.000471 -0.002436
-0.00032 0.000474 -0.002423
-0.000343 0.000475 -0.002414
-0.000367 0.000474 -0.002409
9.2e-05 0.000672 -0.002978
0.000116 0.000616 -0.002982
1.8e-05 0.000585 -0.002989
9.1e-05 0.00045 -0.002988
0.00047 0.000729 -0.002395
-0.000699 0.000286 -0.00273
-0.000736 0.000264 -0.002767
-0.000772 0.000245 -0.0028
-0.000808 0.000225 -0.002833
-0.000841 0.000211 -0.002856
-0.000868 0.000205 -0.00286
-0.000892 0.000204 -0.002854
-0.000915 0.000204 -0.002847
-0.000939 0.000204 -0.002839
-0.000962 0.000205 -0.002832
-0.000985 0.000205 -0.002823
-0.001008 0.000206 -0.002814
-0.00103 0.000209 -0.002801
-0.001045 0.000223 -0.002766
-0.001053 0.000244 -0.002714
-0.001162 0.000484 -0.002145
-0.001186 0.000484 -0.002138
-0.001211 0.000482 -0.002135
-0.001237 0.000477 -0.002136
-0.001265 0.00047 -0.002144
-0.001297 0.000457 -0.002163
-0.001332 0.000439 -0.002193
-0.000592 0.000714 -0.002588
-0.00019 0.000321 -0.002746
-0.000204 0.000335 -0.002711
-0.000218 0.000349 -0.002675
-0.000229 0.000368 -0.002628
-0.000239 0.000389 -0.002579
-0.000249 0.000411 -0.002526
-0.000261 0.000429 -0.002482
-0.000278 0.000439 -0.002455
-0.000299 0.000444 -0.002437
-0.00032 0.000447 -0.002423
-0.000343 0.000448 -0.002414
-0.000367 0.000447 -0.002408
-3.1e-05 0.000671 -0.002979
-3.2e-05 0.000613 -0.002987
0.000895 0.000487 -0.002829
6.7e-05 0.00045 -0.002989
0.000592 0.000693 -0.002473
-0.000699 0.000259 -0.00273
-0.000736 0.000237 -0.002767
-0.000772 0.000218 -0.0028
-0.000808 0.000198 -0.002833
-0.000841 0.000183 -0.002856
-0.000867 0.000179 -0.002858
-0.000892 0.000177 -0.002854
-0.000915 0.000177 -0.002847
-0.000939 0.000177 -0.002839
-0.000962 0.000178 -0.002831
-0.000985 0.000178 -0.002823
-0.001008 0.000179 -0.002813
-0.00103 0.000182 -0.0028
-0.001045 0.000195 -0.002767
-0.001054 0.000216 -0.002715
-0.001162 0.000457 -0.002145
-0.001186 0.000456 -0.002138
-0.001211 0.000454 -0.002135
-0.001237 0.00045 -0.002136
-0.001265 0.000443 -0.002144
-0.001297 0.00043 -0.002163
-0.001332 0.000411 -0.002193
-0.000153 0.000548 -0.002833
-0.000191 0.000294 -0.002747
-0.000205 0.000307 -0.002713
-0.000218 0.000322 -0.002675
-0.000229 0.000341 -0.002628
-0.00024 0.000361 -0.002579
-0.000249 0.000384 -0.002525
-0.000261 0.000402 -0.002481
-0.000279 0.000411 -0.002456
-0.000299 0.000417 -0.002437
-0.000321 0.00042 -0.002423
-0.000343 0.000421 -0.002414
-0.000367 0.00042 -0.002409
4.2e-05 0.00064 -0.002988
-0.000129 0.000662 -0.002881
-0.000129 0.000635 -0.002881
-0.000176 0.000679 -0.002786
0.000616 0.000675 -0.002512
-0.000662 0.000614 -0.002691
-0.000699 0.000232 -0.00273
-0.000736 0.00021 -0.002766
-0.000808 0.000171 -0.002833
-0.00084 0.000157 -0.002854
-0.000867 0.000152 -0.002856
-0.000891 0.000151 -0.002852
-0.000915 0.000151 -0.002846
-0.000938 0.000151 -0.002838
-0.000962 0.000151 -0.00283
-0.000985 0.000152 -0.002822
-0.001008 0.000153 -0.002812
-0.001029 0.000156 -0.002798
-0.001045 0.000169 -0.002766
-0.001054 0.00019 -0.002714
-0.00106 0.000212 -0.002662
-0.001163 0.000429 -0.002145
-0.001186 0.000429 -0.002138
-0.001211 0.000427 -0.002135
-0.001237 0.000423 -0.002135
-0.001266 0.000415 -0.002144
-0.001297 0.000403 -0.002163
-0.001332 0.000384 -0.002193
-8.1e-05 0.000515 -0.002963
-0.000643 0.000682 -0.002657
-0.000204 0.000279 -0.002713
-0.000217 0.000295 -0.002674
-0.000229 0.000314 -0.002628
-0.00024 0.000334 -0.002579
-0.000249 0.000357 -0.002525
-0.000261 0.000375 -0.002481
-0.000279 0.000384 -0.002455
-0.000299 0.00039 -0.002437
-0.000321 0.000393 -0.002423
-0.000343 0.000394 -0.002414
-0.000368 0.000392 -0.002409
9.2e-05 0.000642 -0.002984
-7e-06 0.000612 -0.002989
-0.000152 0.000657 -0.002833
0.00024 0.000732 -0.002769
0.000166 0.000532 -0.00293
-0.000698 0.000205 -0.002729
-0.000736 0.000182 -0.002768
-0.000772 0.000163 -0.002801
-0.000808 0.000143 -0.002834
-0.000839 0.000131 -0.002852
-0.000865 0.000127 -0.002852
-0.00089 0.000125 -0.002849
-0.000914 0.000124 -0.002844
-0.000938 0.000124 -0.002837
-0.000961 0.000125 -0.002828
-0.000984 0.000126 -0.002819
-0.001007 0.000127 -0.002809
-0.001028 0.00013 -0.002795
-0.001045 0.000141 -0.002766
-0.001054 0.000162 -0.002715
-0.001061 0.000185 -0.002662
-0.001163 0.000402 -0.002145
-0.001186 0.000402 -0.002138
-0.001211 0.0004 -0.002135
-0.001237 0.000396 -0.002136
-0.001266 0.000388 -0.002144
-0.001297 0.000375 -0.002163
-0.001332 0.000357 -0.002194
0.000616 0.00073 -0.002511
-0.000668 0.000668 -0.002686
-0.000228 0.000288 -0.002625
-0.00024 0.000307 -0.002579
-0.000249 0.00033 -0.002525
-0.000261 0.000347 -0.002482
-0.000279 0.000357 -0.002455
-0.000299 0.000363 -0.002437
-0.00032 0.000366 -0.002423
-0.000344 0.000366 -0.002414
-0.000368 0.000365 -0.002409
-7e-06 0.00067 -0.002982
1.8e-05 0.000612 -0.002989
0.000141 0.000596 -0.002968
0.000166 0.000505 -0.00293
1.7e-05 0.000449 -0.00299
-0.000699 0.000177 -0.00273
-0.000736 0.000155 -0.002769
-0.000772 0.000136 -0.0028
-0.000808 0.000116 -0.002834
-0.000838 0.000106 -0.002847
-0.000864 0.000102 -0.002847
-0.000889 0.000101 -0.002844
-0.000913 0.0001 -0.002839
-0.000937 9.9e-05 -0.002832
-0.00096 0.0001 -0.002824
-0.000983 0.000101 -0.002814
-0.001005 0.000103 -0.002804
-0.001027 0.000106 -0.00279
-0.001044 0.000115 -0.002764
-0.001054 0.000135 -0.002715
-0.001062 0.000157 -0.002662
-0.001163 0.000375 -0.002145
-0.001186 0.000375 -0.002138
-0.001211 0.000373 -0.002135
-0.001237 0.000368 -0.002137
-0.001266 0.000361 -0.002145
-0.001297 0.000348 -0.002163
-0.001333 0.000329 -0.002195
-0.000592 0.000688 -0.002586
1.8e-05 0.000504 -0.002989
-0.000229 0.00026 -0.002628
-0.000239 0.00028 -0.002578
-0.000249 0.000302 -0.002526
-0.000261 0.000321 -0.002481
-0.000279 0.00033 -0.002455
-0.000299 0.000336 -0.002436
-0.000321 0.000338 -0.002423
-0.000344 0.000339 -0.002415
-0.000368 0.000338 -0.00241
0.000164 0.000695 -0.002927
0.000141 0.000623 -0.002969
6.7e-05 0.000586 -0.002989
-0.000153 0.000575 -0.002833
-7e-06 0.000449 -0.00299
4.2e-05 0.000449 -0.002989
-0.000699 0.00015 -0.00273
-0.000736 0.000128 -0.002768
-0.000772 0.000109 -0.0028
-0.000807 9e-05 -0.002831
-0.000836 8.2e-05 -0.002841
-0.000862 7.9e-05 -0.00284
-0.000886 7.7e-05 -0.002836
-0.00091 7.6e-05 -0.002831
-0.000934 7.6e-05 -0.002824
-0.000957 7.6e-05 -0.002816
-0.00098 7.8e-05 -0.002806
-0.001003 7.9e-05 -0.002796
-0.001025 8.2e-05 -0.002783
-0.001043 9e-05 -0.00276
-0.001054 0.000108 -0.002716
-0.001062 0.000131 -0.002661
-0.001069 0.000155 -0.002604
-0.001078 0.00018 -0.002545
-0.001163 0.000347 -0.002146
-0.001186 0.000348 -0.002138
-0.001211 0.000346 -0.002135
-0.001237 0.000341 -0.002136
-0.001266 0.000333 -0.002145
-0.001297 0.000321 -0.002163
-0.001332 0.000302 -0.002194
0.001167 0.000732 -0.002146
0.000519 0.00075 -0.002408
-0.000228 0.000234 -0.002625
-0.000239 0.000254 -0.002577
-0.000249 0.000276 -0.002524
-0.000261 0.000293 -0.002482
-0.000279 0.000303 -0.002455
-0.000299 0.000308 -0.002436
-0.00032 0.000311 -0.002423
-0.000344 0.000312 -0.002415
-0.000368 0.000311 -0.002409
-0.000129 0.000715 -0.002884
0.000166 0.000641 -0.002929
-5.6e-05 0.000587 -0.002983
0.000141 0.000514 -0.002969
0.000116 0.000506 -0.002985
-0.000699 0.000123 -0.00273
-0.000736 0.000101 -0.002767
-0.000772 8.2e-05 -0.002799
-0.000806 6.5e-05 -0.002826
-0.000833 5.9e-05 -0.002832
-0.000858 5.7e-05 -0.002829
-0.000883 5.6e-05 -0.002825
-0.000907 5.5e-05 -0.002819
-0.000931 5.4e-05 -0.002813
-0.000954 5.5e-05 -0.002805
-0.000977 5.6e-05 -0.002795
-0.000999 5.7e-05 -0.002785
-0.001021 6e-05 -0.002773
-0.001041 6.6e-05 -0.002753
-0.001054 8.1e-05 -0.002714
-0.001061 0.000105 -0.002659
-0.00107 0.000128 -0.002604
-0.001079 0.000153 -0.002546
-0.001088 0.000177 -0.002489
-0.00114 0.000319 -0.002156
-0.001163 0.00032 -0.002146
-0.001186 0.00032 -0.002138
-0.001211 0.000318 -0.002135
-0.001237 0.000314 -0.002137
-0.001266 0.000306 -0.002145
-0.001297 0.000294 -0.002162
-0.001333 0.000275 -0.002194
-8.1e-05 0.000542 -0.002964
-5.6e-05 0.000532 -0.002985
0.000495 0.000752 -0.002404
-0.000239 0.000226 -0.002578
-0.000249 0.000248 -0.002525
-0.000261 0.000266 -0.002481
-0.000279 0.000276 -0.002454
-0.000299 0.000281 -0.002436
-0.000321 0.000284 -0.002424
-0.000344 0.000284 -0.002415
-0.000368 0.000283 -0.00241
1.8e-05 0.00064 -0.002989
-8.1e-05 0.000624 -0.002964
4.2e-05 0.000585 -0.002989
0.001211 0.000739 -0.002119
0.000141 0.000487 -0.002968
6.7e-05 0.000702 -0.002972
-0.000699 9.5e-05 -0.002731
-0.000736 7.4e-05 -0.002767
-0.000771 5.6e-05 -0.002797
-0.000803 4.3e-05 -0.002816
-0.000829 3.9e-05 -0.002818
-0.000854 3.7e-05 -0.002815
-0.000878 3.5e-05 -0.00281
-0.000902 3.5e-05 -0.002805
-0.000926 3.5e-05 -0.002798
-0.000949 3.5e-05 -0.00279
-0.000972 3.6e-05 -0.002781
-0.000995 3.7e-05 -0.002771
-0.001017 4e-05 -0.002759
-0.001038 4.4e-05 -0.002742
-0.001052 5.6e-05 -0.00271
-0.001061 7.8e-05 -0.002658
-0.001069 0.0001 -0.002605
-0.00108 0.000125 -0.002546
-0.001163 0.000293 -0.002146
-0.001186 0.000293 -0.002138
-0.001211 0.000291 -0.002135
-0.001237 0.000287 -0.002136
-0.001266 0.000279 -0.002144
-0.001297 0.000267 -0.002163
-0.001332 0.000248 -0.002193
-3.2e-05 0.000531 -0.002989
0.000116 0.000451 -0.002986
-0.000223 0.000188 -0.002607
-0.000239 0.000199 -0.002577
-0.000249 0.000221 -0.002525
-0.000261 0.000239 -0.002481
-0.000279 0.000249 -0.002454
-0.000299 0.000254 -0.002436
-0.000321 0.000257 -0.002423
-0.000344 0.000257 -0.002415
-0.000368 0.000256 -0.00241
0.001018 0.000453 -0.00281
-5.6e-05 0.000615 -0.002982
-0.000105 0.000615 -0.002924
0.000544 0.000746 -0.002417
-0.000667 9.1e-05 -0.002686
-0.000699 6.9e-05 -0.00273
-0.000735 4.8e-05 -0.002764
-0.000769 3.2e-05 -0.00279
-0.000798 2.4e-05 -0.002799
-0.000824 2e-05 -0.0028
-0.000848 1.9e-05 -0.002796
-0.000872 1.8e-05 -0.002791
-0.000896 1.7e-05 -0.002785
-0.00092 1.7e-05 -0.002778
-0.000943 1.7e-05 -0.00277
-0.000966 1.8e-05 -0.002762
-0.000989 1.9e-05 -0.002752
-0.001011 2.1e-05 -0.00274
-0.001032 2.5e-05 -0.002725
-0.00105 3.4e-05 -0.002701
-0.001163 0.000266 -0.002146
-0.001186 0.000266 -0.002138
-0.001211 0.000264 -0.002135
-0.001237 0.00026 -0.002136
-0.001266 0.000252 -0.002144
-0.001297 0.000239 -0.002163
-0.001333 0.000221 -0.002194
0.000495 0.000728 -0.002397
-0.00019 0.000104 -0.002747
-0.000204 0.000116 -0.002714
-0.000228 0.000152 -0.002626
-0.000239 0.000172 -0.002577
-0.000248 0.000195 -0.002523
-0.000261 0.000212 -0.002481
-0.000279 0.000221 -0.002454
-0.000299 0.000227 -0.002436
-0.000321 0.00023 -0.002423
-0.000344 0.00023 -0.002415
-0.000368 0.000229 -0.00241
6.7e-05 0.000671 -0.002982
4.2e-05 0.000613 -0.002989
9.2e-05 0.000586 -0.002988
-0.000567 0.000707 -0.002546
-0.000176 0.000597 -0.002786
-0.000698 4.2e-05 -0.002729
-0.000733 2.4e-05 -0.002758
-0.000763 1.4e-05 -0.002772
-0.00079 8e-06 -0.002776
-0.000815 6e-06 -0.002774
-0.00084 4e-06 -0.00277
-0.000864 4e-06 -0.002764
-0.000888 3e-06 -0.002757
-0.000911 3e-06 -0.00275
-0.000935 4e-06 -0.002742
-0.000958 4e-06 -0.002734
-0.000981 5e-06 -0.002725
-0.001004 6e-06 -0.002715
-0.001025 9e-06 -0.002702
-0.001045 1.5e-05 -0.002683
-0.001059 2.7e-05 -0.002652
-0.001069 4.6e-05 -0.002604
-0.001163 0.000239 -0.002146
-0.001187 0.000239 -0.002138
-0.001211 0.000237 -0.002135
-0.001237 0.000233 -0.002136
-0.001266 0.000225 -0.002144
-0.001297 0.000212 -0.002163
-0.001333 0.000193 -0.002195
4.3e-05 0.000702 -0.002973
-0.00019 7.6e-05 -0.002747
-0.000204 8.9e-05 -0.002714
-0.000239 0.000145 -0.002577
-0.000248 0.000168 -0.002523
-0.000261 0.000185 -0.002481
-0.000279 0.000194 -0.002454
-0.000299 0.0002 -0.002436
-0.000321 0.000202 -0.002423
-0.000344 0.000203 -0.002414
-0.000368 0.000202 -0.002409
-5.6e-05 0.000707 -0.00296
0.00027 0.000654 -0.002691
0.000282 0.000646 -0.002645
0.000161 0.00056 -0.002926
6.7e-05 0.000558 -0.002989
-0.000696 1.9e-05 -0.002721
-0.000727 7e-06 -0.002738
-0.000754 2e-06 -0.002741
-0.000779 -0.0 -0.002738
-0.000803 -1e-06 -0.002732
-0.000826 -1e-06 -0.002725
-0.00085 -1e-06 -0.002717
-0.000873 -0.0 -0.002709
-0.000897 -1e-06 -0.002702
-0.00092 -1e-06 -0.002696
-0.000945 -2e-06 -0.002692
-0.000967 -1e-06 -0.002681
-0.000991 -0.0 -0.002673
-0.001013 1e-06 -0.002663
-0.001035 4e-06 -0.002652
-0.001068 2.2e-05 -0.002599
-0.001163 0.000212 -0.002145
-0.001186 0.000212 -0.002138
-0.001211 0.00021 -0.002135
-0.001237 0.000205 -0.002136
-0.001266 0.000198 -0.002145
-0.001298 0.000185 -0.002164
-0.001333 0.000166 -0.002195
9.2e-05 0.000704 -0.002968
-0.00019 4.9e-05 -0.002747
-0.000204 6.1e-05 -0.002715
-0.000239 0.000117 -0.002578
-0.000247 0.000142 -0.00252
-0.000261 0.000158 -0.002481
-0.000278 0.000167 -0.002454
-0.000299 0.000173 -0.002435
-0.000321 0.000175 -0.002423
-0.000344 0.000176 -0.002414
-0.000368 0.000175 -0.002409
-0.000104 0.000696 -0.002924
-0.000129 0.000689 -0.002881
0.001042 0.00048 -0.002803
-7e-06 0.000531 -0.002989
-0.000689 3e-06 -0.002697
-0.000714 -0.0 -0.002696
-0.000738 -0.0 -0.002689
-0.000761 0.0 -0.002682
-0.000785 0.0 -0.002674
-0.000808 0.0 -0.002667
-0.000832 -0.0 -0.00266
-0.000855 0.0 -0.002653
-0.000879 -0.0 -0.002646
-0.000974 -1e-06 -0.002618
-0.000997 -1e-06 -0.002611
-0.00102 0.0 -0.002602
-0.001163 0.000185 -0.002145
-0.001187 0.000184 -0.002138
-0.001211 0.000182 -0.002135
-0.001237 0.000178 -0.002136
-0.001266 0.000171 -0.002144
-0.001297 0.000158 -0.002163
-0.001332 0.00014 -0.002193
4.2e-05 0.000558 -0.002989
-0.000189 2.2e-05 -0.002745
-0.000204 3.5e-05 -0.002713
-0.000218 4.9e-05 -0.002676
-0.000229 7e-05 -0.002626
-0.000239 9.1e-05 -0.002577
-0.000248 0.000114 -0.002521
-0.000261 0.00013 -0.002481
-0.000279 0.00014 -0.002454
-0.000299 0.000146 -0.002435
-0.000321 0.000148 -0.002423
-0.000344 0.000149 -0.002414
-0.000368 0.000148 -0.002409
-8e-05 0.000681 -0.002956
-3.2e-05 0.000641 -0.002985
-0.000176 0.000706 -0.002787
-0.000567 0.000733 -0.002547
-0.000883 -2.4e-05 -0.001905
-0.0007 -4e-06 -0.002649
-0.000723 -3e-06 -0.00264
-0.000746 -3e-06 -0.002633
-0.00077 -4e-06 -0.002626
-0.000794 -4e-06 -0.00262
-0.000817 -4e-06 -0.002612
-0.00084 -3e-06 -0.002603
-0.00086 -2.5e-05 -0.001914
-0.000837 -2.5e-05 -0.001922
-0.001163 0.000157 -0.002145
-0.001186 0.000157 -0.002138
-0.001211 0.000155 -0.002135
-0.001237 0.000151 -0.002136
-0.001266 0.000144 -0.002144
-0.001297 0.000131 -0.002163
-0.001332 0.000113 -0.002192
0.000116 0.000533 -0.002985
-5.6e-05 0.00056 -0.002984
-0.000202 1.1e-05 -0.002707
-0.000219 2.2e-05 -0.002677
-0.000229 4.2e-05 -0.002627
-0.000239 6.4e-05 -0.002577
-0.000247 8.9e-05 -0.002518
-0.000261 0.000103 -0.002481
-0.00028 0.000113 -0.002455
-0.000299 0.000118 -0.002436
-0.000321 0.000121 -0.002423
-0.000344 0.000122 -0.002414
-0.000368 0.000121 -0.002409
0.000117 0.000675 -0.002972
0.000116 0.000645 -0.002979
0.000224 0.000636 -0.002805
0.000116 0.000479 -0.002986
9.1e-05 0.000477 -0.002988
-0.000814 -2.6e-05 -0.001931
0.000371 0.000741 -0.002425
-0.000681 -2e-06 -0.002588
-0.000705 -2e-06 -0.002581
-0.000728 -2e-06 -0.002574
-0.000752 -2e-06 -0.002568
-0.00079 -2.7e-05 -0.001939
-0.001077 6e-06 -0.002456
-0.001163 0.000131 -0.002144
-0.001186 0.00013 -0.002138
-0.001211 0.000128 -0.002135
-0.001238 0.000124 -0.002137
-0.001266 0.000116 -0.002144
-0.001298 0.000103 -0.002164
-0.001332 8.6e-05 -0.002191
-0.000767 -2.7e-05 -0.001947
-0.000516 0.000745 -0.002464
-0.00023 1.4e-05 -0.002629
-0.000239 3.7e-05 -0.002575
-0.000261 7.6e-05 -0.002481
-0.000279 8.6e-05 -0.002454
-0.000299 9.1e-05 -0.002435
-0.000321 9.4e-05 -0.002423
-0.000344 9.5e-05 -0.002414
-0.000368 9.3e-05 -0.002409
-0.000393 9.1e-05 -0.002406
-5.6e-05 0.000674 -0.002972
-7e-06 0.00064 -0.002988
-0.000542 0.000753 -0.002506
1.8e-05 0.000531 -0.002989
4.2e-05 0.000531 -0.002989
-0.000744 -2.7e-05 -0.001955
-0.000642 -5e-06 -0.002547
-0.000666 -5e-06 -0.002538
-0.00069 -5e-06 -0.002532
-0.000713 -5e-06 -0.002525
-0.000737 -5e-06 -0.002518
-0.00072 -2.8e-05 -0.001963
-0.000697 -2.8e-05 -0.001971
-0.000673 -2.8e-05 -0.001978
-0.00065 -2.8e-05 -0.001986
-0.000627 -2.8e-05 -0.001993
-0.001042 -4e-06 -0.002421
-0.001065 -3e-06 -0.002412
-0.000603 -2.8e-05 -0.002
-0.00114 0.000102 -0.002154
-0.001163 0.000103 -0.002145
-0.001187 0.000103 -0.002138
