0.001815 0.000536 -0.001819
0.001843 0.000508 -0.001877
0.001868 0.000483 -0.001932
0.001887 0.00046 -0.001983
0.001902 0.000441 -0.002029
0.001912 0.000424 -0.002072
0.001921 0.000408 -0.002113
0.001929 0.000393 -0.002153
0.001935 0.000379 -0.002192
0.001941 0.000365 -0.00223
0.001944 0.000353 -0.002266
0.001934 0.000349 -0.00229
0.001916 0.00035 -0.002307
0.002226 0.000789 -0.000978
0.002468 0.000647 -0.001313
0.002573 0.000592 -0.0015
0.002515 0.000666 -0.00139
0.002845 0.000644 -0.000812
0.002536 0.000704 -0.001428
0.002521 0.000324 -0.001626
0.002508 0.000322 -0.001647
0.002494 0.00032 -0.001668
0.002477 0.000321 -0.001686
0.002447 0.000329 -0.001691
0.002408 0.000343 -0.00169
0.002368 0.000358 -0.001686
0.002327 0.000373 -0.001683
0.002285 0.00039 -0.001678
0.002241 0.000407 -0.001672
0.002199 0.000423 -0.001667
0.002155 0.00044 -0.00166
0.002101 0.000464 -0.001645
0.002036 0.000494 -0.00162
0.001967 0.000527 -0.001591
0.001925 0.000543 -0.001586
0.001895 0.000552 -0.001592
0.00187 0.000557 -0.001603
0.00185 0.000559 -0.001618
0.001832 0.00056 -0.001635
0.001817 0.00056 -0.001654
0.001803 0.000557 -0.001676
0.001794 0.000553 -0.0017
0.00179 0.000546 -0.001729
0.001793 0.000533 -0.001765
0.001816 0.000508 -0.001819
0.001844 0.000481 -0.001878
0.001868 0.000455 -0.001933
0.001887 0.000433 -0.001983
0.001902 0.000413 -0.002029
0.001912 0.000397 -0.002072
0.001922 0.00038 -0.002114
0.001929 0.000366 -0.002153
0.001935 0.000351 -0.002192
0.001941 0.000337 -0.00223
0.001944 0.000325 -0.002266
0.001934 0.000321 -0.00229
0.001915 0.000323 -0.002307
0.002458 0.000713 -0.000871
0.00247 0.000734 -0.000876
0.002406 0.000717 -0.001229
0.002771 0.000671 -0.00083
0.002774 0.000724 -0.000831
0.002521 0.000296 -0.001626
0.002508 0.000294 -0.001647
0.002494 0.000293 -0.001668
0.002477 0.000293 -0.001686
0.002446 0.000303 -0.001691
0.002408 0.000316 -0.00169
0.002367 0.000331 -0.001686
0.002327 0.000346 -0.001683
0.002284 0.000363 -0.001677
0.002241 0.00038 -0.001672
0.002199 0.000396 -0.001667
0.002154 0.000413 -0.00166
0.0021 0.000437 -0.001644
0.001966 0.000501 -0.00159
0.001925 0.000516 -0.001586
0.001895 0.000525 -0.001592
0.00187 0.00053 -0.001603
0.001849 0.000532 -0.001618
0.001832 0.000533 -0.001635
0.001816 0.000533 -0.001654
0.001803 0.000531 -0.001675
0.001794 0.000526 -0.0017
0.00179 0.000518 -0.001729
0.001793 0.000506 -0.001765
0.001816 0.000481 -0.00182
0.001843 0.000454 -0.001877
0.001887 0.000406 -0.001983
0.001902 0.000386 -0.002029
0.001912 0.000369 -0.002072
0.001921 0.000353 -0.002113
0.001929 0.000339 -0.002153
0.001935 0.000324 -0.002192
0.001942 0.00031 -0.002231
0.001944 0.000298 -0.002266
0.001934 0.000294 -0.00229
0.001915 0.000295 -0.002307
0.002529 0.000506 -0.001616
0.002655 0.00066 -0.000856
0.002695 0.000672 -0.000848
0.002891 0.000698 -0.000743
0.00281 0.000711 -0.000821
0.002522 0.000269 -0.001626
0.002508 0.000267 -0.001647
0.002494 0.000266 -0.001668
0.002477 0.000266 -0.001685
0.002446 0.000275 -0.001691
0.002407 0.00029 -0.001689
0.002367 0.000304 -0.001686
0.002327 0.000319 -0.001683
0.002284 0.000336 -0.001678
0.002241 0.000352 -0.001672
0.002199 0.000369 -0.001667
0.002154 0.000386 -0.00166
0.002099 0.000411 -0.001643
0.002036 0.00044 -0.00162
0.001967 0.000473 -0.001591
0.001925 0.000489 -0.001586
0.001894 0.000498 -0.001591
0.00187 0.000503 -0.001603
0.001849 0.000505 -0.001617
0.001832 0.000506 -0.001635
0.001816 0.000505 -0.001654
0.001803 0.000504 -0.001675
0.001793 0.000499 -0.0017
0.001789 0.000491 -0.001729
0.001793 0.000479 -0.001766
0.001815 0.000454 -0.001819
0.001844 0.000426 -0.001878
0.001869 0.0004 -0.001934
0.001887 0.000378 -0.001983
0.001902 0.000359 -0.00203
0.001912 0.000342 -0.002072
0.001921 0.000326 -0.002113
0.001929 0.000311 -0.002153
0.001935 0.000297 -0.002192
0.001941 0.000283 -0.00223
0.001944 0.000271 -0.002266
0.001933 0.000267 -0.00229
0.001915 0.000268 -0.002307
0.002884 0.000643 -0.000791
0.002253 0.000742 -0.001018
0.002964 0.000625 0.000169
0.002694 0.000645 -0.000848
0.002896 0.000601 -0.000781
0.00281 0.000684 -0.000822
0.002816 0.000604 6.7e-05
0.002522 0.000242 -0.001627
0.002508 0.00024 -0.001647
0.002494 0.000239 -0.001668
0.002477 0.000239 -0.001685
0.002447 0.000248 -0.001691
0.002407 0.000262 -0.001689
0.002367 0.000277 -0.001686
0.002326 0.000293 -0.001682
0.002284 0.000309 -0.001677
0.002241 0.000325 -0.001672
0.002198 0.000342 -0.001666
0.002154 0.000359 -0.00166
0.0021 0.000383 -0.001644
0.002036 0.000413 -0.001619
0.001925 0.000462 -0.001586
0.001894 0.000471 -0.001591
0.00187 0.000476 -0.001603
0.001849 0.000478 -0.001617
0.001832 0.000479 -0.001635
0.001816 0.000478 -0.001654
0.001803 0.000476 -0.001675
0.001794 0.000472 -0.0017
0.001789 0.000464 -0.001729
0.001794 0.000451 -0.001766
0.001845 0.000398 -0.001879
0.001869 0.000373 -0.001933
0.001888 0.000351 -0.001984
0.001901 0.000332 -0.002029
0.001912 0.000315 -0.002072
0.001921 0.000299 -0.002113
0.001929 0.000284 -0.002153
0.001936 0.00027 -0.002192
0.001941 0.000256 -0.00223
0.001944 0.000244 -0.002266
0.001933 0.00024 -0.00229
0.001916 0.000241 -0.002307
0.002347 0.000705 -0.000872
0.00294 0.000634 0.000148
0.002256 0.000746 -0.000992
0.002844 0.00059 -0.000812
0.002907 0.000695 -0.000696
0.002779 0.000717 -0.00045
0.002535 0.000216 -0.001606
0.002522 0.000214 -0.001627
0.002508 0.000213 -0.001648
0.002494 0.000212 -0.001668
0.002476 0.000213 -0.001685
0.002447 0.000221 -0.001692
0.002408 0.000235 -0.001689
0.002366 0.00025 -0.001685
0.002326 0.000266 -0.001682
0.002284 0.000282 -0.001677
0.002241 0.000298 -0.001672
0.002198 0.000315 -0.001666
0.002154 0.000332 -0.00166
0.002099 0.000356 -0.001643
0.002034 0.000387 -0.001618
0.001968 0.000417 -0.001592
0.001924 0.000435 -0.001586
0.001894 0.000444 -0.001591
0.001869 0.000449 -0.001602
0.001849 0.000451 -0.001617
0.001831 0.000452 -0.001635
0.001816 0.000451 -0.001654
0.001803 0.000449 -0.001675
0.001793 0.000445 -0.0017
0.001789 0.000437 -0.001729
0.001793 0.000424 -0.001766
0.001816 0.0004 -0.001819
0.001845 0.000371 -0.001879
0.001888 0.000324 -0.001984
0.001901 0.000305 -0.002029
0.001912 0.000288 -0.002072
0.001921 0.000272 -0.002113
0.001929 0.000257 -0.002153
0.001935 0.000242 -0.002192
0.001941 0.000229 -0.00223
0.001943 0.000217 -0.002265
0.001933 0.000213 -0.002289
0.001915 0.000214 -0.002307
0.001896 0.000216 -0.002323
0.002573 0.000538 -0.0015
0.002771 0.000617 -0.000831
0.002907 0.000637 -0.000746
0.002735 0.000712 -0.00084
0.002535 0.00019 -0.001605
0.002521 0.000188 -0.001626
0.002508 0.000186 -0.001647
0.002493 0.000185 -0.001667
0.002476 0.000186 -0.001684
0.002446 0.000194 -0.001691
0.002407 0.000208 -0.001689
0.002367 0.000223 -0.001686
0.002326 0.000238 -0.001682
0.002284 0.000254 -0.001678
0.002241 0.000271 -0.001672
0.002198 0.000288 -0.001666
0.002154 0.000305 -0.00166
0.002099 0.000329 -0.001643
0.002035 0.000359 -0.001619
0.001966 0.000392 -0.00159
0.001925 0.000407 -0.001586
0.001894 0.000416 -0.001591
0.001869 0.000422 -0.001602
0.001849 0.000424 -0.001617
0.001831 0.000425 -0.001635
0.001816 0.000424 -0.001654
0.001803 0.000422 -0.001675
0.001794 0.000417 -0.0017
0.001789 0.00041 -0.001729
0.001793 0.000397 -0.001766
0.001816 0.000372 -0.00182
0.001845 0.000344 -0.001879
0.00187 0.000318 -0.001935
0.001887 0.000297 -0.001983
0.001902 0.000278 -0.002029
0.001913 0.00026 -0.002072
0.001921 0.000245 -0.002113
0.001929 0.000229 -0.002154
0.001935 0.000215 -0.002192
0.00194 0.000202 -0.00223
0.001943 0.00019 -0.002265
0.001932 0.000187 -0.002289
0.001915 0.000187 -0.002306
0.001896 0.000188 -0.002323
0.002732 0.00055 -0.000839
0.002555 0.000553 -0.001464
0.002733 0.000631 -0.000839
0.002909 0.000499 -0.000746
0.002773 0.000697 -0.000831
0.002535 0.000162 -0.001605
0.002521 0.000161 -0.001626
0.002508 0.000159 -0.001647
0.002492 0.000158 -0.001666
0.002474 0.000159 -0.001683
0.002445 0.000167 -0.00169
0.002407 0.000181 -0.001689
0.002367 0.000196 -0.001686
0.002326 0.000211 -0.001682
0.002285 0.000227 -0.001678
0.002241 0.000244 -0.001672
0.002198 0.00026 -0.001667
0.002154 0.000278 -0.00166
0.0021 0.000301 -0.001644
0.002034 0.000332 -0.001618
0.001967 0.000364 -0.001591
0.001924 0.000381 -0.001586
0.001894 0.000389 -0.001591
0.001869 0.000394 -0.001603
0.001849 0.000397 -0.001617
0.001831 0.000397 -0.001635
0.001816 0.000397 -0.001654
0.001803 0.000395 -0.001675
0.001794 0.00039 -0.0017
0.00179 0.000382 -0.00173
0.001793 0.00037 -0.001766
0.001816 0.000345 -0.00182
0.001844 0.000317 -0.001878
0.001868 0.000292 -0.001933
0.001888 0.000269 -0.001984
0.001902 0.00025 -0.002029
0.001913 0.000233 -0.002073
0.001921 0.000218 -0.002113
0.001929 0.000202 -0.002153
0.001936 0.000188 -0.002193
0.00194 0.000175 -0.00223
0.001942 0.000164 -0.002264
0.001931 0.00016 -0.002287
0.001914 0.00016 -0.002306
0.001895 0.000162 -0.002322
0.001876 0.000163 -0.002338
0.00277 0.000535 -0.00083
0.002614 0.000676 -0.000864
0.002771 0.000644 -0.00083
0.002441 0.000721 -0.001273
0.002448 0.000688 -0.001685
0.002534 0.000136 -0.001605
0.00252 0.000134 -0.001625
0.002506 0.000133 -0.001645
0.00249 0.000133 -0.001664
0.002472 0.000134 -0.001681
0.002445 0.00014 -0.00169
0.002407 0.000153 -0.001689
0.002366 0.000169 -0.001685
0.002326 0.000184 -0.001682
0.002284 0.0002 -0.001678
0.002242 0.000216 -0.001673
0.002199 0.000232 -0.001668
0.002154 0.000251 -0.00166
0.002099 0.000275 -0.001644
0.002034 0.000305 -0.001618
0.001967 0.000337 -0.001591
0.001925 0.000353 -0.001586
0.001894 0.000362 -0.001592
0.001869 0.000367 -0.001603
0.001849 0.000369 -0.001617
0.001832 0.00037 -0.001635
0.001816 0.00037 -0.001654
0.001803 0.000368 -0.001675
0.001794 0.000363 -0.001701
0.00179 0.000355 -0.00173
0.001793 0.000343 -0.001766
0.001845 0.000289 -0.001879
0.001867 0.000265 -0.001932
0.001889 0.000241 -0.001985
0.001902 0.000223 -0.002029
0.001913 0.000206 -0.002073
0.001921 0.00019 -0.002113
0.001929 0.000175 -0.002153
0.001935 0.000161 -0.002192
0.00194 0.000148 -0.00223
0.00194 0.000137 -0.002263
0.001928 0.000134 -0.002285
0.001912 0.000134 -0.002304
0.001894 0.000135 -0.002321
0.001875 0.000137 -0.002337
0.002555 0.000526 -0.001464
0.002555 0.000585 -0.001574
0.002734 0.000658 -0.000839
0.002412 0.000741 -0.001231
0.002548 0.00067 -0.00157
0.002531 0.00011 -0.001602
0.002518 0.000109 -0.001623
0.002503 0.000108 -0.001642
0.002487 0.000108 -0.001661
0.002468 0.000109 -0.001678
0.002444 0.000114 -0.001689
0.002407 0.000126 -0.001689
0.002365 0.000143 -0.001684
0.002326 0.000157 -0.001682
0.002284 0.000173 -0.001677
0.002242 0.000189 -0.001673
0.002199 0.000205 -0.001668
0.002033 0.000278 -0.001618
0.001966 0.00031 -0.00159
0.001925 0.000326 -0.001586
0.001894 0.000335 -0.001592
0.00187 0.00034 -0.001603
0.001849 0.000342 -0.001618
0.001832 0.000343 -0.001635
0.001816 0.000342 -0.001654
0.001803 0.000341 -0.001675
0.001794 0.000335 -0.001701
0.00179 0.000328 -0.00173
0.001794 0.000315 -0.001767
0.001818 0.00029 -0.001821
0.001867 0.000238 -0.001932
0.001889 0.000214 -0.001985
0.001902 0.000196 -0.00203
0.001913 0.000179 -0.002073
0.001921 0.000163 -0.002113
0.001929 0.000148 -0.002153
0.001935 0.000134 -0.002192
0.00194 0.000121 -0.00223
0.001938 0.000112 -0.002261
0.001925 0.000109 -0.002282
0.001909 0.000109 -0.002301
0.001891 0.00011 -0.002319
0.001873 0.000111 -0.002335
0.002555 0.000504 -0.001574
0.002572 0.000692 -0.000871
0.002654 0.000688 -0.000856
0.002614 0.00073 -0.000864
0.002536 0.000671 -0.001592
0.002526 8.6e-05 -0.001598
0.002512 8.5e-05 -0.001618
0.002497 8.4e-05 -0.001638
0.002481 8.4e-05 -0.001656
0.002463 8.5e-05 -0.001673
0.002441 8.9e-05 -0.001686
0.002406 0.0001 -0.001688
0.002366 0.000115 -0.001685
0.002325 0.00013 -0.001681
0.002284 0.000145 -0.001678
0.002242 0.000162 -0.001673
0.0022 0.000178 -0.001668
0.002096 0.000222 -0.001641
0.002034 0.000251 -0.001618
0.001967 0.000283 -0.001591
0.001924 0.000299 -0.001586
0.001895 0.000307 -0.001592
0.00187 0.000312 -0.001603
0.00185 0.000315 -0.001618
0.001832 0.000316 -0.001635
0.001816 0.000315 -0.001654
0.001803 0.000313 -0.001675
0.001794 0.000308 -0.001701
0.00179 0.000301 -0.00173
0.001793 0.000288 -0.001766
0.001817 0.000263 -0.001821
0.001844 0.000236 -0.001878
0.001869 0.00021 -0.001933
0.001889 0.000187 -0.001985
0.001902 0.000169 -0.00203
0.001913 0.000152 -0.002073
0.001921 0.000136 -0.002113
0.001928 0.000121 -0.002153
0.001935 0.000107 -0.002192
0.001939 9.4e-05 -0.002229
0.001933 8.7e-05 -0.002257
0.00192 8.5e-05 -0.002278
0.001904 8.5e-05 -0.002296
0.001886 8.6e-05 -0.002314
0.001868 8.7e-05 -0.002331
0.002468 0.00062 -0.001313
0.0029 0.000696 -0.00072
0.002469 0.000701 -0.001313
0.002516 0.00072 -0.00139
0.002518 6.4e-05 -0.00159
0.002504 6.3e-05 -0.001611
0.002489 6.2e-05 -0.00163
0.002473 6.2e-05 -0.001649
0.002456 6.2e-05 -0.001666
0.002435 6.5e-05 -0.001681
0.002405 7.3e-05 -0.001687
0.002366 8.8e-05 -0.001685
0.002325 0.000103 -0.001681
0.002283 0.000119 -0.001676
0.002241 0.000135 -0.001672
0.002199 0.000151 -0.001668
0.002155 0.000169 -0.001661
0.002097 0.000194 -0.001642
0.002034 0.000224 -0.001618
0.001967 0.000255 -0.001591
0.001924 0.000272 -0.001586
0.001894 0.00028 -0.001592
0.00187 0.000285 -0.001603
0.00185 0.000287 -0.001618
0.001832 0.000288 -0.001635
0.001816 0.000288 -0.001654
0.001803 0.000286 -0.001675
0.001794 0.000281 -0.0017
0.00179 0.000274 -0.00173
0.001794 0.000261 -0.001767
0.001816 0.000236 -0.00182
0.001844 0.000209 -0.001878
0.001869 0.000183 -0.001934
0.00189 0.000159 -0.001986
0.001902 0.000141 -0.00203
0.001912 0.000125 -0.002072
0.00192 0.00011 -0.002112
0.001928 9.4e-05 -0.002153
0.001934 8e-05 -0.002192
0.001936 6.9e-05 -0.002226
0.001926 6.4e-05 -0.00225
0.001912 6.3e-05 -0.002271
0.001896 6.3e-05 -0.00229
0.001878 6.3e-05 -0.002307
0.00186 6.5e-05 -0.002324
0.001841 6.6e-05 -0.00234
0.002932 0.000523 -0.00065
0.002441 0.000612 -0.001273
0.0029 0.000611 -0.00077
0.002902 0.000666 -0.000745
0.002522 4.5e-05 -0.00156
0.002508 4.4e-05 -0.001581
0.002494 4.2e-05 -0.001601
0.002478 4.1e-05 -0.001621
0.002462 4.1e-05 -0.001639
0.002445 4.1e-05 -0.001657
0.002426 4.3e-05 -0.001673
0.002401 4.9e-05 -0.001683
0.002365 6.1e-05 -0.001684
0.002325 7.6e-05 -0.001681
0.002282 9.2e-05 -0.001676
0.002242 0.000107 -0.001673
0.0022 0.000124 -0.001668
0.002155 0.000141 -0.001661
0.002099 0.000166 -0.001644
0.001966 0.000229 -0.00159
0.001924 0.000245 -0.001585
0.001894 0.000253 -0.001592
0.00187 0.000258 -0.001603
0.001849 0.000261 -0.001618
0.001832 0.000261 -0.001635
0.001816 0.000261 -0.001654
0.001803 0.000259 -0.001676
0.001794 0.000254 -0.001701
0.00179 0.000246 -0.00173
0.001794 0.000233 -0.001767
0.001818 0.000208 -0.001822
0.001844 0.000181 -0.001879
0.001869 0.000156 -0.001934
0.00189 0.000132 -0.001986
0.001902 0.000114 -0.00203
0.001912 9.7e-05 -0.002072
0.00192 8.2e-05 -0.002113
0.001928 6.7e-05 -0.002153
0.001933 5.4e-05 -0.00219
0.001928 4.6e-05 -0.002219
0.001917 4.3e-05 -0.002242
0.001902 4.2e-05 -0.002262
0.001886 4.2e-05 -0.00228
0.001868 4.2e-05 -0.002298
0.00185 4.4e-05 -0.002315
0.001831 4.5e-05 -0.002331
0.001811 4.8e-05 -0.002346
0.002467 0.000593 -0.001313
0.002897 0.000573 -0.000781
0.00281 0.000657 -0.000821
0.002521 2.9e-05 -0.001527
0.002509 2.6e-05 -0.001549
0.002495 2.5e-05 -0.001569
0.00248 2.3e-05 -0.001589
0.002465 2.3e-05 -0.001609
0.002449 2.2e-05 -0.001628
0.002432 2.3e-05 -0.001646
0.002413 2.4e-05 -0.001662
0.002391 2.8e-05 -0.001674
0.002362 3.6e-05 -0.001681
0.002324 4.9e-05 -0.00168
0.002282 6.5e-05 -0.001676
0.002241 8.1e-05 -0.001672
0.002199 9.7e-05 -0.001667
0.002155 0.000114 -0.001661
0.002033 0.00017 -0.001618
0.001967 0.000201 -0.001591
0.001924 0.000217 -0.001586
0.001894 0.000226 -0.001592
0.00187 0.000231 -0.001603
0.001849 0.000233 -0.001618
0.001832 0.000234 -0.001636
0.001817 0.000233 -0.001655
0.001803 0.000231 -0.001676
0.001794 0.000227 -0.001701
0.00179 0.000219 -0.00173
0.001794 0.000206 -0.001767
0.001816 0.000182 -0.00182
0.001844 0.000154 -0.001878
0.00189 0.000105 -0.001986
0.001901 8.7e-05 -0.002029
0.001912 7.1e-05 -0.002072
0.001919 5.5e-05 -0.002112
0.001927 4.1e-05 -0.002151
0.001926 3.1e-05 -0.002184
0.001917 2.6e-05 -0.002209
0.001904 2.4e-05 -0.002231
0.001889 2.3e-05 -0.00225
0.001872 2.3e-05 -0.002268
0.001855 2.4e-05 -0.002286
0.001837 2.5e-05 -0.002303
0.001818 2.6e-05 -0.002319
0.001798 2.8e-05 -0.002334
0.001778 3.1e-05 -0.002349
0.002816 0.000698 -0.000481
0.002614 0.000595 -0.000864
0.002576 0.000585 -0.001529
0.002564 0.000641 -0.001551
0.002505 1.3e-05 -0.001512
0.002491 1e-05 -0.001533
0.002477 8e-06 -0.001554
0.002462 7e-06 -0.001573
0.002446 7e-06 -0.001592
0.00243 7e-06 -0.001611
0.002414 7e-06 -0.001629
0.002396 8e-06 -0.001646
0.002375 1.1e-05 -0.00166
0.00235 1.6e-05 -0.001671
0.002319 2.5e-05 -0.001677
0.002281 3.9e-05 -0.001675
0.002241 5.3e-05 -0.001672
0.002199 7e-05 -0.001667
0.002155 8.7e-05 -0.001661
0.002033 0.000142 -0.001618
0.001967 0.000174 -0.001591
0.001924 0.00019 -0.001586
0.001894 0.000199 -0.001592
0.00187 0.000204 -0.001603
0.001849 0.000206 -0.001618
0.001832 0.000207 -0.001636
0.001817 0.000206 -0.001655
0.001804 0.000204 -0.001676
0.001794 0.0002 -0.001701
0.00179 0.000192 -0.00173
0.001794 0.000179 -0.001767
0.001888 7.9e-05 -0.001984
0.001901 6e-05 -0.002029
0.001911 4.4e-05 -0.002071
0.001918 2.9e-05 -0.002111
0.001919 1.8e-05 -0.002144
0.001912 1.2e-05 -0.002171
0.001901 9e-06 -0.002194
0.001886 8e-06 -0.002215
0.001871 7e-06 -0.002234
0.001854 7e-06 -0.002252
0.001837 8e-06 -0.00227
0.001819 9e-06 -0.002287
0.001801 1e-05 -0.002304
0.001782 1.2e-05 -0.002319
0.001762 1.4e-05 -0.002335
0.002555 0.000531 -0.001574
0.002468 0.000674 -0.001313
0.002516 0.000693 -0.001391
0.002494 3e-06 -0.001469
0.002479 1e-06 -0.001489
0.002463 1e-06 -0.001507
0.002447 1e-06 -0.001526
0.00243 1e-06 -0.001544
0.002412 1e-06 -0.001561
0.002398 -0.0 -0.001582
0.002381 0.0 -0.0016
0.002364 0.0 -0.001618
0.002346 2e-06 -0.001634
0.002326 4e-06 -0.001649
0.002304 7e-06 -0.001663
0.002275 1.5e-05 -0.00167
0.002239 2.7e-05 -0.00167
0.002198 4.3e-05 -0.001667
0.002154 6e-05 -0.001661
0.001966 0.000147 -0.00159
0.001924 0.000163 -0.001586
0.001894 0.000171 -0.001592
0.00187 0.000176 -0.001603
0.00185 0.000179 -0.001618
0.001832 0.000179 -0.001636
0.001817 0.000179 -0.001655
0.001804 0.000177 -0.001676
0.001794 0.000172 -0.001701
0.00179 0.000165 -0.00173
0.001795 0.000152 -0.001767
0.001817 0.000127 -0.00182
0.001844 0.0001 -0.001879
0.001889 5.1e-05 -0.001985
0.001901 3.4e-05 -0.002029
0.001907 1.9e-05 -0.002067
0.001906 9e-06 -0.0021
0.001899 4e-06 -0.002126
0.001885 2e-06 -0.002147
0.001869 1e-06 -0.002166
0.001855 -0.0 -0.002187
0.001791 -1e-06 -0.002261
0.001772 1e-06 -0.002278
0.001755 1e-06 -0.002296
0.001738 2e-06 -0.002313
0.001718 5e-06 -0.002328
0.002517 0.000688 -0.000872
0.002614 0.000703 -0.000864
0.002652 0.000743 -0.000855
0.002452 1e-06 -0.001432
0.002435 1e-06 -0.001449
0.00242 0.0 -0.001469
0.002404 -0.0 -0.001488
0.002387 0.0 -0.001505
0.002368 2e-06 -0.001521
0.002354 0.0 -0.001542
0.002338 0.0 -0.001561
0.002322 0.0 -0.001579
0.002307 -1e-06 -0.001599
0.00229 -0.0 -0.001617
0.002273 -0.0 -0.001635
0.002254 1e-06 -0.001651
0.002228 7e-06 -0.001661
0.002194 1.8e-05 -0.001663
0.002154 3.3e-05 -0.00166
0.001966 0.00012 -0.00159
0.001924 0.000136 -0.001586
0.001895 0.000144 -0.001592
0.00187 0.000149 -0.001604
0.00185 0.000152 -0.001618
0.001832 0.000152 -0.001636
0.001817 0.000152 -0.001655
0.001804 0.000149 -0.001677
0.001794 0.000145 -0.001701
0.00179 0.000137 -0.00173
0.001794 0.000125 -0.001767
0.001817 0.0001 -0.001821
0.001843 7.3e-05 -0.001877
0.001887 2.5e-05 -0.001983
0.001892 1.2e-05 -0.002021
0.00189 3e-06 -0.002052
0.001879 -0.0 -0.002075
0.001862 -0.0 -0.002093
0.001846 -1e-06 -0.002112
0.001829 -0.0 -0.00213
0.001812 -0.0 -0.002148
0.002898 0.000491 -0.000782
0.002445 -2e-06 -0.001359
0.00243 -2e-06 -0.001379
0.002414 -2e-06 -0.001397
0.002399 -3e-06 -0.001416
0.002379 -1e-06 -0.001432
0.002363 -2e-06 -0.001451
0.002346 -1e-06 -0.001469
0.00233 -2e-06 -0.001487
0.002315 -2e-06 -0.001507
0.002297 -2e-06 -0.001524
0.002247 -1e-06 -0.001578
0.00223 -0.0 -0.001596
0.002213 0.0 -0.001614
0.002196 -0.0 -0.001632
0.002176 2e-06 -0.001647
0.002146 1.1e-05 -0.001653
0.001962 9.5e-05 -0.001587
0.001924 0.000109 -0.001586
0.001894 0.000117 -0.001592
0.00187 0.000122 -0.001603
0.00185 0.000124 -0.001618
0.001833 0.000125 -0.001636
0.001817 0.000125 -0.001655
0.001804 0.000122 -0.001677
0.001794 0.000118 -0.001701
0.001789 0.000111 -0.00173
0.001794 9.7e-05 -0.001767
0.001818 7.2e-05 -0.001822
0.001874 6e-06 -0.001971
0.001866 0.0 -0.001998
0.001851 -0.0 -0.002017
0.001835 -0.0 -0.002036
0.001819 -0.0 -0.002055
0.001804 -1e-06 -0.002074
0.001756 -3e-06 -0.002131
0.001739 -2e-06 -0.002149
0.001722 -2e-06 -0.002166
0.001706 -1e-06 -0.002185
0.001689 -1e-06 -0.002203
0.002558 0.000709 -0.001493
0.002401 -1e-06 -0.001319
0.002384 -1e-06 -0.001337
0.002368 -1e-06 -0.001356
0.002353 -2e-06 -0.001375
0.002335 -1e-06 -0.001392
0.002318 -0.0 -0.00141
0.002301 -0.0 -0.001428
0.002266 1e-06 -0.001463
0.002251 1e-06 -0.001482
0.002235 -0.0 -0.001501
0.002185 -0.0 -0.001556
0.002168 1e-06 -0.001573
0.002153 -1e-06 -0.001593
0.002136 -1e-06 -0.001611
0.002119 -0.0 -0.001629
0.002771 0.000563 -0.00083
0.001961 6.8e-05 -0.001586
0.001924 8.1e-05 -0.001586
0.001894 9e-05 -0.001592
0.00187 9.5e-05 -0.001603
0.00185 9.7e-05 -0.001618
0.001832 9.8e-05 -0.001636
0.001817 9.7e-05 -0.001655
0.001804 9.5e-05 -0.001676
0.001794 9.1e-05 -0.001701
0.001789 8.3e-05 -0.00173
0.001793 7.1e-05 -0.001766
0.001817 4.6e-05 -0.001821
0.001853 1e-06 -0.00192
0.001842 -1e-06 -0.001943
0.001825 -0.0 -0.00196
0.001708 0.0 -0.002088
0.001691 1e-06 -0.002105
0.001675 0.0 -0.002124
0.00166 -0.0 -0.002143
0.001643 0.0 -0.002161
0.001627 -0.0 -0.00218
0.002372 0.0 -0.00126
0.002357 -1e-06 -0.00128
0.00234 -0.0 -0.001298
0.002324 -0.0 -0.001316
0.002308 -1e-06 -0.001335
0.002293 -2e-06 -0.001354
0.002277 -3e-06 -0.001373
0.002261 -3e-06 -0.001392
0.002231 -4e-06 -0.001431
0.002215 -4e-06 -0.00145
0.002199 -5e-06 -0.001469
0.002184 -5e-06 -0.001488
0.002167 -5e-06 -0.001507
0.002152 -6e-06 -0.001526
0.002136 -5e-06 -0.001544
0.002921 0.000552 -0.000698
0.002536 0.000568 -0.001428
0.002405 0.000663 -0.001228
0.002271 0.000749 -0.001082
0.001924 5.4e-05 -0.001586
0.001894 6.3e-05 -0.001592
0.00187 6.8e-05 -0.001603
0.001849 7e-05 -0.001618
0.001832 7.1e-05 -0.001636
0.001816 7e-05 -0.001655
0.001803 6.8e-05 -0.001676
0.001794 6.4e-05 -0.0017
0.001789 5.7e-05 -0.00173
0.001791 4.5e-05 -0.001764
0.001824 -7e-06 -0.001893
0.001808 -7e-06 -0.001912
0.00179 -6e-06 -0.00193
0.001355 -2.6e-05 -0.001604
0.001688 -4e-06 -0.002036
0.001671 -3e-06 -0.002054
0.001653 -3e-06 -0.002071
0.001636 -3e-06 -0.002089
0.001619 -2e-06 -0.002107
0.001602 -2e-06 -0.002124
0.001585 -2e-06 -0.002143
0.002338 -5e-06 -0.001229
0.002322 -6e-06 -0.001249
0.002308 -7e-06 -0.001268
0.002291 -7e-06 -0.001286
0.002274 -7e-06 -0.001304
0.002254 -4e-06 -0.001319
0.002239 -5e-06 -0.001339
0.002205 -5e-06 -0.001375
0.002124 -6e-06 -0.001468
0.002107 -5e-06 -0.001485
0.002089 -4e-06 -0.001503
0.001373 -2.7e-05 -0.001587
0.002809 0.000576 -0.000821
0.002771 0.00059 -0.00083
0.001924 2.7e-05 -0.001586
0.001894 3.6e-05 -0.001592
0.001869 4.1e-05 -0.001603
0.001849 4.3e-05 -0.001618
0.001832 4.4e-05 -0.001635
0.001816 4.3e-05 -0.001654
0.001803 4.1e-05 -0.001676
0.001793 3.7e-05 -0.0017
0.001788 3e-05 -0.001729
0.00139 -2.7e-05 -0.00157
0.001777 -4e-06 -0.001851
0.00176 -4e-06 -0.001869
0.001744 -4e-06 -0.001888
0.001648 -6e-06 -0.002
0.001631 -6e-06 -0.002019
0.001616 -6e-06 -0.002038
0.001408 -2.8e-05 -0.001552
0.002296 -7e-06 -0.001192
0.00228 -7e-06 -0.001211
0.00226 -5e-06 -0.001226
0.002244 -4e-06 -0.001244
0.002224 -3e-06 -0.001259
0.002209 -3e-06 -0.001279
0.002192 -3e-06 -0.001297
0.00216 -3e-06 -0.001334
0.002142 -2e-06 -0.001351
0.002914 0.000581 -0.000722
0.002915 0.000553 -0.000722
0.002517 0.00066 -0.000872
0.002041 -1e-06 -0.001459
0.002023 -0.0 -0.001476
0.00246 0.000716 -0.001664
0.002887 0.000614 -0.000792
0.00294 0.000661 0.000148
0.002844 0.000563 -0.000811
0.002253 0.000715 -0.001018
0.001919 3e-06 -0.001582
0.001893 9e-06 -0.001591
0.001869 1.4e-05 -0.001603
0.001849 1.6e-05 -0.001618
0.001832 1.7e-05 -0.001635
0.001816 1.6e-05 -0.001654
0.001802 1.4e-05 -0.001675
0.001793 1e-05 -0.0017
0.001788 3e-06 -0.001729
0.001424 -2.8e-05 -0.001534
0.001442 -2.9e-05 -0.001517
0.001459 -2.9e-05 -0.001499
0.001477 -3e-05 -0.001482
0.001598 -2e-06 -0.001955
0.001582 -2e-06 -0.001974
0.001566 -2e-06 -0.001993
0.001551 -3e-06 -0.002012
0.001536 -4e-06 -0.002032
0.001519 -4e-06 -0.00205
0.001493 -3e-05 -0.001463
0.002194 -1e-06 -0.001199
0.002178 -1e-06 -0.001218
0.002161 -1e-06 -0.001236
0.002848 0.000591 8.7e-05
0.002111 -0.0 -0.001291
0.002095 -0.0 -0.001309
0.002547 0.000704 -0.001542
0.002256 0.000735 -0.001047
0.002284 0.000748 -0.000924
0.002898 0.000519 -0.000782
0.002537 0.000703 -0.001565
0.001997 -1e-06 -0.00142
0.001981 -1e-06 -0.001439
0.001965 -1e-06 -0.001457
0.002926 0.000551 -0.000674
0.002542 0.000505 -0.001595
0.002845 0.000508 -0.000811
0.002361 0.000664 -0.00118
0.002268 0.000723 -0.00108
0.002572 0.000638 -0.000871
0.001853 -3e-06 -0.001589
0.001835 -2e-06 -0.001606
0.001818 -2e-06 -0.001623
0.001803 -3e-06 -0.001643
0.001787 -3e-06 -0.001661
0.001772 -4e-06 -0.001681
0.001671 -3e-06 -0.001789
0.001654 -3e-06 -0.001807
0.001636 -1e-06 -0.001824
0.00162 -1e-06 -0.001842
0.001603 -2e-06 -0.001861
0.001587 -2e-06 -0.001879
0.00157 -1e-06 -0.001897
0.001553 -2e-06 -0.001915
0.001536 -1e-06 -0.001932
0.00152 -1e-06 -0.001951
0.001503 -1e-06 -0.001969
0.001488 -1e-06 -0.001989
0.001472 -1e-06 -0.002007
0.00144 -2e-06 -0.002045
0.001422 -1e-06 -0.002062
0.001407 -2e-06 -0.002082
0.001392 -2e-06 -0.002101
0.002201 -1e-06 -0.001106
0.002187 -3e-06 -0.001126
0.002845 0.000535 -0.000811
0.002154 -3e-06 -0.001163
0.002139 -3e-06 -0.001183
0.002123 -4e-06 -0.001201
0.002107 -4e-06 -0.00122
0.002435 0.000723 -0.00168
0.002537 0.000541 -0.001428
0.002542 0.000532 -0.001595
0.002045 -7e-06 -0.001297
0.002028 -6e-06 -0.001315
0.002013 -7e-06 -0.001335
0.001998 -8e-06 -0.001354
0.001982 -8e-06 -0.001373
0.001967 -9e-06 -0.001393
0.001951 -9e-06 -0.001411
0.001935 -9e-06 -0.00143
0.002491 0.000602 -0.001352
0.002441 0.000639 -0.001273
0.00187 -1e-05 -0.001504
0.001853 -1e-05 -0.001522
0.001821 -1e-05 -0.00156
0.001804 -1e-05 -0.001578
0.001789 -1.1e-05 -0.001597
0.001772 -1.1e-05 -0.001615
0.001673 -1e-05 -0.001725
0.001656 -1e-05 -0.001742
0.001639 -1e-05 -0.00176
0.001621 -9e-06 -0.001778
0.001605 -9e-06 -0.001796
0.001587 -8e-06 -0.001813
0.00157 -7e-06 -0.001831
0.001553 -7e-06 -0.001848
0.001535 -6e-06 -0.001865
0.001518 -6e-06 -0.001883
0.001501 -6e-06 -0.001901
0.001483 -5e-06 -0.001919
0.001414 -3e-06 -0.001989
0.001397 -2e-06 -0.002007
0.001379 -1e-06 -0.002023
0.001362 -1e-06 -0.002041
0.001344 -1e-06 -0.002059
0.002551 0.000718 -0.001462
0.002152 -8e-06 -0.001095
0.002138 -9e-06 -0.001115
0.002121 -9e-06 -0.001134
0.002106 -1e-05 -0.001153
0.002089 -1e-05 -0.001171
0.002072 -1e-05 -0.001189
0.002056 -9e-06 -0.001207
0.002809 0.000548 -0.000821
0.002694 0.000564 -0.000848
0.001987 -8e-06 -0.001278
0.001971 -8e-06 -0.001297
0.001955 -8e-06 -0.001315
0.001938 -8e-06 -0.001333
0.001922 -8e-06 -0.001352
0.001905 -8e-06 -0.00137
0.001888 -7e-06 -0.001388
0.002515 0.000584 -0.001391
0.001838 -7e-06 -0.001443
0.001821 -7e-06 -0.00146
0.001803 -5e-06 -0.001477
0.001789 -7e-06 -0.001497
0.001674 -8e-06 -0.001626
0.00166 -9e-06 -0.001647
0.001628 -9e-06 -0.001684
0.001611 -9e-06 -0.001702
0.001595 -9e-06 -0.001721
0.001578 -9e-06 -0.001738
0.001563 -1e-05 -0.001758
0.001546 -9e-06 -0.001776
0.00153 -1e-05 -0.001795
0.001513 -9e-06 -0.001813
0.001497 -9e-06 -0.001831
0.001478 -8e-06 -0.001848
0.001463 -9e-06 -0.001867
0.001447 -9e-06 -0.001886
0.001383 -1e-05 -0.00196
0.001366 -1e-05 -0.001978
0.001348 -9e-06 -0.001995
0.001332 -9e-06 -0.002014
0.001312 -8e-06 -0.00203
0.002299 0.000719 -0.000904
0.002518 0.000633 -0.000873
0.002093 -8e-06 -0.001075
0.002075 -8e-06 -0.001092
0.002059 -8e-06 -0.001111
0.00204 -6e-06 -0.001127
0.002023 -6e-06 -0.001145
0.002005 -5e-06 -0.001162
0.00199 -6e-06 -0.001181
0.002555 0.000705 -0.001519
0.002925 0.000633 -0.000674
0.001939 -5e-06 -0.001235
0.001919 -3e-06 -0.00125
0.001887 -3e-06 -0.001287
0.001871 -3e-06 -0.001306
0.001854 -3e-06 -0.001324
0.001839 -4e-06 -0.001344
0.001772 -3e-06 -0.001416
0.001757 -4e-06 -0.001435
0.001739 -3e-06 -0.001453
0.00225 0.000771 -0.001016
0.002358 0.000693 -0.001178
0.001689 -2e-06 -0.001507
0.001672 -2e-06 -0.001525
0.001653 -2e-06 -0.001541
0.001609 -4e-06 -0.0016
0.001593 -4e-06 -0.001619
0.001576 -4e-06 -0.001637
0.00156 -4e-06 -0.001656
0.00151 -3e-05 -0.001445
0.001527 -3e-05 -0.001427
0.001461 -4e-06 -0.001765
0.001445 -5e-06 -0.001785
0.001429 -4e-06 -0.001803
0.001336 -8e-06 -0.001919
0.00132 -8e-06 -0.001937
0.001305 -9e-06 -0.001957
0.002572 0.000665 -0.000871
0.002536 0.000677 -0.001428
0.002026 -4e-06 -0.001048
0.002008 -3e-06 -0.001065
0.001992 -4e-06 -0.001084
0.001974 -2e-06 -0.001101
0.001956 -1e-06 -0.001118
0.00194 -2e-06 -0.001137
0.001921 -0.0 -0.001153
0.001907 -2e-06 -0.001173
0.002574 0.000613 -0.001528
0.002492 0.000575 -0.001352
0.002515 0.000557 -0.001391
0.002655 0.000579 -0.000856
0.001827 -3e-06 -0.001266
0.001811 -3e-06 -0.001285
0.002906 0.00052 -0.000759
0.0023 0.000745 -0.000904
0.002577 0.00053 -0.001529
0.00253 0.000734 -0.001425
0.001729 -3e-06 -0.001377
0.001712 -3e-06 -0.001395
0.001695 -3e-06 -0.001413
0.001679 -3e-06 -0.001431
0.001663 -3e-06 -0.00145
0.001646 -3e-06 -0.001468
0.00163 -3e-06 -0.001487
0.001614 -4e-06 -0.001505
0.001547 -3e-06 -0.001578
0.001479 -1e-06 -0.001649
0.001464 -2e-06 -0.001669
0.001448 -3e-06 -0.001687
0.001285 -4e-06 -0.001873
0.001269 -4e-06 -0.001892
0.001254 -5e-06 -0.001911
0.001238 -5e-06 -0.001929
0.001222 -5e-06 -0.001948
0.002258 0.000761 -0.001048
0.002614 0.000649 -0.000864
0.002566 0.000612 -0.001552
0.00198 -3e-06 -0.001007
0.001964 -3e-06 -0.001025
0.001948 -3e-06 -0.001044
0.001931 -3e-06 -0.001062
0.001916 -4e-06 -0.001082
0.0019 -4e-06 -0.0011
0.001885 -5e-06 -0.00112
0.001869 -5e-06 -0.001138
0.002747 0.000659 3e-05
0.002493 0.00071 -0.001352
0.00257 0.000648 -0.001499
0.002567 0.000672 -0.001524
0.001791 -8e-06 -0.001234
0.001774 -7e-06 -0.001252
0.001758 -8e-06 -0.001271
0.001743 -8e-06 -0.00129
0.001727 -9e-06 -0.001309
0.00171 -8e-06 -0.001328
0.001694 -9e-06 -0.001346
0.001678 -9e-06 -0.001364
0.001661 -9e-06 -0.001383
0.001645 -9e-06 -0.001401
0.001629 -9e-06 -0.00142
0.001613 -9e-06 -0.001439
0.001596 -9e-06 -0.001456
0.00158 -1e-05 -0.001475
0.001564 -1e-05 -0.001494
0.001546 -9e-06 -0.001511
0.001531 -9e-06 -0.00153
0.001513 -9e-06 -0.001547
0.001496 -9e-06 -0.001566
0.001479 -8e-06 -0.001583
0.001462 -8e-06 -0.001601
0.001445 -7e-06 -0.001619
0.001427 -6e-06 -0.001636
0.00141 -6e-06 -0.001654
0.001394 -6e-06 -0.001672
0.001257 -3e-06 -0.001814
0.00124 -2e-06 -0.001832
0.001222 -2e-06 -0.001849
0.001206 -2e-06 -0.001868
0.001189 -1e-06 -0.001886
0.001173 -3e-06 -0.001904
0.002733 0.000604 -0.000839
0.002441 0.000693 -0.001273
0.002695 0.000699 -0.000848
0.002941 0.000607 0.000146
0.00193 -8e-06 -0.000995
0.001915 -9e-06 -0.001014
0.001899 -1e-05 -0.001033
0.001885 -1.1e-05 -0.001054
0.001869 -1.1e-05 -0.001072
0.001854 -1.2e-05 -0.001092
0.001838 -1.3e-05 -0.001111
0.002469 0.000728 -0.001313
0.002572 0.000642 -0.001527
0.002555 0.000661 -0.001464
0.002842 0.000716 -0.00081
0.00176 -1.6e-05 -0.001207
0.001745 -1.6e-05 -0.001226
0.001729 -1.7e-05 -0.001245
0.001713 -1.7e-05 -0.001264
0.001697 -1.7e-05 -0.001283
0.001682 -1.8e-05 -0.001302
0.001665 -1.8e-05 -0.00132
0.001649 -1.8e-05 -0.001339
0.001633 -1.8e-05 -0.001357
0.001617 -1.9e-05 -0.001376
0.001601 -1.9e-05 -0.001394
0.001584 -1.8e-05 -0.001412
0.001568 -1.8e-05 -0.001431
0.001551 -1.8e-05 -0.001449
0.001534 -1.8e-05 -0.001467
0.001518 -1.8e-05 -0.001486
0.001501 -1.8e-05 -0.001503
0.001484 -1.7e-05 -0.001521
0.001467 -1.7e-05 -0.001539
0.00145 -1.7e-05 -0.001557
0.001433 -1.7e-05 -0.001575
0.001416 -1.6e-05 -0.001593
0.001398 -1.6e-05 -0.00161
0.00138 -1.5e-05 -0.001627
0.001363 -1.4e-05 -0.001644
0.001222 -8e-06 -0.001783
0.001205 -7e-06 -0.0018
0.001188 -7e-06 -0.001819
0.001169 -6e-06 -0.001835
0.002695 0.000618 -0.000848
0.002879 0.00055 -0.0008
0.002906 0.000547 -0.000758
0.002542 0.000559 -0.001595
0.002568 0.000557 -0.001552
0.002576 0.000558 -0.001529
0.002573 0.000565 -0.0015
0.002554 0.00058 -0.001464
0.002536 0.000595 -0.001428
0.002283 0.000722 -0.000923
0.002515 0.000611 -0.00139
0.002261 0.000722 -0.000967
0.002255 0.000719 -0.000992
0.002572 0.00061 -0.000871
0.002319 0.000714 -0.000886
0.001735 -2.7e-05 -0.001184
0.001719 -2.7e-05 -0.001202
0.001703 -2.8e-05 -0.001222
0.001688 -2.8e-05 -0.001241
0.001672 -2.9e-05 -0.00126
0.001656 -2.9e-05 -0.001279
0.001641 -3e-05 -0.001298
0.001625 -3e-05 -0.001317
0.001609 -3e-05 -0.001336
0.001592 -3e-05 -0.001354
0.001576 -3e-05 -0.001372
0.00156 -3e-05 -0.001391
0.001544 -3.1e-05 -0.001409
0.002255 0.000708 -0.001047
0.002269 0.000696 -0.00108
0.00236 0.000638 -0.001179
0.002406 0.000608 -0.001228
0.002441 0.000585 -0.001273
0.002468 0.000565 -0.001313
0.002492 0.000547 -0.001352
0.002515 0.00053 -0.001391
0.002537 0.000513 -0.001428
0.002554 0.000499 -0.001464
0.002572 0.000484 -0.0015
0.002577 0.000476 -0.00153
0.002568 0.000475 -0.001553
0.002555 0.000476 -0.001574
0.002542 0.000478 -0.001595
0.002529 0.000479 -0.001616
0.002386 0.00072 0.000746
0.00291 0.000646 0.000128
0.00293 0.000633 -0.00065
0.002906 0.000465 -0.000759
0.002897 0.000465 -0.000782
0.002878 0.000469 -0.0008
0.002845 0.000481 -0.000811
0.002808 0.000494 -0.000821
0.002771 0.000508 -0.00083
0.002733 0.000522 -0.000839
0.002693 0.000537 -0.000847
0.002654 0.000552 -0.000856
0.002613 0.000567 -0.000864
0.002572 0.000583 -0.000871
0.002517 0.000607 -0.000872
0.002389 0.000662 -0.000865
0.002347 0.000678 -0.000872
0.002319 0.000687 -0.000886
0.002299 0.000692 -0.000904
0.002283 0.000695 -0.000923
0.00227 0.000695 -0.000945
0.002261 0.000694 -0.000967
0.002255 0.000692 -0.000992
0.002253 0.000688 -0.001018
0.002255 0.000681 -0.001046
0.00227 0.000668 -0.001081
0.002312 0.000641 -0.001128
0.002361 0.00061 -0.001179
0.002406 0.000581 -0.001229
0.002441 0.000558 -0.001273
0.002468 0.000538 -0.001313
0.002493 0.00052 -0.001352
0.002515 0.000503 -0.001391
0.002537 0.000486 -0.001428
0.002555 0.000471 -0.001464
0.002573 0.000457 -0.0015
0.002577 0.000449 -0.00153
0.002568 0.000448 -0.001553
0.002555 0.000449 -0.001574
0.002542 0.000451 -0.001595
0.002529 0.000452 -0.001616
0.002934 0.000553 -0.000601
0.002849 0.000672 8.7e-05
0.00292 0.000634 -0.000698
0.002906 0.000438 -0.000759
0.002897 0.000437 -0.000782
0.002878 0.000442 -0.0008
0.002844 0.000454 -0.000811
0.002809 0.000467 -0.000821
0.002771 0.000481 -0.00083
0.002733 0.000495 -0.000839
0.002693 0.00051 -0.000847
0.002653 0.000525 -0.000855
0.002613 0.00054 -0.000864
0.002572 0.000556 -0.000871
0.002455 0.000606 -0.000869
0.002389 0.000634 -0.000865
0.002347 0.00065 -0.000872
0.002319 0.000659 -0.000886
0.002298 0.000665 -0.000903
0.002283 0.000667 -0.000923
0.00227 0.000668 -0.000945
0.002261 0.000667 -0.000967
0.002255 0.000665 -0.000992
0.002252 0.000661 -0.001018
0.002255 0.000654 -0.001047
0.00227 0.000641 -0.001081
0.002309 0.000615 -0.001127
0.00236 0.000583 -0.001179
0.002405 0.000555 -0.001228
0.002441 0.000531 -0.001273
0.002468 0.000511 -0.001313
0.002493 0.000493 -0.001352
0.002515 0.000476 -0.001391
0.002537 0.000459 -0.001428
0.002554 0.000444 -0.001464
0.002572 0.00043 -0.0015
0.002577 0.000422 -0.00153
0.002567 0.000421 -0.001552
0.002555 0.000422 -0.001574
0.002541 0.000424 -0.001595
0.002528 0.000425 -0.001616
0.002515 0.000426 -0.001637
0.00288 0.00055 0.000106
0.002879 0.000659 0.000107
0.002854 0.000656 -0.00081
0.002906 0.000411 -0.000759
0.002898 0.00041 -0.000782
0.002879 0.000414 -0.0008
0.002844 0.000427 -0.000811
0.002809 0.00044 -0.000821
0.002771 0.000454 -0.00083
0.002733 0.000468 -0.000839
0.002692 0.000483 -0.000847
0.002654 0.000498 -0.000856
0.002613 0.000513 -0.000864
0.002571 0.00053 -0.000871
0.002517 0.000552 -0.000872
0.002456 0.000578 -0.00087
0.00239 0.000606 -0.000866
0.002347 0.000623 -0.000872
0.00232 0.000632 -0.000886
0.002298 0.000638 -0.000903
0.002283 0.00064 -0.000923
0.00227 0.000641 -0.000945
0.002261 0.00064 -0.000967
0.002254 0.000638 -0.000992
0.002253 0.000634 -0.001018
0.002255 0.000627 -0.001047
0.002269 0.000614 -0.001081
0.00231 0.000588 -0.001128
0.002362 0.000555 -0.00118
0.002406 0.000527 -0.001228
0.002441 0.000503 -0.001273
0.002469 0.000483 -0.001314
0.002492 0.000466 -0.001352
0.002516 0.000448 -0.001391
0.002536 0.000432 -0.001428
0.002555 0.000417 -0.001464
0.002572 0.000402 -0.0015
0.002577 0.000394 -0.00153
0.002567 0.000394 -0.001552
0.002553 0.000396 -0.001573
0.00254 0.000397 -0.001594
0.002527 0.000398 -0.001615
0.002514 0.0004 -0.001636
0.002373 0.000729 0.000694
0.002932 0.000609 -0.0006
0.002913 0.000646 -0.000572
0.002906 0.000384 -0.000759
0.002898 0.000383 -0.000782
0.002879 0.000387 -0.0008
0.002844 0.0004 -0.000811
0.002809 0.000412 -0.000821
0.002771 0.000427 -0.00083
0.002733 0.000441 -0.000839
0.002693 0.000456 -0.000848
0.002654 0.000471 -0.000856
0.002614 0.000486 -0.000864
0.002571 0.000502 -0.000871
0.002517 0.000525 -0.000872
0.002456 0.000551 -0.00087
0.002347 0.000596 -0.000872
0.002319 0.000605 -0.000886
0.002298 0.00061 -0.000903
0.002282 0.000613 -0.000923
0.00227 0.000614 -0.000945
0.002261 0.000613 -0.000967
0.002254 0.000611 -0.000992
0.002252 0.000607 -0.001018
0.002255 0.0006 -0.001047
0.002269 0.000587 -0.001081
0.002311 0.00056 -0.001128
0.00236 0.000529 -0.001179
0.002406 0.0005 -0.001228
0.002442 0.000476 -0.001273
0.002469 0.000456 -0.001313
0.002492 0.000439 -0.001352
0.002516 0.000421 -0.001391
0.002536 0.000405 -0.001428
0.002554 0.00039 -0.001464
0.002573 0.000375 -0.0015
0.002577 0.000367 -0.00153
0.002567 0.000367 -0.001552
0.002554 0.000368 -0.001573
0.002541 0.00037 -0.001594
0.002527 0.000371 -0.001615
0.002937 0.000496 -0.000626
0.002914 0.000619 -0.000572
0.002884 0.00069 -0.000542
0.002906 0.000356 -0.000759
0.002898 0.000356 -0.000782
0.002879 0.00036 -0.0008
0.002844 0.000372 -0.000811
0.002808 0.000385 -0.000821
0.002771 0.000399 -0.00083
0.002732 0.000414 -0.000839
0.002693 0.000428 -0.000847
0.002654 0.000443 -0.000856
0.002613 0.000459 -0.000864
0.002571 0.000475 -0.000871
0.002517 0.000498 -0.000872
0.002454 0.000524 -0.000869
0.002347 0.000569 -0.000872
0.002319 0.000578 -0.000886
0.002298 0.000583 -0.000904
0.002282 0.000586 -0.000923
0.00227 0.000587 -0.000945
0.002261 0.000586 -0.000967
0.002254 0.000584 -0.000992
0.002252 0.000579 -0.001018
0.002256 0.000572 -0.001047
0.002268 0.000561 -0.00108
0.00236 0.000502 -0.001179
0.002406 0.000472 -0.001229
0.002442 0.000448 -0.001273
0.002468 0.000429 -0.001313
0.002492 0.000412 -0.001352
0.002516 0.000394 -0.001391
0.002537 0.000377 -0.001428
0.002554 0.000363 -0.001464
0.002573 0.000348 -0.0015
0.002577 0.00034 -0.00153
0.002567 0.00034 -0.001552
0.002554 0.000341 -0.001574
0.002541 0.000342 -0.001594
0.002528 0.000344 -0.001616
0.002612 0.00069 -2.3e-05
0.002746 0.000742 3e-05
0.00288 0.000702 -0.000766
0.002906 0.000329 -0.000759
0.002898 0.000328 -0.000782
0.002879 0.000333 -0.0008
0.002844 0.000346 -0.000811
0.002809 0.000358 -0.000821
0.002771 0.000372 -0.00083
0.002732 0.000387 -0.000839
0.002693 0.000401 -0.000848
0.002654 0.000416 -0.000856
0.002613 0.000432 -0.000864
0.002571 0.000448 -0.000871
0.002517 0.000471 -0.000872
0.002347 0.000542 -0.000872
0.002319 0.000551 -0.000886
0.002298 0.000556 -0.000903
0.002282 0.000559 -0.000923
0.00227 0.000559 -0.000945
0.002261 0.000559 -0.000967
0.002254 0.000557 -0.000991
0.002252 0.000553 -0.001018
0.002255 0.000545 -0.001047
0.002269 0.000533 -0.00108
0.002308 0.000507 -0.001127
0.002359 0.000475 -0.001179
0.002406 0.000446 -0.001229
0.002442 0.000421 -0.001273
0.002468 0.000402 -0.001313
0.002493 0.000384 -0.001353
0.002515 0.000367 -0.001391
0.002537 0.00035 -0.001429
0.002554 0.000336 -0.001464
0.002573 0.000321 -0.0015
0.002577 0.000313 -0.00153
0.002568 0.000312 -0.001553
0.002555 0.000314 -0.001574
0.002541 0.000315 -0.001595
0.002528 0.000316 -0.001616
0.002936 0.000551 -0.000626
0.002779 0.00069 -0.00045
0.002866 0.000706 -0.000789
0.002906 0.000302 -0.000759
0.002898 0.000301 -0.000782
0.002879 0.000306 -0.0008
0.002844 0.000318 -0.000811
0.002809 0.000331 -0.000821
0.00277 0.000345 -0.00083
0.002732 0.00036 -0.000839
0.002692 0.000375 -0.000847
0.002654 0.000389 -0.000856
0.002613 0.000405 -0.000864
0.002571 0.000421 -0.000871
0.002517 0.000443 -0.000872
0.002456 0.000469 -0.00087
0.002346 0.000515 -0.000872
0.002318 0.000524 -0.000886
0.002298 0.000529 -0.000903
0.002282 0.000532 -0.000923
0.00227 0.000532 -0.000945
0.002261 0.000532 -0.000967
0.002254 0.00053 -0.000991
0.002251 0.000526 -0.001017
0.002255 0.000518 -0.001047
0.002269 0.000505 -0.001081
0.002309 0.000479 -0.001127
0.002361 0.000447 -0.00118
0.002406 0.000418 -0.001229
0.002442 0.000394 -0.001273
0.002468 0.000375 -0.001313
0.002493 0.000357 -0.001353
0.002516 0.000339 -0.001391
0.002537 0.000323 -0.001429
0.002555 0.000308 -0.001465
0.002573 0.000293 -0.0015
0.002577 0.000286 -0.00153
0.002568 0.000285 -0.001553
0.002555 0.000286 -0.001574
0.002542 0.000288 -0.001595
0.002528 0.000289 -0.001616
0.00175 -2.6e-05 -0.00116
0.002884 0.000581 -0.000542
0.002691 0.000736 -0.000385
0.002917 0.000663 -0.000697
0.002906 0.000275 -0.000759
0.002898 0.000274 -0.000782
0.002878 0.000279 -0.0008
0.002844 0.000291 -0.000811
0.002808 0.000304 -0.000821
0.00277 0.000318 -0.00083
0.002731 0.000333 -0.000839
0.002692 0.000347 -0.000847
0.002653 0.000362 -0.000856
0.002612 0.000378 -0.000863
0.00257 0.000394 -0.00087
0.002517 0.000416 -0.000872
0.002455 0.000443 -0.00087
0.002391 0.00047 -0.000866
0.002346 0.000488 -0.000872
0.002318 0.000497 -0.000886
0.002298 0.000502 -0.000903
0.002282 0.000505 -0.000923
0.00227 0.000505 -0.000944
0.00226 0.000505 -0.000967
0.002253 0.000503 -0.000991
0.002252 0.000498 -0.001018
0.002255 0.000491 -0.001047
0.00227 0.000478 -0.001081
0.002309 0.000452 -0.001127
0.002362 0.000419 -0.00118
0.002407 0.000391 -0.001229
0.002443 0.000366 -0.001274
0.002469 0.000347 -0.001314
0.002494 0.000329 -0.001353
0.002515 0.000312 -0.001391
0.002537 0.000296 -0.001429
0.002555 0.000281 -0.001465
0.002573 0.000266 -0.001501
0.002577 0.000259 -0.00153
0.002568 0.000258 -0.001553
0.002555 0.000259 -0.001574
0.002542 0.00026 -0.001595
0.002529 0.000262 -0.001616
0.001762 -2.7e-05 -0.001138
0.002851 0.000598 -0.000512
0.002931 0.000605 -0.00065
0.002928 0.000663 -0.000624
0.002906 0.000248 -0.000759
0.002897 0.000247 -0.000782
0.002877 0.000252 -0.000799
0.002844 0.000264 -0.000811
0.002808 0.000277 -0.000821
0.00277 0.000291 -0.00083
0.002732 0.000305 -0.000839
0.002692 0.00032 -0.000847
0.002653 0.000335 -0.000855
0.002613 0.00035 -0.000863
0.00257 0.000367 -0.00087
0.002517 0.000389 -0.000872
0.002455 0.000416 -0.000869
0.00239 0.000443 -0.000866
0.002346 0.000461 -0.000872
0.002318 0.00047 -0.000886
0.002298 0.000475 -0.000903
0.002282 0.000478 -0.000923
0.00227 0.000478 -0.000944
0.00226 0.000477 -0.000967
0.002253 0.000476 -0.000991
0.002252 0.000471 -0.001018
0.002255 0.000464 -0.001047
0.00227 0.00045 -0.001081
0.002306 0.000426 -0.001126
0.002407 0.000363 -0.001229
0.002443 0.000339 -0.001274
0.00247 0.00032 -0.001314
0.002493 0.000302 -0.001353
0.002515 0.000285 -0.001391
0.002537 0.000268 -0.001429
0.002556 0.000253 -0.001465
0.002572 0.000239 -0.0015
0.002576 0.000232 -0.00153
0.002567 0.000231 -0.001553
0.002555 0.000232 -0.001574
0.002542 0.000233 -0.001595
0.002529 0.000234 -0.001616
0.001775 -2.8e-05 -0.001117
0.002911 0.000619 0.000127
0.00292 0.000607 -0.000698
0.002932 0.000634 -0.000625
0.002906 0.000221 -0.000759
0.002897 0.00022 -0.000782
0.002877 0.000225 -0.0008
0.002843 0.000237 -0.000811
0.002807 0.00025 -0.000821
0.002769 0.000264 -0.00083
0.002731 0.000278 -0.000839
0.002693 0.000293 -0.000847
0.002652 0.000308 -0.000855
0.002612 0.000323 -0.000863
0.00257 0.00034 -0.00087
0.002453 0.000389 -0.000869
0.00239 0.000416 -0.000866
0.002346 0.000434 -0.000872
0.002318 0.000443 -0.000886
0.002297 0.000448 -0.000903
0.002282 0.00045 -0.000923
0.00227 0.000451 -0.000944
0.00226 0.00045 -0.000967
0.002253 0.000449 -0.000991
0.002252 0.000444 -0.001018
0.002256 0.000436 -0.001047
0.00227 0.000423 -0.001081
0.002408 0.000336 -0.00123
0.002443 0.000312 -0.001274
0.00247 0.000293 -0.001314
0.002493 0.000275 -0.001353
0.002516 0.000258 -0.001391
0.002537 0.000241 -0.001428
0.002556 0.000226 -0.001465
0.002572 0.000212 -0.0015
0.002576 0.000205 -0.001529
0.002567 0.000204 -0.001552
0.002555 0.000205 -0.001574
0.002542 0.000206 -0.001595
0.001786 -2.8e-05 -0.001095
0.001798 -2.9e-05 -0.001073
0.00288 0.000632 0.000107
0.002914 0.000608 -0.000722
0.002914 0.000635 -0.000722
0.002905 0.000194 -0.000758
0.002896 0.000194 -0.000781
0.002877 0.000198 -0.000799
0.002844 0.00021 -0.000811
0.002807 0.000223 -0.00082
0.002769 0.000237 -0.000829
0.002731 0.000251 -0.000839
0.002693 0.000266 -0.000847
0.002652 0.000281 -0.000855
0.002612 0.000296 -0.000863
0.00257 0.000313 -0.00087
0.002514 0.000336 -0.000871
0.002453 0.000362 -0.000869
0.002389 0.000389 -0.000865
0.002345 0.000407 -0.000871
0.002318 0.000416 -0.000886
0.002297 0.000421 -0.000903
0.002282 0.000423 -0.000923
0.00227 0.000424 -0.000944
0.00226 0.000423 -0.000967
0.002253 0.000422 -0.000991
0.002252 0.000417 -0.001018
0.002256 0.000409 -0.001047
0.00227 0.000396 -0.001081
0.002443 0.000285 -0.001274
0.00247 0.000265 -0.001314
0.002493 0.000248 -0.001353
0.002516 0.00023 -0.001391
0.002537 0.000214 -0.001429
0.002556 0.000199 -0.001465
0.002572 0.000185 -0.0015
0.002575 0.000178 -0.001529
0.002566 0.000177 -0.001552
0.002554 0.000178 -0.001574
0.002541 0.000179 -0.001595
0.00181 -2.9e-05 -0.001052
0.001821 -3e-05 -0.00103
0.002932 0.000496 -0.00065
0.002908 0.000609 -0.000746
0.002897 0.000639 -0.000769
0.002904 0.000167 -0.000758
0.002894 0.000167 -0.00078
0.002876 0.000171 -0.000799
0.002843 0.000183 -0.00081
0.002806 0.000196 -0.00082
0.002769 0.00021 -0.000829
0.002731 0.000224 -0.000838
0.002693 0.000238 -0.000848
0.002651 0.000255 -0.000855
0.002613 0.000269 -0.000863
0.00257 0.000286 -0.00087
0.002514 0.000309 -0.000871
0.002453 0.000335 -0.000868
0.00239 0.000362 -0.000866
0.002345 0.00038 -0.000871
0.002318 0.000388 -0.000886
0.002297 0.000393 -0.000903
0.002282 0.000396 -0.000923
0.00227 0.000397 -0.000944
0.00226 0.000396 -0.000967
0.002253 0.000394 -0.000991
0.002252 0.000389 -0.001018
0.002255 0.000382 -0.001047
0.002269 0.000369 -0.001081
0.002406 0.000282 -0.001229
0.002443 0.000258 -0.001274
0.002471 0.000238 -0.001315
0.002493 0.000221 -0.001353
0.002516 0.000203 -0.001391
0.002536 0.000187 -0.001428
0.002557 0.000171 -0.001465
0.002571 0.000158 -0.0015
0.002574 0.000151 -0.001528
0.002565 0.000151 -0.001551
0.002554 0.000151 -0.001573
0.002541 0.000152 -0.001595
0.001833 -3e-05 -0.001008
0.002849 0.000645 8.6e-05
0.002925 0.000606 -0.000674
0.00293 0.000637 -0.0006
0.002902 0.000141 -0.000757
0.002892 0.000141 -0.000779
0.002875 0.000145 -0.000798
0.002843 0.000156 -0.00081
0.002806 0.000169 -0.00082
0.002769 0.000183 -0.000829
0.00273 0.000197 -0.000838
0.002693 0.000211 -0.000847
0.002651 0.000227 -0.000855
0.002612 0.000242 -0.000863
0.00257 0.000258 -0.00087
0.002514 0.000282 -0.000871
0.002453 0.000308 -0.000869
0.00239 0.000335 -0.000866
0.002345 0.000352 -0.000871
0.002318 0.000361 -0.000886
0.002297 0.000366 -0.000903
0.002282 0.000369 -0.000923
0.00227 0.000369 -0.000945
0.00226 0.000369 -0.000967
0.002252 0.000367 -0.000991
0.002252 0.000362 -0.001018
0.002255 0.000355 -0.001047
0.00227 0.000342 -0.001081
0.00236 0.000284 -0.00118
0.002407 0.000255 -0.001229
0.002443 0.00023 -0.001274
0.002471 0.00021 -0.001315
0.002493 0.000193 -0.001353
0.002516 0.000176 -0.001391
0.002536 0.00016 -0.001428
