0.000165 0.000153 -0.002985
0.00014 0.000151 -0.002989
0.000116 0.00015 -0.002992
9.1e-05 0.000149 -0.002993
6.6e-05 0.000149 -0.002993
4.2e-05 0.00015 -0.002991
1.7e-05 0.000151 -0.002987
-7e-06 0.000157 -0.002975
-3.1e-05 0.000172 -0.002941
-5.5e-05 0.00019 -0.002902
-7.9e-05 0.00021 -0.00286
-0.000103 0.00023 -0.002817
-0.000127 0.000253 -0.002768
-0.000151 0.000274 -0.002722
-0.000319 0.000422 -0.002402
-0.000343 0.000423 -0.002399
-0.000368 0.000423 -0.002399
-0.000393 0.000421 -0.002404
-0.000418 0.000416 -0.002414
-0.000442 0.000408 -0.002431
-0.000467 0.000395 -0.002459
-0.000493 0.000372 -0.002507
-0.000518 0.000353 -0.002548
-0.000543 0.000333 -0.00259
-0.000569 0.000313 -0.002632
-0.000594 0.000297 -0.002668
-0.000619 0.000282 -0.002698
-0.000644 0.000269 -0.002726
-0.000664 0.000256 -0.002758
0.000617 0.000397 -0.00241
0.000592 0.000404 -0.002394
0.000568 0.00041 -0.002381
0.000544 0.000413 -0.002374
0.000519 0.000414 -0.002371
0.000495 0.000413 -0.002372
0.001132 0.00065 -0.002761
0.000838 0.000654 -0.002714
0.001177 0.000593 -0.002492
0.001616 0.00071 -0.002265
0.00117 0.000635 -0.002387
0.000245 0.000714 -0.00287
0.00019 0.000134 -0.002969
0.000165 0.000128 -0.002981
0.00014 0.000126 -0.002985
0.000116 0.000124 -0.002988
9.1e-05 0.000124 -0.002989
6.6e-05 0.000124 -0.002988
4.2e-05 0.000124 -0.002987
1.7e-05 0.000126 -0.002983
-7e-06 0.000131 -0.002973
-3.1e-05 0.000145 -0.002941
-5.5e-05 0.000163 -0.002903
-7.9e-05 0.000183 -0.00286
-0.000103 0.000203 -0.002816
-0.000127 0.000225 -0.002768
-0.000319 0.000395 -0.002402
-0.000343 0.000396 -0.002399
-0.000368 0.000396 -0.0024
-0.000393 0.000393 -0.002404
-0.000418 0.000389 -0.002414
-0.000442 0.00038 -0.002431
-0.000468 0.000367 -0.002459
-0.000493 0.000345 -0.002507
-0.000518 0.000325 -0.002549
-0.000543 0.000305 -0.002591
-0.000569 0.000286 -0.002632
-0.000594 0.000269 -0.002668
-0.000619 0.000255 -0.002698
-0.000644 0.000242 -0.002726
-0.000664 0.000229 -0.002758
0.000617 0.000369 -0.002411
0.000592 0.000377 -0.002394
0.000568 0.000383 -0.002381
0.000544 0.000386 -0.002374
0.000519 0.000387 -0.002371
0.000495 0.000386 -0.002372
0.001843 0.00043 -0.002352
0.001066 0.000587 -0.0028
0.001616 0.000656 -0.002265
0.000352 0.000691 -0.002526
0.000352 0.000718 -0.002525
0.000191 0.000681 -0.002958
0.00019 0.000108 -0.002965
0.000165 0.000104 -0.002974
0.000141 0.000102 -0.002978
0.000116 0.0001 -0.002981
9.1e-05 0.0001 -0.002982
6.7e-05 0.0001 -0.002982
4.2e-05 0.0001 -0.00298
1.7e-05 0.000102 -0.002977
-7e-06 0.000106 -0.002968
-3.1e-05 0.000119 -0.00294
-5.5e-05 0.000136 -0.002902
-7.9e-05 0.000156 -0.002859
-0.000103 0.000177 -0.002815
-0.000127 0.000197 -0.00277
-0.000151 0.00022 -0.002722
-0.000319 0.000368 -0.002402
-0.000343 0.000369 -0.002399
-0.000368 0.000368 -0.0024
-0.000393 0.000366 -0.002404
-0.000418 0.000361 -0.002414
-0.000442 0.000353 -0.002431
-0.000468 0.00034 -0.00246
-0.000493 0.000318 -0.002506
-0.000518 0.000297 -0.002552
-0.000543 0.000277 -0.002593
-0.000569 0.000259 -0.002632
-0.000594 0.000242 -0.002668
-0.000619 0.000227 -0.002699
-0.000644 0.000214 -0.002726
-0.000664 0.000202 -0.002757
0.000617 0.000342 -0.002411
0.000592 0.00035 -0.002394
0.000568 0.000356 -0.002381
0.000544 0.000359 -0.002374
0.000519 0.00036 -0.002371
0.000495 0.000359 -0.002372
0.000969 0.000646 -0.002816
0.000872 0.000636 -0.002745
0.001173 0.000614 -0.002439
0.000242 0.000578 -0.002869
0.000838 0.000546 -0.002713
0.001843 0.000566 -0.002351
0.000212 9.6e-05 -0.002931
0.00019 8.5e-05 -0.002957
0.000165 8.1e-05 -0.002965
0.000141 7.9e-05 -0.002969
0.000116 7.8e-05 -0.002972
9.1e-05 7.7e-05 -0.002973
6.7e-05 7.7e-05 -0.002972
4.2e-05 7.7e-05 -0.002971
1.7e-05 7.9e-05 -0.002968
-7e-06 8.2e-05 -0.002961
-3.1e-05 9.2e-05 -0.002939
-5.5e-05 0.000109 -0.002903
-7.9e-05 0.000128 -0.00286
-0.000103 0.00015 -0.002814
-0.000127 0.000171 -0.002768
-0.000151 0.000192 -0.002723
-0.000319 0.000341 -0.002402
-0.000343 0.000342 -0.002399
-0.000368 0.000341 -0.0024
-0.000393 0.000339 -0.002405
-0.000418 0.000334 -0.002415
-0.000443 0.000326 -0.002432
-0.000468 0.000312 -0.002461
-0.000493 0.00029 -0.002507
-0.000518 0.000269 -0.002552
-0.000544 0.000251 -0.002592
-0.000569 0.000232 -0.002631
-0.000594 0.000215 -0.002668
-0.000619 0.0002 -0.002699
-0.000644 0.000187 -0.002727
-0.000664 0.000175 -0.002758
0.000617 0.000315 -0.002411
0.000592 0.000323 -0.002394
0.000568 0.000329 -0.002381
0.000544 0.000332 -0.002373
0.000519 0.000333 -0.002371
0.000495 0.000332 -0.002372
0.000939 0.000657 -0.002801
0.000733 0.000714 -0.00261
0.002577 0.000612 -0.00153
0.000258 0.000563 -0.002836
0.000872 0.000529 -0.002743
0.000838 0.000627 -0.002714
0.000213 7.1e-05 -0.002928
0.00019 6.3e-05 -0.002946
0.000165 5.9e-05 -0.002953
0.000141 5.8e-05 -0.002956
0.000116 5.6e-05 -0.002959
9.1e-05 5.6e-05 -0.00296
6.7e-05 5.6e-05 -0.00296
4.2e-05 5.6e-05 -0.002958
1.8e-05 5.7e-05 -0.002955
-7e-06 6e-05 -0.00295
-3.1e-05 6.7e-05 -0.002935
-5.5e-05 8.2e-05 -0.002902
-7.9e-05 0.000102 -0.002859
-0.000103 0.000122 -0.002815
-0.000319 0.000313 -0.002402
-0.000343 0.000314 -0.0024
-0.000368 0.000314 -0.0024
-0.000393 0.000312 -0.002405
-0.000418 0.000307 -0.002415
-0.000443 0.000299 -0.002431
-0.000468 0.000285 -0.00246
-0.000493 0.000263 -0.002507
-0.000518 0.000242 -0.002552
-0.000544 0.000224 -0.002591
-0.000569 0.000205 -0.00263
-0.000594 0.000188 -0.002668
-0.000619 0.000173 -0.002699
-0.000644 0.00016 -0.002727
0.000617 0.000287 -0.002411
0.000592 0.000295 -0.002394
0.000568 0.000302 -0.002381
0.000544 0.000305 -0.002374
0.000519 0.000306 -0.002371
0.000495 0.000304 -0.002372
0.000225 0.00073 -0.002898
0.000768 0.000693 -0.002646
0.001089 0.000534 -0.00279
0.000692 0.000662 -0.002556
0.000378 0.0007 -0.002437
0.000225 0.000675 -0.002899
0.000214 4.9e-05 -0.002917
0.00019 4.3e-05 -0.002931
0.000166 4e-05 -0.002937
0.000141 3.8e-05 -0.00294
0.000116 3.7e-05 -0.002942
9.2e-05 3.6e-05 -0.002944
6.7e-05 3.6e-05 -0.002943
4.2e-05 3.7e-05 -0.002942
1.8e-05 3.8e-05 -0.002939
-7e-06 4e-05 -0.002934
-3.1e-05 4.5e-05 -0.002924
-5.5e-05 5.6e-05 -0.002899
-7.9e-05 7.4e-05 -0.002859
-0.000103 9.5e-05 -0.002815
-0.000127 0.000116 -0.002769
-0.000151 0.000139 -0.002721
-0.000319 0.000286 -0.002402
-0.000343 0.000287 -0.0024
-0.000368 0.000287 -0.0024
-0.000393 0.000284 -0.002405
-0.000418 0.000279 -0.002415
-0.000443 0.000271 -0.002433
-0.000468 0.000258 -0.00246
-0.000493 0.000236 -0.002508
-0.000518 0.000215 -0.002551
-0.000544 0.000196 -0.002593
-0.000569 0.000178 -0.002631
-0.000594 0.000161 -0.002667
-0.000619 0.000146 -0.002698
-0.000643 0.000132 -0.002729
0.000617 0.000261 -0.00241
0.000592 0.000268 -0.002394
0.000568 0.000274 -0.002381
0.000544 0.000277 -0.002374
0.000519 0.000278 -0.002371
0.000495 0.000277 -0.002372
0.001865 0.000619 -0.00234
0.00102 0.000586 -0.002816
0.000208 0.000609 -0.00293
0.001228 0.000722 -0.002091
0.000938 0.000467 -0.0028
0.000341 0.000668 -0.00258
0.00102 0.000613 -0.002815
0.000215 3.1e-05 -0.0029
0.000191 2.5e-05 -0.002911
0.000166 2.2e-05 -0.002916
0.000141 2.1e-05 -0.002919
0.000117 2e-05 -0.002921
9.2e-05 1.9e-05 -0.002921
6.7e-05 1.9e-05 -0.002921
4.3e-05 2e-05 -0.00292
1.8e-05 2.1e-05 -0.002918
-6e-06 2.3e-05 -0.002913
-3.1e-05 2.6e-05 -0.002905
-5.5e-05 3.4e-05 -0.002887
-7.9e-05 4.9e-05 -0.002856
-0.000103 6.9e-05 -0.002813
-0.000127 8.9e-05 -0.002769
-0.000151 0.000109 -0.002725
-0.000319 0.000259 -0.002402
-0.000344 0.00026 -0.0024
-0.000368 0.000259 -0.0024
-0.000393 0.000257 -0.002405
-0.000418 0.000252 -0.002415
-0.000443 0.000244 -0.002432
-0.000468 0.00023 -0.002461
-0.000493 0.000209 -0.002506
-0.000518 0.000188 -0.002551
-0.000544 0.000169 -0.002593
-0.000569 0.00015 -0.002632
-0.000594 0.000133 -0.002668
-0.000619 0.000119 -0.002699
-0.000642 0.000106 -0.002729
0.000617 0.000233 -0.002411
0.000592 0.000241 -0.002394
0.000568 0.000247 -0.002381
0.000544 0.00025 -0.002374
0.000519 0.000251 -0.002371
0.000494 0.00025 -0.002372
0.001066 0.000642 -0.002798
0.00097 0.00059 -0.00282
0.000258 0.000646 -0.002834
0.000939 0.000549 -0.0028
0.001886 0.000592 -0.002327
0.000225 0.00062 -0.0029
0.001019 0.000642 -0.002813
0.000215 1.5e-05 -0.002875
0.000191 1.1e-05 -0.002882
0.000166 1e-05 -0.002885
0.000142 9e-06 -0.002887
0.000117 8e-06 -0.002888
9.2e-05 7e-06 -0.002889
6.8e-05 8e-06 -0.002888
4.3e-05 8e-06 -0.002887
1.9e-05 9e-06 -0.002885
-6e-06 9e-06 -0.002884
-3.1e-05 1.2e-05 -0.002878
-5.5e-05 1.6e-05 -0.002868
-7.9e-05 2.6e-05 -0.002846
-0.000103 4.2e-05 -0.002812
-0.000127 6.3e-05 -0.002767
-0.000151 8.1e-05 -0.002726
-0.000319 0.000232 -0.002402
-0.000344 0.000233 -0.0024
-0.000368 0.000232 -0.0024
-0.000393 0.00023 -0.002405
-0.000418 0.000225 -0.002415
-0.000443 0.000217 -0.002432
-0.000468 0.000204 -0.00246
-0.000493 0.000182 -0.002507
-0.000518 0.000161 -0.002552
-0.000544 0.000141 -0.002593
-0.000569 0.000123 -0.002632
-0.000594 0.000106 -0.002668
-0.000619 9.2e-05 -0.002699
-0.000643 7.9e-05 -0.002727
0.000617 0.000206 -0.002411
0.000592 0.000214 -0.002394
0.000568 0.00022 -0.002381
0.000543 0.000223 -0.002374
0.000519 0.000224 -0.002371
0.000494 0.000223 -0.002372
0.002334 0.000553 -0.001622
0.000939 0.000603 -0.0028
0.000872 0.00061 -0.002744
0.000242 0.000551 -0.002869
0.002374 0.00062 -0.001626
0.001162 0.000668 -0.002654
0.000258 0.000727 -0.002834
0.000192 6e-06 -0.002835
0.000167 6e-06 -0.002835
0.000143 6e-06 -0.002834
0.000118 6e-06 -0.002834
9.3e-05 6e-06 -0.002833
6.9e-05 7e-06 -0.002832
4.4e-05 6e-06 -0.002832
1.9e-05 6e-06 -0.002831
-5e-06 6e-06 -0.002831
-3e-05 7e-06 -0.00283
-5.4e-05 8e-06 -0.002827
-7.9e-05 1.1e-05 -0.002821
-0.000103 2e-05 -0.002801
-0.000127 3.6e-05 -0.002766
-0.000319 0.000205 -0.002402
-0.000344 0.000206 -0.002399
-0.000368 0.000205 -0.0024
-0.000393 0.000203 -0.002405
-0.000418 0.000198 -0.002415
-0.000443 0.00019 -0.002432
-0.000468 0.000177 -0.002459
-0.000493 0.000152 -0.002512
-0.000518 0.000134 -0.002551
-0.000544 0.000114 -0.002593
-0.000569 9.7e-05 -0.00263
-0.000594 7.9e-05 -0.002668
-0.000619 6.5e-05 -0.002698
-0.000644 5.1e-05 -0.002726
0.000617 0.000179 -0.002411
0.000592 0.000187 -0.002394
0.000568 0.000193 -0.002381
0.000543 0.000196 -0.002374
0.000519 0.000197 -0.002371
0.000494 0.000196 -0.002373
0.001088 0.000644 -0.002788
0.001859 0.000679 -0.002331
0.000906 0.000592 -0.002773
0.000225 0.000539 -0.0029
0.001175 0.000667 -0.002443
0.001155 0.000631 -0.00227
0.000733 0.000633 -0.002609
0.000996 0.000559 -0.002823
0.001041 0.000672 -0.0028
0.000168 5e-06 -0.002778
0.000143 5e-06 -0.002779
0.000119 5e-06 -0.002778
9.4e-05 4e-06 -0.002779
6.9e-05 4e-06 -0.002778
4.5e-05 4e-06 -0.002779
2e-05 4e-06 -0.002779
-4e-06 4e-06 -0.002778
-2.9e-05 4e-06 -0.002778
-5.4e-05 4e-06 -0.002778
-7.8e-05 4e-06 -0.002778
-0.000103 6e-06 -0.002772
-0.000127 1.5e-05 -0.002752
-0.000151 3.1e-05 -0.002718
-0.000319 0.000177 -0.002402
-0.000344 0.000179 -0.0024
-0.000368 0.000178 -0.002401
-0.000393 0.000176 -0.002405
-0.000418 0.000171 -0.002415
-0.000442 0.000162 -0.002433
-0.000468 0.00015 -0.002459
-0.000493 0.000125 -0.002512
-0.000518 0.000107 -0.002551
-0.000544 8.8e-05 -0.002591
-0.000569 6.9e-05 -0.00263
-0.000594 5.2e-05 -0.002668
-0.000619 3.8e-05 -0.002697
-0.000644 2.7e-05 -0.00272
0.000617 0.000151 -0.002411
0.000592 0.00016 -0.002394
0.000568 0.000166 -0.002381
0.000543 0.000169 -0.002374
0.000519 0.00017 -0.002371
0.000494 0.000168 -0.002373
0.000839 0.000708 -0.002715
0.00153 0.000695 -0.00222
0.001149 0.000588 -0.002726
0.001043 0.000505 -0.002808
0.000259 0.000536 -0.002836
0.000243 0.000523 -0.002869
0.000304 0.000635 -0.002725
0.001089 0.000507 -0.00279
0.001139 0.000496 -0.002759
0.001043 0.000614 -0.002808
0.000144 3e-06 -0.002724
0.00012 4e-06 -0.002722
7e-05 3e-06 -0.002723
4.6e-05 3e-06 -0.002722
2.1e-05 3e-06 -0.002723
-4e-06 3e-06 -0.002722
-7.8e-05 2e-06 -0.002722
-0.000102 3e-06 -0.00272
-0.000127 5e-06 -0.002717
-0.000319 0.00015 -0.002402
-0.000344 0.000151 -0.0024
-0.000368 0.000151 -0.002401
-0.000393 0.000148 -0.002405
-0.000418 0.000144 -0.002415
-0.000443 0.000136 -0.002431
-0.000468 0.000122 -0.00246
-0.000493 0.0001 -0.002508
-0.000518 8e-05 -0.002551
-0.000544 6.1e-05 -0.002591
-0.000569 4.1e-05 -0.002632
-0.000594 2.6e-05 -0.002665
-0.000619 1.5e-05 -0.002687
-0.000644 8e-06 -0.002702
0.000617 0.000124 -0.002412
0.000592 0.000133 -0.002394
0.000568 0.000138 -0.002381
0.000543 0.000141 -0.002374
0.000519 0.000142 -0.002371
0.00113 0.000681 -0.002753
0.000258 0.0007 -0.002834
0.001173 0.000577 -0.002533
0.00102 0.000558 -0.002817
0.000905 0.000566 -0.002771
0.000316 7e-06 -0.002661
0.000293 3e-06 -0.002667
0.000268 3e-06 -0.002667
0.000244 4e-06 -0.002664
0.00033 0.000647 -0.002631
0.000906 0.000647 -0.002773
0.000872 0.000664 -0.002745
0.000353 0.000744 -0.002529
0.001913 0.000596 -0.002305
7.1e-05 6e-06 -0.002659
4.7e-05 5e-06 -0.002661
-3e-06 5e-06 -0.00266
-2.7e-05 5e-06 -0.002659
-0.000314 -2.1e-05 -0.00207
-7.7e-05 4e-06 -0.00266
-0.000101 4e-06 -0.00266
-0.000126 4e-06 -0.002659
-0.000319 0.000123 -0.002402
-0.000344 0.000124 -0.002399
-0.000368 0.000124 -0.0024
-0.000393 0.000121 -0.002405
-0.000418 0.000117 -0.002415
-0.000443 0.000108 -0.002432
-0.000468 9.6e-05 -0.002459
-0.000493 7.3e-05 -0.002506
-0.000518 5.3e-05 -0.002551
-0.000544 3.3e-05 -0.002593
-0.000569 1.6e-05 -0.002627
-0.000594 8e-06 -0.002646
-0.000619 4e-06 -0.002652
-0.000643 3e-06 -0.002657
-0.000668 3e-06 -0.002656
0.000617 9.7e-05 -0.002411
0.000592 0.000105 -0.002393
0.000568 0.000111 -0.002381
0.000543 0.000114 -0.002374
0.000519 0.000115 -0.002371
0.001064 0.000672 -0.002791
0.001474 0.00059 -0.002176
0.001089 0.000561 -0.002791
0.000489 0.000742 -0.002375
0.000465 0.000743 -0.002379
0.000343 7e-06 -0.002601
0.000318 1e-06 -0.002615
0.000294 1e-06 -0.002613
0.000269 0.0 -0.002614
0.000244 0.0 -0.002614
0.00022 0.0 -0.002614
0.000195 -0.0 -0.002615
0.00097 0.000536 -0.002821
0.000226 0.000512 -0.002901
0.000964 0.000709 -0.002799
9.6e-05 -2e-06 -0.002617
7.2e-05 -2e-06 -0.002617
-0.00029 -2.2e-05 -0.002072
-0.000265 -2.3e-05 -0.002073
-7.6e-05 -2e-06 -0.002615
-0.000101 -2e-06 -0.002615
-0.00024 -2.3e-05 -0.002075
-0.000344 9.7e-05 -0.002399
-0.000368 9.7e-05 -0.0024
-0.000393 9.4e-05 -0.002405
-0.000418 9e-05 -0.002414
-0.000443 8.2e-05 -0.00243
-0.000468 6.9e-05 -0.002458
-0.000493 4.7e-05 -0.002505
-0.000519 2.3e-05 -0.002555
-0.000544 9e-06 -0.002585
-0.000568 4e-06 -0.002595
-0.000593 4e-06 -0.002596
-0.000618 4e-06 -0.002596
-0.000642 4e-06 -0.002595
-0.000667 5e-06 -0.002591
0.000617 7e-05 -0.00241
0.000592 7.9e-05 -0.002392
0.000568 8.4e-05 -0.00238
0.000543 8.7e-05 -0.002374
0.000519 8.8e-05 -0.002371
0.000494 8.7e-05 -0.002372
0.000996 0.000614 -0.002821
0.000193 0.000625 -0.002962
0.000905 0.000484 -0.002771
0.000344 -0.0 -0.002558
0.000319 -1e-06 -0.00256
0.000294 -1e-06 -0.002558
0.000194 0.000516 -0.002963
0.001187 0.000739 -0.002126
0.000221 0.0 -0.002555
0.000196 1e-06 -0.002554
0.000209 0.0005 -0.002931
0.000317 0.000627 -0.002678
0.001084 0.000707 -0.002771
7.3e-05 1e-06 -0.002553
2.4e-05 1e-06 -0.002551
-1e-06 1e-06 -0.002551
-2.6e-05 2e-06 -0.00255
-5e-05 2e-06 -0.002548
-7.5e-05 1e-06 -0.00255
-0.0001 1e-06 -0.002549
-0.000295 6.7e-05 -0.002406
-0.000319 6.9e-05 -0.002401
-0.000344 7e-05 -0.002399
-0.000368 7e-05 -0.0024
-0.000393 6.7e-05 -0.002405
-0.000417 6.3e-05 -0.002414
-0.000443 5.5e-05 -0.00243
-0.000468 4.1e-05 -0.002458
-0.000493 1.9e-05 -0.002506
-0.000518 3e-06 -0.002539
-0.000543 -1e-06 -0.002549
-0.000617 -1e-06 -0.002548
-0.000642 -0.0 -0.002546
-0.000666 1e-06 -0.002543
0.000617 4.4e-05 -0.002409
0.000593 5.2e-05 -0.002391
0.000568 5.7e-05 -0.002379
0.000543 6e-05 -0.002373
0.000519 6.1e-05 -0.00237
0.000494 6e-05 -0.002372
0.00097 0.000618 -0.00282
0.000208 0.000636 -0.00293
0.001885 0.000685 -0.002312
-0.000216 -2.4e-05 -0.002077
0.000344 -4e-06 -0.002507
0.00032 0.0 -0.002499
0.000225 0.000593 -0.0029
0.000838 0.000682 -0.002714
0.001062 0.000704 -0.002782
0.00029 0.0007 -0.002765
0.000996 0.000504 -0.002823
-0.000191 -2.4e-05 -0.002078
2.4e-05 5e-06 -0.002485
-0.0 3e-06 -0.002488
-2.5e-05 4e-06 -0.002487
-4.9e-05 5e-06 -0.002484
-7.4e-05 5e-06 -0.002483
-9.9e-05 5e-06 -0.002483
-0.000123 4e-06 -0.002484
-0.00027 3.5e-05 -0.002415
-0.000295 4e-05 -0.002406
-0.000319 4.2e-05 -0.0024
-0.000344 4.4e-05 -0.002398
-0.000368 4.3e-05 -0.002399
-0.000393 4.1e-05 -0.002404
-0.000417 3.6e-05 -0.002414
-0.000443 2.8e-05 -0.00243
-0.000493 -0.0 -0.002489
-0.000518 -0.0 -0.002488
-0.000542 1e-06 -0.002487
-0.000616 1e-06 -0.002485
-0.000641 1e-06 -0.002485
0.000617 1.6e-05 -0.002409
0.000593 2.5e-05 -0.002391
0.000568 3e-05 -0.002378
0.000543 3.3e-05 -0.002372
0.000519 3.4e-05 -0.00237
0.000494 3.3e-05 -0.002371
0.000242 0.000687 -0.002868
0.00097 0.000481 -0.002821
0.000378 0.000728 -0.002437
-0.000167 -2.5e-05 -0.002079
0.000321 5e-06 -0.002431
0.000296 4e-06 -0.002432
0.000272 3e-06 -0.002433
0.001014 0.000704 -0.002796
0.000222 3e-06 -0.002432
0.000198 3e-06 -0.002432
0.000304 0.000716 -0.002724
0.00102 0.000504 -0.002816
0.00097 0.000508 -0.002821
0.00102 0.00045 -0.002816
0.001089 0.00048 -0.00279
0.000362 0.000687 -0.00247
0.001229 0.000748 -0.002094
1e-06 3e-06 -0.00243
-2.4e-05 2e-06 -0.002431
-4.9e-05 2e-06 -0.002431
-7.3e-05 2e-06 -0.00243
-9.8e-05 2e-06 -0.00243
-0.000245 8e-06 -0.00242
-0.00027 1e-05 -0.002412
-0.000294 1.4e-05 -0.002403
-0.000319 1.6e-05 -0.002399
-0.000344 1.6e-05 -0.002397
-0.000368 1.5e-05 -0.002399
-0.000443 2e-06 -0.002428
-0.000467 -1e-06 -0.002433
-0.00059 6e-06 -0.002417
-0.000615 4e-06 -0.00242
-0.00064 4e-06 -0.00242
0.000905 0.000512 -0.002771
0.000593 4e-06 -0.002379
0.000568 6e-06 -0.002373
0.000544 7e-06 -0.002369
0.000519 8e-06 -0.002367
0.000494 8e-06 -0.002368
0.000469 7e-06 -0.002371
0.000317 0.0006 -0.002678
0.000396 -2e-06 -0.002387
0.000371 -1e-06 -0.002385
0.000346 -1e-06 -0.002385
0.000322 -2e-06 -0.002386
0.000297 -2e-06 -0.002386
0.000272 -2e-06 -0.002387
0.000248 -3e-06 -0.002387
0.000223 -3e-06 -0.002389
0.000198 -3e-06 -0.002389
0.000174 -4e-06 -0.002389
0.000149 -4e-06 -0.00239
0.000258 0.000673 -0.002834
0.001043 0.000451 -0.002808
0.001066 0.000479 -0.002799
0.00181 0.000631 -0.002345
0.001127 0.000715 -0.00274
1e-06 -6e-06 -0.00239
-2.3e-05 -5e-06 -0.002389
-4.8e-05 -5e-06 -0.002388
-0.000142 -2.5e-05 -0.00208
-0.000245 -4e-06 -0.002385
-0.00027 -4e-06 -0.002383
-0.000294 -3e-06 -0.002382
-0.000343 -2e-06 -0.002378
-0.000368 -2e-06 -0.002378
-0.000393 -2e-06 -0.002377
-0.000417 -2e-06 -0.002377
-0.000467 -0.0 -0.002372
-0.000491 1e-06 -0.00237
-0.000565 3e-06 -0.002366
-0.00059 3e-06 -0.002364
-0.000614 3e-06 -0.002364
0.000905 0.000539 -0.002772
0.000593 -2e-06 -0.002332
0.000569 -3e-06 -0.002334
0.000544 -4e-06 -0.002335
0.000519 -4e-06 -0.002337
0.000495 -5e-06 -0.002337
0.00047 -5e-06 -0.002337
0.000446 -5e-06 -0.002337
0.000396 -7e-06 -0.00234
0.000372 -5e-06 -0.002335
0.000347 -4e-06 -0.002333
0.000322 -5e-06 -0.002335
0.000298 -4e-06 -0.002333
0.000249 -3e-06 -0.002329
0.000224 -3e-06 -0.002329
0.000199 -4e-06 -0.002331
0.000175 -4e-06 -0.00233
0.00015 -4e-06 -0.00233
0.000125 -4e-06 -0.00233
0.00029 0.000646 -0.002764
2e-06 -1e-06 -0.002323
-2.2e-05 -4e-06 -0.002328
-0.000117 -2.5e-05 -0.00208
-0.000244 -4e-06 -0.002326
-0.000269 -4e-06 -0.002325
-0.000343 -5e-06 -0.002327
-0.000367 -5e-06 -0.002325
-0.000392 -5e-06 -0.002326
-0.000417 -5e-06 -0.002328
-0.000441 -5e-06 -0.002327
-0.000466 -5e-06 -0.002326
-0.000491 -7e-06 -0.002328
-9.3e-05 -2.5e-05 -0.002081
-0.000564 -5e-06 -0.002324
-0.000589 -4e-06 -0.002322
-0.000614 -4e-06 -0.002319
0.000619 -5e-06 -0.00228
0.000594 -4e-06 -0.002278
0.00057 -5e-06 -0.002279
0.000545 -4e-06 -0.002276
0.00052 -3e-06 -0.002276
0.000496 -4e-06 -0.002276
0.000471 -3e-06 -0.002274
0.000446 -3e-06 -0.002274
0.000422 -2e-06 -0.002271
0.000373 0.0 -0.002266
0.000348 -1e-06 -0.002267
0.000323 -0.0 -0.002265
0.000299 0.0 -0.002265
0.000274 2e-06 -0.002262
0.000249 0.0 -0.002265
0.000225 1e-06 -0.002262
0.0002 1e-06 -0.002262
0.000176 1e-06 -0.002261
0.000151 1e-06 -0.002262
0.000126 1e-06 -0.002261
0.001106 0.000711 -0.002757
0.000768 0.000639 -0.002646
0.000208 0.000582 -0.00293
3e-06 1e-06 -0.00226
-2.1e-05 1e-06 -0.00226
-4.6e-05 1e-06 -0.002259
-0.000219 -0.0 -0.002259
-0.000243 -0.0 -0.002259
-0.000292 -2e-06 -0.002262
-0.000317 -2e-06 -0.002262
-0.000342 -1e-06 -0.00226
-0.000366 -2e-06 -0.002261
-0.000391 -2e-06 -0.00226
-0.000416 -3e-06 -0.002263
-0.00044 -3e-06 -0.002261
-0.000465 -3e-06 -0.002263
-0.00049 -2e-06 -0.002261
-0.000564 -5e-06 -0.002265
-0.000588 -5e-06 -0.002264
0.00062 -0.0 -0.002212
0.000595 0.0 -0.00221
0.000546 1e-06 -0.002208
0.000521 1e-06 -0.002208
0.000497 1e-06 -0.002207
0.000472 2e-06 -0.002204
0.000447 2e-06 -0.002204
0.000423 1e-06 -0.002206
0.001207 0.000745 -0.002107
0.000374 2e-06 -0.002204
0.000349 3e-06 -0.002201
0.000324 2e-06 -0.002203
0.0003 2e-06 -0.002202
0.000275 2e-06 -0.002203
0.00025 2e-06 -0.002202
0.000226 2e-06 -0.002201
0.000201 2e-06 -0.002202
0.000176 1e-06 -0.002202
0.000152 2e-06 -0.002201
0.000127 2e-06 -0.002201
0.000103 1e-06 -0.0022
7.8e-05 1e-06 -0.002202
5.3e-05 2e-06 -0.0022
2.9e-05 2e-06 -0.0022
4e-06 1e-06 -0.002199
-2.1e-05 1e-06 -0.002199
-4.5e-05 1e-06 -0.002198
-7e-05 1e-06 -0.002198
-9.4e-05 2e-06 -0.002197
-0.000119 2e-06 -0.002198
-0.000144 2e-06 -0.002196
-0.000168 2e-06 -0.002197
-0.000193 2e-06 -0.002196
-0.000242 2e-06 -0.002196
-0.000267 2e-06 -0.002196
-0.000292 2e-06 -0.002195
-0.000316 2e-06 -0.002194
-0.000341 2e-06 -0.002195
-0.000365 2e-06 -0.002194
-0.00039 2e-06 -0.002195
-6.8e-05 -2.5e-05 -0.002081
0.000838 0.000519 -0.002713
0.000872 0.000556 -0.002743
0.000938 0.000495 -0.002799
0.000225 0.000566 -0.0029
0.000522 2e-06 -0.002145
0.000498 2e-06 -0.002148
0.000473 1e-06 -0.002149
0.000448 1e-06 -0.002148
0.000424 1e-06 -0.002148
0.00099 0.000705 -0.002801
0.000374 0.0 -0.002149
0.00035 -0.0 -0.00215
0.000325 -1e-06 -0.002151
0.0003 -1e-06 -0.002152
0.000276 -2e-06 -0.002153
0.000251 -2e-06 -0.002153
0.000226 -3e-06 -0.002154
0.000202 -3e-06 -0.002153
0.000177 -3e-06 -0.002153
0.000153 -3e-06 -0.002153
0.000128 -4e-06 -0.002154
0.000103 -4e-06 -0.002154
7.9e-05 -4e-06 -0.002153
5.4e-05 -4e-06 -0.002154
2.9e-05 -5e-06 -0.002155
5e-06 -4e-06 -0.002154
-2e-05 -4e-06 -0.002154
-4.5e-05 -4e-06 -0.002153
-6.9e-05 -4e-06 -0.002153
-9.4e-05 -4e-06 -0.002152
-0.000118 -4e-06 -0.002152
-0.000143 -5e-06 -0.002153
-0.000168 -5e-06 -0.002152
-0.000192 -4e-06 -0.00215
-0.000217 -4e-06 -0.002149
-0.000242 -3e-06 -0.002148
-0.000266 -3e-06 -0.002147
-0.000291 -2e-06 -0.002145
-0.000315 -3e-06 -0.002145
-0.000512 1e-06 -0.002136
-0.000537 2e-06 -0.002134
-0.000562 2e-06 -0.002134
0.000803 0.000592 -0.002681
0.000838 0.000573 -0.002713
0.000768 0.000613 -0.002645
0.001801 0.000749 -0.001673
0.000208 0.00069 -0.002931
0.000225 0.000702 -0.002899
0.000474 -4e-06 -0.002101
0.000449 -5e-06 -0.002104
0.000424 -6e-06 -0.002106
0.001154 0.000492 -0.00269
0.001087 0.000674 -0.002781
0.001109 0.000677 -0.002769
0.000326 -9e-06 -0.00211
0.000301 -1e-05 -0.002111
0.000276 -1e-05 -0.002112
0.000252 -1.1e-05 -0.002113
0.000227 -1.1e-05 -0.002113
0.000202 -1.2e-05 -0.002115
0.000178 -1.3e-05 -0.002116
0.000153 -1.3e-05 -0.002115
0.000128 -1.3e-05 -0.002115
0.000104 -1.3e-05 -0.002115
7.9e-05 -1.3e-05 -0.002116
5.5e-05 -1.4e-05 -0.002116
3e-05 -1.3e-05 -0.002115
5e-06 -1.4e-05 -0.002116
-1.9e-05 -1.4e-05 -0.002116
-4.4e-05 -1.3e-05 -0.002115
-6.9e-05 -1.4e-05 -0.002115
-9.3e-05 -1.3e-05 -0.002114
-0.000118 -1.3e-05 -0.002114
-0.000142 -1.3e-05 -0.002113
-0.000167 -1.3e-05 -0.002112
-0.000192 -1.3e-05 -0.002111
-0.000216 -1.3e-05 -0.002111
-0.000241 -1.2e-05 -0.002109
-0.000266 -1.2e-05 -0.002108
-0.00029 -1.1e-05 -0.002107
-0.000512 -5e-06 -0.002091
-0.000536 -4e-06 -0.002088
-0.000561 -3e-06 -0.002086
0.000194 0.000489 -0.002963
0.000996 0.00045 -0.002823
0.000208 0.000527 -0.002931
0.000442 0.000742 -0.002387
0.000193 0.000543 -0.002962
0.000938 0.000522 -0.0028
0.000341 0.000695 -0.00258
0.001043 0.000532 -0.002808
0.000398 0.000708 -0.002414
0.000341 0.00064 -0.002581
0.002532 0.000695 -0.001344
0.00029 0.000592 -0.002764
0.000362 0.000715 -0.00247
0.000996 0.000477 -0.002823
0.00117 0.000717 -0.002387
0.000252 -2.2e-05 -0.002078
0.000228 -2.2e-05 -0.002079
0.000203 -2.3e-05 -0.00208
0.000178 -2.3e-05 -0.002081
0.000154 -2.4e-05 -0.002081
0.000129 -2.5e-05 -0.002083
0.000104 -2.5e-05 -0.002083
8e-05 -2.5e-05 -0.002083
5.5e-05 -2.5e-05 -0.002083
3e-05 -2.5e-05 -0.002083
6e-06 -2.5e-05 -0.002083
-1.9e-05 -2.6e-05 -0.002083
-4.4e-05 -2.6e-05 -0.002082
0.001735 0.000714 -0.002318
0.001089 0.000425 -0.00279
0.001066 0.000424 -0.002799
0.001043 0.000423 -0.002808
0.00102 0.000423 -0.002816
0.000996 0.000422 -0.002823
0.00097 0.000427 -0.002821
0.000938 0.00044 -0.002799
0.000905 0.000457 -0.002771
0.000872 0.000474 -0.002743
0.000838 0.000492 -0.002712
0.000803 0.000511 -0.00268
0.000768 0.000531 -0.002646
0.000733 0.000551 -0.002609
0.000514 0.000685 -0.002372
0.000489 0.000688 -0.002374
0.000465 0.000689 -0.002379
0.000441 0.000688 -0.002386
0.000419 0.000686 -0.002398
0.000397 0.000681 -0.002413
0.000378 0.000673 -0.002436
0.000362 0.00066 -0.002471
0.000352 0.000636 -0.002526
0.000341 0.000613 -0.002581
0.00033 0.000592 -0.002631
0.000317 0.000573 -0.002678
0.000305 0.000553 -0.002725
0.00029 0.000537 -0.002765
0.000274 0.000523 -0.0028
0.000259 0.000509 -0.002836
0.000243 0.000496 -0.00287
0.000227 0.000484 -0.002901
0.00021 0.000473 -0.002932
0.001121 0.000439 -0.002777
0.001154 0.000697 -0.002174
0.001573 0.000729 -0.002243
0.00181 0.000658 -0.002345
0.002794 0.000594 -0.00076
0.001166 0.000732 -0.002146
0.001529 0.000722 -0.002219
0.002795 0.000702 -0.00076
0.001112 0.000399 -0.002781
0.001089 0.000398 -0.00279
0.001066 0.000397 -0.002799
0.001043 0.000396 -0.002808
0.00102 0.000395 -0.002817
0.000996 0.000395 -0.002824
0.00097 0.0004 -0.002821
0.000938 0.000413 -0.0028
0.000905 0.00043 -0.002772
0.000871 0.000447 -0.002742
0.000838 0.000465 -0.002713
0.000803 0.000484 -0.00268
0.000768 0.000503 -0.002646
0.000732 0.000524 -0.002609
0.000691 0.000555 -0.002552
0.000514 0.000658 -0.002372
0.000489 0.000661 -0.002374
0.000465 0.000662 -0.002379
0.000441 0.000661 -0.002386
0.000419 0.000659 -0.002397
0.000397 0.000654 -0.002413
0.000378 0.000646 -0.002436
0.000362 0.000633 -0.00247
0.000352 0.000609 -0.002526
0.000341 0.000586 -0.002581
0.00033 0.000564 -0.002632
0.000318 0.000545 -0.00268
0.000304 0.000526 -0.002725
0.00029 0.00051 -0.002765
0.000274 0.000496 -0.002801
0.000259 0.000482 -0.002836
0.000243 0.000469 -0.00287
0.000227 0.000457 -0.002902
0.000211 0.000446 -0.002933
0.001322 0.000696 -0.00207
0.001773 0.000618 -0.002332
0.001735 0.000633 -0.002317
0.001866 0.000455 -0.002343
0.001924 0.000459 -0.002296
0.001121 0.000494 -0.002777
0.00112 0.000604 -0.002775
0.001894 0.000625 -0.00232
0.001112 0.000372 -0.002781
0.001089 0.000371 -0.002791
0.001066 0.00037 -0.002799
0.001043 0.000369 -0.002808
0.00102 0.000368 -0.002817
0.000996 0.000368 -0.002823
0.00097 0.000372 -0.002821
0.000938 0.000386 -0.0028
0.000905 0.000403 -0.002772
0.000872 0.00042 -0.002743
0.000838 0.000438 -0.002713
0.000803 0.000457 -0.00268
0.000768 0.000476 -0.002646
0.000733 0.000497 -0.002609
0.000514 0.000631 -0.002371
0.000489 0.000634 -0.002374
0.000464 0.000634 -0.002379
0.000441 0.000634 -0.002386
0.000419 0.000632 -0.002397
0.000397 0.000627 -0.002413
0.000378 0.00062 -0.002435
0.000362 0.000606 -0.00247
0.000352 0.000582 -0.002526
0.000341 0.000559 -0.002581
0.00033 0.000538 -0.002631
0.000318 0.000517 -0.002681
0.000304 0.000499 -0.002725
0.00029 0.000483 -0.002764
0.000274 0.000468 -0.002801
0.000258 0.000454 -0.002836
0.000243 0.000441 -0.00287
0.000226 0.00043 -0.002902
0.00021 0.000418 -0.002932
0.001165 0.00076 -0.002145
0.001477 0.000724 -0.00218
0.001166 0.000739 -0.002334
0.001166 0.000705 -0.002146
0.001906 0.000682 -0.002298
0.001574 0.000593 -0.002244
0.001333 0.00074 -0.002089
0.001098 0.000604 -0.002786
0.00115 0.000643 -0.002726
0.001773 0.000699 -0.002332
0.001089 0.000344 -0.00279
0.001066 0.000343 -0.002799
0.001043 0.000342 -0.002808
0.00102 0.000341 -0.002816
0.000996 0.000341 -0.002823
0.00097 0.000345 -0.002821
0.000938 0.000359 -0.0028
0.000905 0.000375 -0.002772
0.000872 0.000392 -0.002743
0.000838 0.000411 -0.002712
0.000803 0.000429 -0.00268
0.000768 0.000449 -0.002646
0.000732 0.00047 -0.002609
0.000489 0.000607 -0.002373
0.000464 0.000608 -0.002378
0.000441 0.000607 -0.002386
0.000419 0.000605 -0.002397
0.000397 0.0006 -0.002413
0.000378 0.000592 -0.002435
0.000362 0.000578 -0.002471
0.000351 0.000556 -0.002524
0.000341 0.000532 -0.002581
0.00033 0.000511 -0.002631
0.000318 0.000489 -0.002681
0.000304 0.000471 -0.002725
0.00029 0.000455 -0.002765
0.000274 0.000441 -0.0028
0.000259 0.000427 -0.002837
0.000242 0.000415 -0.002869
0.000226 0.000402 -0.002901
0.000209 0.000391 -0.002932
0.000194 0.000379 -0.002964
0.001242 0.000684 -0.002082
0.002488 0.000579 -0.001631
0.002308 0.00073 -0.000826
0.001968 0.000511 -0.002254
0.001221 0.000712 -0.002095
0.0013 0.000751 -0.002083
0.001121 0.000548 -0.002776
0.001154 0.000574 -0.00269
0.001573 0.000675 -0.002243
0.00283 0.000689 -0.000749
0.001089 0.000317 -0.00279
0.001066 0.000316 -0.002799
0.001043 0.000315 -0.002808
0.00102 0.000314 -0.002817
0.000996 0.000314 -0.002823
0.00097 0.000318 -0.00282
0.000938 0.000331 -0.0028
0.000905 0.000348 -0.002773
0.000872 0.000365 -0.002743
0.000838 0.000383 -0.002713
0.000803 0.000402 -0.002679
0.000768 0.000422 -0.002646
0.000732 0.000444 -0.002608
0.00069 0.000475 -0.002549
0.000488 0.000579 -0.002373
0.000464 0.00058 -0.002378
0.000441 0.00058 -0.002385
0.000418 0.000578 -0.002396
0.000397 0.000573 -0.002412
0.000378 0.000565 -0.002436
0.000362 0.000551 -0.002472
0.000351 0.000528 -0.002525
0.000341 0.000504 -0.002582
0.00033 0.000483 -0.002632
0.000318 0.000462 -0.002681
0.000305 0.000444 -0.002727
0.00029 0.000428 -0.002765
0.000274 0.000414 -0.002801
0.000259 0.0004 -0.002837
0.000242 0.000387 -0.002869
0.000225 0.000375 -0.002901
0.000208 0.000364 -0.002931
0.000194 0.000352 -0.002964
0.001866 0.000509 -0.002343
0.002721 0.000675 -0.00078
0.001932 0.000621 -0.002288
0.001905 0.000512 -0.002312
0.001221 0.000685 -0.002094
0.001867 0.000427 -0.002343
0.001148 0.000507 -0.002726
0.001161 0.000532 -0.002654
0.001176 0.000694 -0.002443
0.001773 0.000645 -0.002332
0.001089 0.00029 -0.00279
0.001066 0.000289 -0.002799
0.001043 0.000288 -0.002808
0.001019 0.000287 -0.002816
0.000996 0.000287 -0.002823
0.000969 0.000291 -0.00282
0.000938 0.000304 -0.0028
0.000905 0.000321 -0.002771
0.000871 0.000338 -0.002743
0.000838 0.000356 -0.002713
0.000803 0.000376 -0.002679
0.000768 0.000395 -0.002646
0.000732 0.000416 -0.002608
0.000488 0.000552 -0.002373
0.000464 0.000553 -0.002378
0.000441 0.000553 -0.002385
0.000418 0.00055 -0.002397
0.000397 0.000546 -0.002412
0.000378 0.000538 -0.002436
0.000362 0.000524 -0.002471
0.000351 0.000502 -0.002524
0.000342 0.000476 -0.002582
0.00033 0.000456 -0.002631
0.000318 0.000435 -0.002682
0.000305 0.000417 -0.002726
0.00029 0.000401 -0.002764
0.000274 0.000387 -0.002801
0.000258 0.000373 -0.002836
0.000242 0.00036 -0.002871
0.000225 0.000348 -0.002901
0.000208 0.000336 -0.002932
0.000194 0.000325 -0.002964
0.001322 0.000669 -0.002072
0.001735 0.000579 -0.002317
0.001696 0.000595 -0.002301
0.001148 0.000479 -0.002727
0.001154 0.00052 -0.00269
0.001176 0.000674 -0.002491
0.001171 0.000697 -0.002576
0.001089 0.000262 -0.002791
0.001066 0.000261 -0.0028
0.001043 0.00026 -0.002809
0.00102 0.000259 -0.002817
0.000996 0.00026 -0.002823
0.000969 0.000264 -0.00282
0.000939 0.000277 -0.002801
0.000905 0.000294 -0.002771
0.000872 0.000311 -0.002743
0.000838 0.000329 -0.002713
0.000803 0.000349 -0.002678
0.000768 0.000368 -0.002645
0.000488 0.000525 -0.002373
0.000464 0.000526 -0.002378
0.000441 0.000526 -0.002385
0.000418 0.000523 -0.002397
0.000397 0.000518 -0.002413
0.000378 0.000511 -0.002436
0.000362 0.000497 -0.00247
0.000351 0.000474 -0.002524
0.000342 0.000449 -0.002582
0.00033 0.000429 -0.002632
0.000318 0.000408 -0.002682
0.000305 0.000389 -0.002727
0.00029 0.000374 -0.002764
0.000274 0.00036 -0.0028
0.000259 0.000346 -0.002837
0.000242 0.000332 -0.002871
0.000225 0.00032 -0.002902
0.000208 0.000309 -0.002932
0.000194 0.000298 -0.002964
0.001175 0.00064 -0.002441
0.001574 0.000648 -0.002244
0.001886 0.000538 -0.002327
0.001242 0.000711 -0.002082
0.00181 0.000441 -0.002345
0.001164 0.000632 -0.002331
0.001173 0.000658 -0.002533
0.001735 0.00066 -0.002317
0.001089 0.000235 -0.002791
0.001066 0.000234 -0.0028
0.001043 0.000233 -0.002809
0.00102 0.000232 -0.002817
0.000996 0.000233 -0.002823
0.000969 0.000237 -0.002819
0.000938 0.00025 -0.002801
0.000905 0.000266 -0.002773
0.000871 0.000284 -0.002742
0.000838 0.000302 -0.002713
0.000803 0.000321 -0.002679
0.000768 0.000341 -0.002645
0.000488 0.000498 -0.002373
0.000464 0.000499 -0.002378
0.000441 0.000498 -0.002386
0.000418 0.000496 -0.002397
0.000397 0.000491 -0.002413
0.000378 0.000483 -0.002436
0.000362 0.000469 -0.002471
0.000351 0.000447 -0.002525
0.000341 0.000423 -0.002582
0.00033 0.000401 -0.002633
0.000318 0.000381 -0.002681
0.000305 0.000362 -0.002727
0.00029 0.000347 -0.002765
0.000274 0.000332 -0.002801
0.000259 0.000318 -0.002837
0.000243 0.000305 -0.002871
0.000226 0.000293 -0.002903
0.00021 0.000282 -0.002933
0.000194 0.00027 -0.002965
0.002251 0.000639 -0.001614
0.001169 0.000663 -0.002386
0.001866 0.000536 -0.002342
0.001905 0.000539 -0.002311
0.001615 0.000521 -0.002263
0.002452 0.000619 -0.001632
0.001139 0.000551 -0.002758
0.001138 0.000634 -0.002756
0.002643 0.000704 -0.000796
0.001089 0.000208 -0.00279
0.001066 0.000207 -0.002799
0.001043 0.000206 -0.002808
0.001019 0.000205 -0.002816
0.000995 0.000206 -0.002822
0.000969 0.00021 -0.002819
0.000938 0.000223 -0.002799
0.000905 0.000239 -0.002772
0.000871 0.000257 -0.002742
0.000837 0.000275 -0.002712
0.000802 0.000294 -0.002678
0.000768 0.000314 -0.002645
0.000488 0.000471 -0.002373
0.000464 0.000472 -0.002378
0.000441 0.000471 -0.002386
0.000418 0.000469 -0.002397
0.000397 0.000464 -0.002413
0.000378 0.000456 -0.002436
0.000362 0.000443 -0.00247
0.000352 0.000419 -0.002526
0.000341 0.000395 -0.002581
0.00033 0.000374 -0.002633
0.000318 0.000353 -0.002682
0.000305 0.000335 -0.002727
0.00029 0.000319 -0.002765
0.000274 0.000306 -0.0028
0.000259 0.000291 -0.002837
0.000242 0.000278 -0.002871
0.000226 0.000266 -0.002903
0.000211 0.000254 -0.002935
0.001913 0.000542 -0.002305
0.00153 0.000667 -0.00222
0.001951 0.000655 -0.002073
0.00181 0.000576 -0.002346
0.00195 0.000682 -0.002073
0.002533 0.000505 -0.001344
0.001468 0.00074 -0.002213
0.001774 0.000672 -0.002333
0.001111 0.000183 -0.00278
0.001089 0.000181 -0.00279
0.001066 0.00018 -0.002799
0.001043 0.000179 -0.002808
0.001019 0.000178 -0.002816
0.000995 0.000179 -0.002821
0.000969 0.000184 -0.002818
0.000938 0.000196 -0.002798
0.000905 0.000213 -0.002771
0.000871 0.00023 -0.002742
0.000837 0.000248 -0.002712
0.000802 0.000268 -0.002677
0.000767 0.000287 -0.002644
0.000732 0.000307 -0.002608
0.000488 0.000444 -0.002373
0.000464 0.000445 -0.002378
0.000441 0.000444 -0.002385
0.000418 0.000442 -0.002397
0.000397 0.000437 -0.002413
0.000378 0.000429 -0.002437
0.000362 0.000415 -0.002471
0.000352 0.000392 -0.002526
0.000341 0.000369 -0.002581
0.00033 0.000346 -0.002634
0.000318 0.000326 -0.002682
0.000305 0.000307 -0.002727
0.00029 0.000292 -0.002765
0.000274 0.000278 -0.0028
0.000259 0.000264 -0.002838
0.000242 0.000251 -0.002871
0.000226 0.000239 -0.002903
0.000211 0.000227 -0.002935
0.001201 0.000684 -0.002109
0.00181 0.000549 -0.002345
0.000944 -0.0 0.002002
0.00092 -0.0 0.002009
0.001772 0.000455 -0.002331
0.001886 0.000428 -0.002328
0.001616 0.000683 -0.002265
0.001735 0.000687 -0.002318
0.001111 0.000156 -0.002778
0.001088 0.000154 -0.002789
0.001066 0.000153 -0.002799
0.001042 0.000152 -0.002807
0.001019 0.000152 -0.002814
0.000994 0.000153 -0.002819
0.000968 0.000157 -0.002817
0.000938 0.000169 -0.002798
0.000905 0.000185 -0.002772
0.000871 0.000203 -0.002742
0.000837 0.000221 -0.002712
0.000802 0.000241 -0.002677
0.000767 0.00026 -0.002644
0.000732 0.000281 -0.002607
0.000488 0.000417 -0.002373
0.000464 0.000417 -0.002378
0.000441 0.000417 -0.002385
0.000418 0.000414 -0.002397
0.000397 0.00041 -0.002413
0.000378 0.000402 -0.002436
0.000362 0.000388 -0.00247
0.000352 0.000365 -0.002526
0.000341 0.000341 -0.002582
0.00033 0.000319 -0.002634
0.000318 0.000299 -0.002682
0.000305 0.00028 -0.002728
0.00029 0.000265 -0.002765
0.000274 0.000251 -0.002801
0.000258 0.000237 -0.002837
0.000242 0.000224 -0.002871
0.000226 0.000211 -0.002903
0.000211 0.0002 -0.002935
0.001164 0.000659 -0.002331
0.001655 0.000612 -0.002282
0.002413 0.000578 -0.001629
0.002863 0.000624 -0.000738
0.001165 0.000686 -0.002332
0.001886 0.000456 -0.002327
0.00115 0.000615 -0.002727
0.001696 0.000703 -0.002301
0.00111 0.000131 -0.002774
0.001087 0.000129 -0.002786
0.001065 0.000127 -0.002795
0.001041 0.000127 -0.002803
0.001018 0.000127 -0.00281
0.000993 0.000128 -0.002814
0.000968 0.000131 -0.002814
0.000937 0.000143 -0.002797
0.000905 0.000158 -0.002772
0.000871 0.000175 -0.002743
0.000837 0.000194 -0.002711
0.000802 0.000213 -0.002677
0.000768 0.000232 -0.002646
0.000732 0.000253 -0.002608
0.000488 0.000389 -0.002373
0.000464 0.00039 -0.002378
0.000441 0.00039 -0.002385
0.000418 0.000387 -0.002397
0.000397 0.000383 -0.002413
0.000378 0.000375 -0.002436
0.000362 0.000361 -0.002472
0.000352 0.000337 -0.002527
0.000342 0.000313 -0.002583
0.00033 0.000292 -0.002633
0.000318 0.000272 -0.002681
0.000305 0.000253 -0.002727
0.00029 0.000238 -0.002765
0.000274 0.000224 -0.002801
0.000258 0.000209 -0.002837
0.000242 0.000196 -0.002871
0.000226 0.000184 -0.002903
0.000211 0.000173 -0.002935
0.001098 0.000495 -0.002787
0.001171 0.000615 -0.002576
0.001154 0.000601 -0.00269
0.00116 0.000614 -0.002653
0.001905 0.000484 -0.002312
0.00181 0.000495 -0.002345
0.001174 0.000741 -0.002393
0.001162 0.000696 -0.002653
0.001108 0.000107 -0.002769
0.001086 0.000105 -0.00278
0.001063 0.000103 -0.00279
0.00104 0.000103 -0.002797
0.001016 0.000103 -0.002804
0.000992 0.000104 -0.002808
0.000966 0.000106 -0.002809
0.000937 0.000116 -0.002797
0.000905 0.000131 -0.002771
0.000871 0.000149 -0.002742
0.000837 0.000166 -0.002712
0.000802 0.000186 -0.002677
0.000768 0.000204 -0.002646
0.000732 0.000226 -0.002608
0.000488 0.000362 -0.002373
0.000464 0.000363 -0.002378
0.000441 0.000363 -0.002385
0.000418 0.00036 -0.002397
0.000397 0.000355 -0.002413
0.000378 0.000348 -0.002436
0.000362 0.000333 -0.002472
0.000352 0.00031 -0.002526
0.000342 0.000286 -0.002583
0.000329 0.000266 -0.002631
0.000317 0.000246 -0.002679
0.000305 0.000226 -0.002727
0.00029 0.00021 -0.002766
0.000274 0.000196 -0.002802
0.000259 0.000182 -0.002838
0.000242 0.000169 -0.00287
0.000226 0.000157 -0.002903
0.000211 0.000146 -0.002935
0.002334 0.000634 -0.001623
0.001161 0.000587 -0.002653
0.001966 0.000597 -0.002153
0.002452 0.000591 -0.001632
0.000278 -2.2e-05 -0.002075
0.001154 0.00067 -0.002174
0.001484 0.000744 -0.002192
0.001656 0.000693 -0.002284
0.001106 8.3e-05 -0.002761
0.001083 8.2e-05 -0.002771
0.001061 8e-05 -0.002781
0.001037 8e-05 -0.002789
0.001014 8e-05 -0.002795
0.000989 8.1e-05 -0.0028
0.000964 8.3e-05 -0.002802
0.000937 9e-05 -0.002795
0.000904 0.000105 -0.00277
0.000871 0.000121 -0.002742
0.000837 0.000139 -0.002711
0.000802 0.000159 -0.002678
0.000768 0.000178 -0.002645
0.000731 0.0002 -0.002606
0.000302 -2.2e-05 -0.002069
0.000326 -2.3e-05 -0.002064
0.000488 0.000335 -0.002373
0.000464 0.000336 -0.002378
0.000441 0.000335 -0.002385
0.000418 0.000333 -0.002397
0.000397 0.000328 -0.002413
0.000378 0.00032 -0.002436
0.000362 0.000306 -0.002471
0.000352 0.000283 -0.002527
0.000342 0.000259 -0.002584
0.00033 0.000238 -0.002632
0.000317 0.000219 -0.002679
0.000305 0.000198 -0.002728
0.00029 0.000183 -0.002766
0.000274 0.000169 -0.002802
0.000259 0.000155 -0.002838
0.000242 0.000142 -0.002871
0.000226 0.00013 -0.002904
0.000211 0.000118 -0.002935
0.00181 0.000468 -0.002345
0.001173 0.000631 -0.002533
0.001176 0.000647 -0.002491
0.001773 0.00051 -0.002331
0.00035 -2.4e-05 -0.00206
0.001474 0.000645 -0.002176
0.00117 0.00067 -0.002575
0.001885 0.000619 -0.002326
0.001808 0.000687 -0.002342
0.002532 0.000517 -0.001603
0.001057 5.9e-05 -0.002769
0.001034 5.8e-05 -0.002777
0.00101 5.8e-05 -0.002784
0.000986 5.9e-05 -0.002789
0.000961 6.1e-05 -0.002791
0.000935 6.5e-05 -0.002788
0.000904 7.8e-05 -0.002768
0.000871 9.5e-05 -0.002741
0.000837 0.000113 -0.00271
0.000802 0.000132 -0.002677
0.000767 0.000151 -0.002644
0.000732 0.000172 -0.002608
0.000488 0.000308 -0.002373
0.000464 0.000309 -0.002378
0.000441 0.000308 -0.002386
0.000418 0.000305 -0.002398
0.000397 0.000301 -0.002413
0.000378 0.000293 -0.002436
0.000362 0.000279 -0.002472
0.000352 0.000256 -0.002527
0.000342 0.000232 -0.002583
0.00033 0.000211 -0.002633
0.000317 0.000191 -0.002681
0.000305 0.000171 -0.002727
0.00029 0.000156 -0.002767
0.000274 0.000142 -0.002802
0.000258 0.000128 -0.002837
0.000242 0.000115 -0.002871
0.000226 0.000102 -0.002904
0.001176 0.000538 -0.002492
0.00117 0.00069 -0.002387
0.001098 0.000577 -0.002787
0.001655 0.000531 -0.002282
0.001266 0.000709 -0.002074
0.001866 0.000591 -0.002341
0.001157 0.000683 -0.002691
0.001696 0.000731 -0.002301
0.001153 0.000711 -0.002688
0.001873 0.000628 -0.002334
0.00103 3.8e-05 -0.002762
0.001006 3.8e-05 -0.002768
0.000982 3.9e-05 -0.002774
0.000957 4e-05 -0.002777
0.000931 4.4e-05 -0.002776
0.000903 5.3e-05 -0.002764
0.000871 6.7e-05 -0.002741
0.000836 8.6e-05 -0.002708
0.000802 0.000105 -0.002678
0.000767 0.000124 -0.002643
0.000732 0.000145 -0.002607
0.00069 0.000177 -0.002548
0.000488 0.000281 -0.002373
0.000464 0.000281 -0.002378
0.000441 0.000281 -0.002386
0.000418 0.000278 -0.002397
0.000397 0.000274 -0.002414
0.000378 0.000266 -0.002437
0.000362 0.000252 -0.002472
0.000352 0.000228 -0.002528
0.000341 0.000205 -0.002581
0.00033 0.000184 -0.002633
0.000317 0.000164 -0.00268
0.000305 0.000144 -0.002728
0.00029 0.000128 -0.002767
0.000274 0.000115 -0.002802
0.000258 0.000101 -0.002837
0.000243 8.8e-05 -0.002871
0.000227 7.5e-05 -0.002904
0.001166 0.000492 -0.002616
0.001165 0.000713 -0.002332
0.001121 0.000576 -0.002776
0.001139 0.000578 -0.002758
0.001148 0.000711 -0.00221
0.001166 0.000546 -0.002615
0.001139 0.000523 -0.002759
0.001148 0.000534 -0.002726
0.00177 0.000807 -0.001612
0.001656 0.00072 -0.002284
0.001161 0.000723 -0.002653
0.002293 0.000569 -0.001619
0.001696 0.000649 -0.002301
0.001174 0.000712 -0.002534
0.001 2.1e-05 -0.002748
0.000976 2.1e-05 -0.002754
0.000952 2.3e-05 -0.002758
0.000927 2.5e-05 -0.002759
0.0009 3.1e-05 -0.002753
0.000869 4.2e-05 -0.002736
0.000836 5.9e-05 -0.002709
0.000802 7.7e-05 -0.002677
0.000767 9.6e-05 -0.002645
0.000731 0.000118 -0.002606
0.00069 0.000149 -0.002549
0.000488 0.000253 -0.002373
0.000464 0.000254 -0.002378
0.000441 0.000254 -0.002386
0.000418 0.000251 -0.002397
0.000397 0.000246 -0.002414
0.000378 0.000238 -0.002437
0.000362 0.000225 -0.002472
0.000352 0.000201 -0.002527
0.000341 0.000178 -0.002582
0.000329 0.000157 -0.002632
0.000317 0.000137 -0.00268
0.000305 0.000117 -0.002729
0.00029 0.000102 -0.002766
0.000274 8.8e-05 -0.002802
0.000258 7.4e-05 -0.002837
0.000243 6.1e-05 -0.002869
0.000226 5e-05 -0.002899
0.00117 0.000534 -0.002575
0.001166 0.000601 -0.002615
0.001696 0.000622 -0.002301
0.001735 0.000606 -0.002317
0.001154 0.000724 -0.002174
0.00117 0.000561 -0.002576
0.001166 0.000682 -0.002615
0.001131 1.5e-05 -0.002666
0.001109 1.2e-05 -0.002678
0.001164 0.000739 -0.002611
0.001655 0.000639 -0.002282
0.001574 0.00062 -0.002244
0.001266 0.000682 -0.002074
0.001121 0.000466 -0.002777
0.000968 8e-06 -0.002725
0.000944 9e-06 -0.00273
0.000919 1.1e-05 -0.002733
0.000894 1.4e-05 -0.002732
0.000866 2.1e-05 -0.002724
0.000835 3.4e-05 -0.002705
0.000802 5e-05 -0.002678
0.000767 6.9e-05 -0.002644
0.000732 9e-05 -0.002609
0.000488 0.000226 -0.002373
0.000464 0.000227 -0.002378
0.000441 0.000226 -0.002386
0.000418 0.000224 -0.002398
0.000397 0.000219 -0.002414
0.000378 0.000211 -0.002437
0.000362 0.000197 -0.002473
0.000352 0.000174 -0.002526
0.000341 0.000151 -0.002582
0.000329 0.00013 -0.002632
0.000318 0.000109 -0.002682
0.000305 9e-05 -0.002728
0.00029 7.5e-05 -0.002765
0.000274 6e-05 -0.002802
0.000258 4.7e-05 -0.002835
0.000242 3.6e-05 -0.002866
0.000222 2.7e-05 -0.002888
0.001166 0.000519 -0.002616
0.001615 0.000629 -0.002264
0.001866 0.000564 -0.002342
0.001773 0.000591 -0.002332
0.001166 0.000678 -0.002146
0.001905 0.00043 -0.002312
0.001695 0.000541 -0.0023
0.001143 8e-06 -0.002616
0.00112 7e-06 -0.002625
0.001096 6e-06 -0.002633
0.001074 5e-06 -0.002644
0.001656 0.000666 -0.002283
0.001531 0.000639 -0.002222
0.00153 0.000586 -0.00222
0.001891 0.000653 -0.002318
0.000931 6e-06 -0.002681
0.000907 5e-06 -0.002688
0.000883 6e-06 -0.002693
0.000858 8e-06 -0.002696
0.000831 1.5e-05 -0.002688
0.000801 2.5e-05 -0.002673
0.000767 4.2e-05 -0.002644
0.000732 6.3e-05 -0.002609
0.000374 -2.4e-05 -0.002054
0.000488 0.000199 -0.002373
0.000464 0.0002 -0.002378
0.000441 0.000199 -0.002386
0.000418 0.000197 -0.002398
0.000397 0.000192 -0.002414
0.000378 0.000184 -0.002438
0.000362 0.00017 -0.002472
0.000352 0.000147 -0.002527
0.000341 0.000123 -0.002582
0.00033 0.000102 -0.002632
0.000318 8.1e-05 -0.002683
0.000304 6.3e-05 -0.002727
0.000289 4.8e-05 -0.002764
0.000274 3.4e-05 -0.0028
0.000256 2.4e-05 -0.002828
0.000236 1.6e-05 -0.00285
0.000215 1.2e-05 -0.002865
0.001183 0.000682 -0.002126
0.001166 0.000628 -0.002615
0.001886 0.000564 -0.002328
0.001905 0.000566 -0.002312
0.001695 0.000486 -0.0023
0.001924 0.000432 -0.002296
0.001929 0.000716 -0.001987
0.001129 6e-06 -0.002564
0.001105 6e-06 -0.002571
0.001081 5e-06 -0.002578
0.001058 5e-06 -0.002585
0.00117 0.000608 -0.002387
0.001615 0.000548 -0.002263
0.000398 -2.4e-05 -0.002048
0.001574 0.000566 -0.002244
0.001695 0.000514 -0.0023
0.000916 4e-06 -0.002628
0.000892 4e-06 -0.002634
0.000869 3e-06 -0.002643
0.000845 3e-06 -0.002648
0.000821 4e-06 -0.002654
0.000795 8e-06 -0.002652
0.000765 1.9e-05 -0.002636
0.000732 3.6e-05 -0.002608
0.000422 -2.5e-05 -0.002043
0.000488 0.000172 -0.002374
0.000464 0.000173 -0.002378
0.000441 0.000172 -0.002386
0.000418 0.000169 -0.002398
0.000397 0.000165 -0.002414
0.000378 0.000156 -0.002438
0.000362 0.000143 -0.002472
0.000351 0.00012 -0.002526
0.000341 9.7e-05 -0.002581
0.000329 7.5e-05 -0.002632
0.000317 5.5e-05 -0.002681
0.000304 3.7e-05 -0.002725
0.000288 2.3e-05 -0.00276
0.00027 1.4e-05 -0.002786
0.000249 9e-06 -0.002802
0.000226 7e-06 -0.002812
0.000203 6e-06 -0.002821
0.001266 0.000736 -0.002074
0.001843 0.000538 -0.002352
0.001176 0.000702 -0.002491
0.001139 0.000606 -0.002757
0.001843 0.000484 -0.002352
0.001828 0.000715 -0.002328
0.001161 5e-06 -0.002499
0.001139 2e-06 -0.00251
0.001115 3e-06 -0.002514
0.001091 2e-06 -0.002522
0.001067 3e-06 -0.002528
0.001044 2e-06 -0.002536
0.000446 -2.6e-05 -0.002037
0.00047 -2.6e-05 -0.002031
0.000494 -2.6e-05 -0.002024
0.000782 3e-06 -0.002606
0.000757 6e-06 -0.002607
0.000728 1.5e-05 -0.002595
0.000513 0.000142 -0.002371
0.000488 0.000145 -0.002374
0.000464 0.000145 -0.002378
0.000441 0.000145 -0.002386
0.000418 0.000142 -0.002398
0.000397 0.000138 -0.002414
0.000378 0.000129 -0.002437
0.000362 0.000116 -0.002471
0.000352 9.2e-05 -0.002527
0.000318 2.7e-05 -0.002682
0.000301 1.4e-05 -0.002716
0.000282 6e-06 -0.002738
0.00026 3e-06 -0.002752
0.000237 2e-06 -0.00276
0.000213 3e-06 -0.002766
0.000189 4e-06 -0.00277
0.001616 0.000601 -0.002265
0.001773 0.000564 -0.002332
0.001173 0.000686 -0.002533
0.001175 0.000721 -0.002442
0.001148 0.000561 -0.002726
0.001166 8e-06 -0.002432
0.001147 3e-06 -0.002445
0.001122 4e-06 -0.002449
0.001098 5e-06 -0.002454
0.001075 4e-06 -0.002462
0.00105 5e-06 -0.002466
0.001147 0.000684 -0.00221
0.001003 5e-06 -0.00248
0.000979 5e-06 -0.002486
0.000931 6e-06 -0.002499
0.000908 5e-06 -0.002507
0.000884 5e-06 -0.002512
0.001866 0.000482 -0.002343
