-0.00055 -0.036352 0.002122
-0.000572 -0.036331 0.002058
-0.001116 -0.036266 0.001667
-0.000461 -0.036625 0.002175
-0.000437 -0.036627 0.00218
-0.000412 -0.036629 0.002183
-0.000387 -0.036623 0.002171
-0.000362 -0.036613 0.002151
-0.000337 -0.036602 0.002128
-0.000312 -0.03659 0.002103
-0.000287 -0.036578 0.002077
-0.000262 -0.036564 0.002048
-0.000237 -0.03655 0.002017
-0.000211 -0.036533 0.001983
-0.000186 -0.036517 0.001948
-0.00061 -0.036338 0.001923
-0.000135 -0.036476 0.001861
-0.00011 -0.03645 0.001806
-0.000617 -0.036325 0.001885
-5.8e-05 -0.036391 0.00168
-3.3e-05 -0.036379 0.001656
-8e-06 -0.036373 0.001642
1.6e-05 -0.036369 0.001633
4.1e-05 -0.036367 0.00163
6.6e-05 -0.036366 0.001629
9e-05 -0.036367 0.001631
0.000115 -0.03637 0.001638
0.000139 -0.036375 0.00165
0.000164 -0.036385 0.001671
0.000187 -0.036403 0.001711
0.000235 -0.036452 0.001817
0.000259 -0.03647 0.001856
0.000283 -0.036487 0.001893
0.000307 -0.036503 0.001927
0.000331 -0.036518 0.00196
0.000355 -0.036532 0.00199
0.000379 -0.036543 0.002016
0.000404 -0.036555 0.002042
0.000428 -0.036566 0.002066
0.000452 -0.036578 0.002091
0.000476 -0.036589 0.002116
0.0005 -0.036599 0.002137
0.000525 -0.036607 0.002155
0.000549 -0.036606 0.002154
0.000574 -0.036602 0.002145
0.001308 -0.036366 0.00162
0.000742 -0.036308 0.001699
-0.000538 -0.03636 0.00215
-0.001153 -0.036281 0.001684
-0.000461 -0.036652 0.002175
-0.000437 -0.036654 0.00218
-0.000412 -0.036656 0.002183
-0.000387 -0.03665 0.002172
-0.000362 -0.03664 0.002151
-0.000337 -0.036629 0.002127
-0.000312 -0.036618 0.002104
-0.000287 -0.036605 0.002076
-0.000262 -0.036592 0.002049
-0.000237 -0.036577 0.002018
-0.000211 -0.036562 0.001985
-0.000186 -0.036544 0.001947
-0.000135 -0.036503 0.00186
-0.00011 -0.036477 0.001806
-5.8e-05 -0.036418 0.00168
-3.3e-05 -0.036406 0.001655
-8e-06 -0.0364 0.001641
1.6e-05 -0.036396 0.001633
4.1e-05 -0.036394 0.00163
6.6e-05 -0.036393 0.001629
9e-05 -0.036394 0.001631
0.000115 -0.036397 0.001638
0.000139 -0.036402 0.00165
0.000164 -0.036412 0.001671
0.000235 -0.036479 0.001817
0.000259 -0.036498 0.001857
0.000283 -0.036514 0.001893
0.000307 -0.03653 0.001927
0.000331 -0.036545 0.00196
0.000355 -0.036559 0.00199
0.000379 -0.036571 0.002016
0.000404 -0.036583 0.002042
0.000428 -0.036594 0.002066
0.000452 -0.036605 0.002092
0.000476 -0.036617 0.002116
0.0005 -0.036626 0.002137
0.000525 -0.036634 0.002155
0.000549 -0.036634 0.002154
0.000574 -0.03663 0.002145
0.001276 -0.036355 0.00161
0.000677 -0.036501 0.002064
-0.000623 -0.036309 0.001845
-0.000628 -0.036293 0.001801
-0.001036 -0.036258 0.001624
-0.001077 -0.036249 0.001647
-0.000461 -0.036679 0.002175
-0.000437 -0.036681 0.00218
-0.000412 -0.036683 0.002184
-0.000387 -0.036678 0.002172
-0.000362 -0.036668 0.002152
-0.000337 -0.036656 0.002126
-0.000312 -0.036645 0.002103
-0.000287 -0.036631 0.002075
-0.000262 -0.036618 0.002048
-0.000237 -0.036605 0.002019
-0.000211 -0.036589 0.001985
-0.000186 -0.036571 0.001948
-0.000161 -0.036553 0.001909
-0.000135 -0.03653 0.001861
-0.00011 -0.036505 0.001808
-5.8e-05 -0.036445 0.001679
-3.3e-05 -0.036434 0.001656
-8e-06 -0.036427 0.001641
1.6e-05 -0.036423 0.001633
4.1e-05 -0.036421 0.00163
6.6e-05 -0.03642 0.001629
9e-05 -0.036421 0.001631
0.000115 -0.036424 0.001638
0.000139 -0.03643 0.00165
0.000164 -0.036439 0.001671
0.000211 -0.036487 0.001776
0.000235 -0.036506 0.001817
0.000259 -0.036525 0.001858
0.000283 -0.036542 0.001893
0.000307 -0.036557 0.001927
0.000331 -0.036572 0.00196
0.000355 -0.036586 0.00199
0.000379 -0.036598 0.002016
0.000404 -0.03661 0.002043
0.000428 -0.036621 0.002066
0.000452 -0.036633 0.002092
0.000476 -0.036643 0.002116
0.0005 -0.036653 0.002137
0.000525 -0.036661 0.002155
0.000549 -0.036661 0.002156
0.000574 -0.036657 0.002146
0.000732 -0.036312 0.001844
0.000579 -0.036486 0.002143
-0.000632 -0.036276 0.001758
-0.000517 -0.036363 0.002165
-0.001258 -0.03632 0.001722
-0.000461 -0.036706 0.002174
-0.000436 -0.036708 0.002179
-0.000412 -0.03671 0.002183
-0.000387 -0.036704 0.002171
-0.000362 -0.036695 0.002151
-0.000337 -0.036683 0.002126
-0.000312 -0.036672 0.002103
-0.000287 -0.036659 0.002076
-0.000262 -0.036646 0.002048
-0.000237 -0.036633 0.00202
-0.000211 -0.036615 0.001984
-0.000186 -0.036598 0.001947
-0.000161 -0.03658 0.001909
-0.000135 -0.036557 0.001861
-0.00011 -0.036531 0.001805
-8.4e-05 -0.036494 0.001725
-5.8e-05 -0.036472 0.00168
-3.3e-05 -0.036461 0.001656
-8e-06 -0.036454 0.001641
1.6e-05 -0.03645 0.001633
4.1e-05 -0.036448 0.00163
6.6e-05 -0.036448 0.001629
9e-05 -0.036449 0.001632
0.000115 -0.036451 0.001638
0.000139 -0.036457 0.00165
0.000164 -0.036467 0.001672
0.000188 -0.036484 0.00171
0.000211 -0.036514 0.001774
0.000235 -0.036534 0.001818
0.000259 -0.036552 0.001857
0.000283 -0.036569 0.001893
0.000307 -0.036584 0.001927
0.000331 -0.036599 0.00196
0.000355 -0.036613 0.00199
0.000379 -0.036625 0.002017
0.000404 -0.036637 0.002042
0.000428 -0.036648 0.002067
0.000452 -0.03666 0.002092
0.000476 -0.03667 0.002115
0.000501 -0.03668 0.002137
0.000525 -0.036688 0.002155
0.000549 -0.036687 0.002153
0.000574 -0.036684 0.002145
0.000738 -0.036295 0.001801
0.001309 -0.036475 0.00162
-0.001115 -0.036293 0.001666
-0.001153 -0.036308 0.001683
-0.001472 -0.036385 0.001652
-0.001325 -0.036343 0.001742
-0.000461 -0.036734 0.002175
-0.000436 -0.036736 0.00218
-0.000412 -0.036738 0.002184
-0.000387 -0.036731 0.002171
-0.000362 -0.036721 0.00215
-0.000337 -0.03671 0.002126
-0.000312 -0.036699 0.002103
-0.000287 -0.036686 0.002075
-0.000262 -0.036673 0.002048
-0.000237 -0.03666 0.00202
-0.000211 -0.036643 0.001985
-0.000186 -0.036626 0.001948
-0.000161 -0.036607 0.001909
-0.000135 -0.036584 0.00186
-0.00011 -0.036559 0.001805
-8.4e-05 -0.036522 0.001727
-5.8e-05 -0.0365 0.00168
-3.3e-05 -0.036488 0.001656
-8e-06 -0.036481 0.001642
1.6e-05 -0.036478 0.001634
4.1e-05 -0.036476 0.00163
6.6e-05 -0.036475 0.00163
9e-05 -0.036476 0.001632
0.000115 -0.036479 0.001638
0.000139 -0.036484 0.001651
0.000164 -0.036494 0.001672
0.000188 -0.036511 0.00171
0.000211 -0.036539 0.00177
0.000235 -0.036561 0.001817
0.000259 -0.036579 0.001858
0.000283 -0.036596 0.001893
0.000307 -0.036612 0.001928
0.000331 -0.036627 0.00196
0.000355 -0.03664 0.001989
0.000379 -0.036652 0.002016
0.000404 -0.036664 0.002043
0.000428 -0.036676 0.002067
0.000452 -0.036687 0.002092
0.000476 -0.036698 0.002116
0.000501 -0.036707 0.002136
0.000525 -0.036715 0.002155
0.00055 -0.036714 0.002152
0.000574 -0.03671 0.002144
0.001095 -0.036255 0.001525
0.000726 -0.036278 0.001504
-0.000492 -0.036385 0.002169
-0.001293 -0.03636 0.001733
-0.001986 -0.036344 0.000928
-0.000486 -0.036759 0.002171
-0.000461 -0.036761 0.002175
-0.000436 -0.036763 0.00218
-0.000412 -0.036765 0.002184
-0.000387 -0.036759 0.002172
-0.000362 -0.036748 0.002149
-0.000337 -0.036737 0.002127
-0.000312 -0.036726 0.002103
-0.000287 -0.036713 0.002075
-0.000262 -0.0367 0.002048
-0.000237 -0.036686 0.002018
-0.000211 -0.036669 0.001983
-0.000186 -0.036653 0.001948
-0.000161 -0.036634 0.001908
-0.000135 -0.036612 0.00186
-5.8e-05 -0.036527 0.00168
-3.3e-05 -0.036515 0.001655
-8e-06 -0.036509 0.001642
1.6e-05 -0.036505 0.001634
4.1e-05 -0.036503 0.00163
6.6e-05 -0.036502 0.001629
9e-05 -0.036503 0.001632
0.000115 -0.036506 0.001639
0.000139 -0.036512 0.001651
0.000164 -0.036521 0.001671
0.000188 -0.036539 0.001711
0.000211 -0.036567 0.001772
0.000235 -0.036588 0.001818
0.000259 -0.036607 0.001857
0.000283 -0.036623 0.001893
0.000307 -0.036639 0.001927
0.000331 -0.036654 0.00196
0.000355 -0.036667 0.001989
0.000379 -0.036679 0.002016
0.000404 -0.036692 0.002043
0.000428 -0.036703 0.002067
0.000452 -0.036714 0.002092
0.000476 -0.036725 0.002115
0.000501 -0.036735 0.002137
0.000525 -0.036742 0.002154
0.00055 -0.036742 0.002152
0.000574 -0.036738 0.002145
0.001308 -0.036339 0.00162
0.000754 -0.036261 0.00145
-0.000632 -0.036207 0.001655
-0.001224 -0.036336 0.001711
-0.00061 -0.036256 0.001922
-0.000486 -0.036786 0.00217
-0.000461 -0.036788 0.002175
-0.000436 -0.03679 0.00218
-0.000412 -0.036792 0.002184
-0.000387 -0.036786 0.002172
-0.000362 -0.036776 0.00215
-0.000337 -0.036764 0.002126
-0.000312 -0.036753 0.002103
-0.000287 -0.03674 0.002075
-0.000262 -0.036727 0.002048
-0.000237 -0.036713 0.002018
-0.000211 -0.036697 0.001984
-0.000186 -0.03668 0.001948
-0.000161 -0.036661 0.001908
-0.000135 -0.036639 0.00186
-0.00011 -0.036613 0.001806
-5.8e-05 -0.036554 0.001679
-3.3e-05 -0.036542 0.001655
-8e-06 -0.036535 0.001641
1.6e-05 -0.036532 0.001634
4.1e-05 -0.03653 0.00163
6.6e-05 -0.036529 0.00163
9e-05 -0.03653 0.001632
0.000115 -0.036533 0.001638
0.000139 -0.036539 0.001651
0.000164 -0.036548 0.00167
0.000188 -0.036566 0.00171
0.000235 -0.036615 0.001818
0.000259 -0.036634 0.001857
0.000283 -0.03665 0.001893
0.000307 -0.036666 0.001928
0.000331 -0.036681 0.001959
0.000355 -0.036695 0.00199
0.000379 -0.036707 0.002016
0.000404 -0.036719 0.002043
0.000428 -0.03673 0.002067
0.000452 -0.036741 0.002092
0.000476 -0.036752 0.002115
0.000501 -0.036762 0.002137
0.000525 -0.03677 0.002155
0.000549 -0.036769 0.002153
0.000574 -0.036765 0.002145
0.001207 -0.036302 0.001583
0.000924 -0.036277 0.001403
-0.000636 -0.036231 0.001713
-0.000626 -0.03618 0.001592
-0.000617 -0.036243 0.001884
-0.000486 -0.036813 0.00217
-0.000461 -0.036816 0.002176
-0.000436 -0.036818 0.00218
-0.000412 -0.036819 0.002184
-0.000387 -0.036813 0.002171
-0.000362 -0.036803 0.00215
-0.000337 -0.036791 0.002126
-0.000312 -0.03678 0.002102
-0.000287 -0.036767 0.002074
-0.000262 -0.036754 0.002047
-0.000236 -0.03674 0.002017
-0.000211 -0.036724 0.001984
-0.000186 -0.036707 0.001948
-0.000161 -0.036689 0.001909
-5.8e-05 -0.036581 0.00168
-3.3e-05 -0.036569 0.001655
-8e-06 -0.036563 0.001641
1.6e-05 -0.036559 0.001633
4.1e-05 -0.036557 0.00163
6.6e-05 -0.036556 0.001629
9e-05 -0.036557 0.001632
0.000115 -0.03656 0.001639
0.000139 -0.036566 0.001651
0.000164 -0.036575 0.001671
0.000211 -0.036622 0.001772
0.000235 -0.036642 0.001817
0.000259 -0.036661 0.001857
0.000283 -0.036677 0.001893
0.000307 -0.036693 0.001928
0.000331 -0.036708 0.00196
0.000355 -0.036722 0.00199
0.000379 -0.036734 0.002017
0.000404 -0.036746 0.002044
0.000428 -0.036757 0.002066
0.000452 -0.036768 0.002092
0.000476 -0.036779 0.002115
0.000501 -0.036789 0.002137
0.000525 -0.036797 0.002154
0.00055 -0.036796 0.002152
0.001308 -0.036284 0.001619
0.000665 -0.036457 0.002095
0.000665 -0.036484 0.002095
-0.000635 -0.036258 0.001712
-0.000518 -0.03639 0.002165
-0.000632 -0.036194 0.001757
-0.000486 -0.036841 0.00217
-0.000461 -0.036843 0.002176
-0.000436 -0.036845 0.00218
-0.000412 -0.036846 0.002184
-0.000387 -0.03684 0.002171
-0.000362 -0.03683 0.002149
-0.000337 -0.036819 0.002127
-0.000312 -0.036807 0.002103
-0.000287 -0.036794 0.002075
-0.000262 -0.036781 0.002047
-0.000236 -0.036767 0.002017
-0.000211 -0.036751 0.001983
-0.000186 -0.036735 0.001948
-0.000161 -0.036716 0.001908
-0.000135 -0.036693 0.00186
-5.8e-05 -0.036608 0.001679
-3.3e-05 -0.036597 0.001655
-8e-06 -0.03659 0.001641
1.7e-05 -0.036586 0.001634
4.1e-05 -0.036584 0.00163
6.6e-05 -0.036583 0.001629
9e-05 -0.036584 0.001631
0.000115 -0.036587 0.001638
0.000139 -0.036593 0.001651
0.000164 -0.036602 0.001672
0.000211 -0.036649 0.001773
0.000235 -0.03667 0.001818
0.000259 -0.036688 0.001858
0.000283 -0.036704 0.001893
0.000307 -0.03672 0.001928
0.000331 -0.036736 0.001961
0.000355 -0.036749 0.00199
0.000379 -0.036762 0.002017
0.000404 -0.036773 0.002043
0.000428 -0.036784 0.002066
0.000452 -0.036795 0.002091
0.000476 -0.036806 0.002115
0.000501 -0.036816 0.002137
0.000525 -0.036824 0.002154
0.000549 -0.036824 0.002153
0.001341 -0.036296 0.001631
0.000688 -0.036435 0.002031
0.000892 -0.036294 0.001395
-0.001382 -0.036411 0.001743
-0.001402 -0.036409 0.001728
-0.000629 -0.036212 0.001803
-0.000486 -0.036867 0.002169
-0.000461 -0.036869 0.002174
-0.000436 -0.036871 0.002179
-0.000412 -0.036873 0.002183
-0.000387 -0.036867 0.002171
-0.000362 -0.036857 0.002149
-0.000337 -0.036846 0.002126
-0.000312 -0.036835 0.002103
-0.000287 -0.036822 0.002076
-0.000262 -0.036808 0.002047
-0.000236 -0.036794 0.002017
-0.000211 -0.036778 0.001982
-0.000186 -0.036761 0.001947
-0.000161 -0.036743 0.001908
-0.000135 -0.036721 0.001861
-5.8e-05 -0.036635 0.001678
-3.3e-05 -0.036624 0.001655
-8e-06 -0.036617 0.001642
1.7e-05 -0.036613 0.001633
4.1e-05 -0.036611 0.00163
6.6e-05 -0.036611 0.001629
9e-05 -0.036612 0.001631
0.000115 -0.036614 0.001638
0.000139 -0.03662 0.001651
0.000164 -0.03663 0.001672
0.000188 -0.036648 0.001712
0.000211 -0.036676 0.001773
0.000235 -0.036697 0.001817
0.000259 -0.036716 0.001858
0.000283 -0.036731 0.001893
0.000307 -0.036747 0.001927
0.000331 -0.036763 0.001961
0.000355 -0.036776 0.00199
0.00038 -0.036789 0.002017
0.000404 -0.0368 0.002042
0.000428 -0.036811 0.002067
0.000452 -0.036822 0.002091
0.000476 -0.036833 0.002115
0.000501 -0.036843 0.002136
0.000525 -0.036851 0.002154
0.00055 -0.03685 0.002153
0.000574 -0.036847 0.002145
0.001207 -0.036329 0.001583
0.001407 -0.036481 0.001651
-0.000633 -0.036235 0.001657
-0.000617 -0.03627 0.001885
-0.00119 -0.036323 0.0017
-0.000614 -0.036212 0.001878
-0.000486 -0.036894 0.002169
-0.000461 -0.036897 0.002175
-0.000436 -0.036899 0.00218
-0.000412 -0.0369 0.002183
-0.000387 -0.036895 0.002171
-0.000362 -0.036884 0.002149
-0.000337 -0.036873 0.002127
-0.000312 -0.036862 0.002102
-0.000287 -0.036849 0.002076
-0.000262 -0.036835 0.002046
-0.000236 -0.036821 0.002016
-0.000211 -0.036805 0.001983
-0.000186 -0.036788 0.001947
-0.000161 -0.03677 0.001909
-5.8e-05 -0.036662 0.001678
-3.3e-05 -0.036651 0.001655
-8e-06 -0.036644 0.001642
1.7e-05 -0.03664 0.001634
4.1e-05 -0.036639 0.00163
6.6e-05 -0.036638 0.001629
9.1e-05 -0.036639 0.001631
0.000115 -0.036642 0.001638
0.000139 -0.036647 0.001651
0.000164 -0.036657 0.001671
0.000188 -0.036675 0.001711
0.000211 -0.036703 0.001773
0.000235 -0.036724 0.001818
0.000259 -0.036743 0.001858
0.000283 -0.036759 0.001894
0.000307 -0.036775 0.001928
0.000331 -0.03679 0.00196
0.000355 -0.036804 0.00199
0.00038 -0.036816 0.002018
0.000404 -0.036827 0.002042
0.000428 -0.036838 0.002066
0.000452 -0.03685 0.002091
0.000476 -0.03686 0.002115
0.000501 -0.03687 0.002136
0.000525 -0.036878 0.002154
0.00055 -0.036877 0.002152
0.000574 -0.036874 0.002144
0.001342 -0.036351 0.001631
0.000688 -0.036462 0.002031
-0.001357 -0.036435 0.001748
-0.001441 -0.036351 0.001696
-0.00051 -0.03692 0.002165
-0.000485 -0.036922 0.00217
-0.000461 -0.036924 0.002175
-0.000436 -0.036926 0.00218
-0.000412 -0.036928 0.002183
-0.000387 -0.036922 0.002171
-0.000362 -0.036911 0.002149
-0.000337 -0.0369 0.002127
-0.000312 -0.036889 0.002102
-0.000287 -0.036876 0.002075
-0.000262 -0.036862 0.002046
-0.000236 -0.036848 0.002015
-0.000211 -0.036833 0.001984
-0.000186 -0.036815 0.001946
-0.000161 -0.036797 0.001908
-5.8e-05 -0.036689 0.001678
-3.3e-05 -0.036678 0.001655
-8e-06 -0.036671 0.001641
1.7e-05 -0.036668 0.001633
4.1e-05 -0.036666 0.00163
6.6e-05 -0.036665 0.001629
9.1e-05 -0.036666 0.001631
0.000115 -0.036669 0.001638
0.000139 -0.036674 0.00165
0.000164 -0.036684 0.001671
0.000188 -0.036701 0.00171
0.000211 -0.036731 0.001773
0.000235 -0.036752 0.001819
0.000259 -0.03677 0.001857
0.000283 -0.036786 0.001893
0.000307 -0.036803 0.00193
0.000331 -0.036816 0.001958
0.000355 -0.036831 0.001992
0.00038 -0.036843 0.002017
0.000404 -0.036854 0.002042
0.000428 -0.036865 0.002066
0.000452 -0.036877 0.002092
0.000476 -0.036888 0.002115
0.000501 -0.036897 0.002136
0.000525 -0.036905 0.002154
0.00055 -0.036905 0.002152
0.000574 -0.036901 0.002145
0.001056 -0.036236 0.001501
0.000924 -0.036223 0.001403
-0.000572 -0.036358 0.002058
-0.001259 -0.036348 0.001723
-0.00051 -0.036947 0.002165
-0.000485 -0.036949 0.00217
-0.000461 -0.036951 0.002175
-0.000436 -0.036953 0.00218
-0.000412 -0.036955 0.002184
-0.000387 -0.036949 0.002171
-0.000362 -0.036939 0.00215
-0.000337 -0.036928 0.002128
-0.000312 -0.036916 0.002102
-0.000287 -0.036904 0.002076
-0.000262 -0.03689 0.002047
-0.000236 -0.036876 0.002017
-0.000211 -0.03686 0.001984
-0.000186 -0.036843 0.001947
-0.000161 -0.036824 0.001907
-0.000135 -0.036802 0.00186
-3.3e-05 -0.036705 0.001655
-8e-06 -0.036698 0.001641
1.7e-05 -0.036694 0.001633
4.1e-05 -0.036693 0.00163
6.6e-05 -0.036692 0.001629
9.1e-05 -0.036693 0.001631
0.000115 -0.036696 0.001638
0.00014 -0.036702 0.001651
0.000164 -0.036711 0.00167
0.000188 -0.036729 0.00171
0.000211 -0.036757 0.001772
0.000235 -0.036779 0.001819
0.000259 -0.036797 0.001858
0.000283 -0.036814 0.001894
0.000307 -0.036829 0.001928
0.000331 -0.036844 0.001959
0.000355 -0.036858 0.001991
0.00038 -0.03687 0.002017
0.000404 -0.036882 0.002043
0.000428 -0.036893 0.002067
0.000452 -0.036904 0.002091
0.000476 -0.036915 0.002115
0.000501 -0.036924 0.002136
0.000525 -0.036932 0.002154
0.00055 -0.036932 0.002152
0.000574 -0.036928 0.002144
0.001342 -0.036378 0.001632
0.000967 -0.036326 0.001433
-0.000626 -0.036207 0.001593
-0.000582 -0.036347 0.002025
-0.000601 -0.036269 0.001957
-0.000485 -0.036976 0.00217
-0.000461 -0.036978 0.002175
-0.000436 -0.03698 0.002179
-0.000412 -0.036982 0.002183
-0.000387 -0.036976 0.002171
-0.000362 -0.036966 0.002149
-0.000337 -0.036955 0.002127
-0.000312 -0.036943 0.002103
-0.000287 -0.036931 0.002076
-0.000262 -0.036917 0.002047
-0.000236 -0.036903 0.002017
-0.000211 -0.036887 0.001983
-0.000186 -0.036869 0.001946
-0.000161 -0.036851 0.001907
-0.000135 -0.036828 0.001859
-0.00011 -0.036803 0.001805
-3.3e-05 -0.036732 0.001655
-8e-06 -0.036726 0.001641
1.7e-05 -0.036722 0.001633
4.1e-05 -0.03672 0.001629
6.6e-05 -0.036719 0.001629
9.1e-05 -0.03672 0.001631
0.000115 -0.036723 0.001637
0.00014 -0.036729 0.00165
0.000164 -0.036737 0.001669
0.000188 -0.036756 0.00171
0.000211 -0.036784 0.001771
0.000235 -0.036806 0.001818
0.000259 -0.036824 0.001858
0.000283 -0.036841 0.001893
0.000307 -0.036856 0.001928
0.000331 -0.036871 0.001959
0.000355 -0.036885 0.00199
0.00038 -0.036897 0.002016
0.000404 -0.036908 0.002042
0.000428 -0.03692 0.002067
0.000452 -0.036931 0.002092
0.000476 -0.036942 0.002115
0.000501 -0.036951 0.002136
0.000525 -0.03696 0.002155
0.00055 -0.03696 0.002154
0.000574 -0.036955 0.002145
0.001015 -0.036217 0.001475
0.001134 -0.036353 0.001547
-0.000618 -0.036298 0.001886
-0.001465 -0.036389 0.001677
-0.000485 -0.037003 0.00217
-0.000461 -0.037006 0.002175
-0.000436 -0.037008 0.00218
-0.000412 -0.037009 0.002184
-0.000387 -0.037003 0.002171
-0.000362 -0.036993 0.00215
-0.000337 -0.036982 0.002127
-0.000312 -0.036971 0.002103
-0.000287 -0.036958 0.002076
-0.000261 -0.036944 0.002047
-0.000236 -0.03693 0.002017
-0.000211 -0.036914 0.001983
-0.000186 -0.036897 0.001947
-0.000161 -0.036878 0.001907
-0.000135 -0.036855 0.001857
-0.000109 -0.036828 0.001801
-5.8e-05 -0.03677 0.001677
-3.3e-05 -0.036759 0.001654
-8e-06 -0.036753 0.001641
1.7e-05 -0.036749 0.001632
4.1e-05 -0.036747 0.001629
6.6e-05 -0.036746 0.001629
9.1e-05 -0.036747 0.00163
0.000115 -0.03675 0.001637
0.00014 -0.036756 0.00165
0.000164 -0.036765 0.00167
0.000188 -0.036782 0.001708
0.000235 -0.036833 0.001818
0.000259 -0.036852 0.001859
0.000283 -0.036868 0.001893
0.000307 -0.036883 0.001928
0.000331 -0.036898 0.001959
0.000355 -0.036912 0.00199
0.00038 -0.036924 0.002016
0.000404 -0.036935 0.002041
0.000428 -0.036947 0.002067
0.000452 -0.036959 0.002092
0.000476 -0.036969 0.002115
0.000501 -0.036978 0.002135
0.000525 -0.036987 0.002154
0.00055 -0.036987 0.002153
0.000574 -0.036982 0.002145
0.000718 -0.036343 0.001926
0.001207 -0.036438 0.001583
-0.000623 -0.036282 0.001844
-0.000628 -0.036266 0.001802
-0.002054 -0.036433 0.000855
-0.001225 -0.036309 0.001712
-0.001036 -0.036176 0.001624
-0.000601 -0.036296 0.001957
-0.000412 -0.037036 0.002184
-0.000387 -0.03703 0.002171
-0.000362 -0.03702 0.00215
-0.000337 -0.037009 0.002126
-0.000312 -0.036998 0.002103
-0.000287 -0.036985 0.002075
-0.000261 -0.036971 0.002047
-0.000236 -0.036957 0.002017
-0.000211 -0.036941 0.001982
-0.000186 -0.036924 0.001946
-0.000161 -0.036906 0.001908
-0.000135 -0.036882 0.001858
-0.000837 -0.036203 0.001466
-5.8e-05 -0.036798 0.001678
-3.3e-05 -0.036786 0.001654
-8e-06 -0.03678 0.001641
1.7e-05 -0.036776 0.001632
4.1e-05 -0.036774 0.001629
6.6e-05 -0.036773 0.001628
9.1e-05 -0.036774 0.00163
0.000115 -0.036777 0.001637
0.00014 -0.036783 0.00165
0.000164 -0.036792 0.001669
0.000211 -0.036839 0.001772
0.000235 -0.03686 0.001818
0.000259 -0.036879 0.001858
0.000283 -0.036895 0.001893
0.000307 -0.036911 0.001928
0.000331 -0.036926 0.001961
0.000355 -0.036939 0.00199
0.00038 -0.036951 0.002016
0.000404 -0.036963 0.002043
0.000428 -0.036975 0.002068
0.000452 -0.036986 0.002091
0.000477 -0.036996 0.002115
0.000501 -0.037006 0.002135
0.000525 -0.037014 0.002154
0.00055 -0.037014 0.002153
0.000574 -0.03701 0.002145
0.00065 -0.03641 0.00212
0.000864 -0.036261 0.001394
-0.000944 -0.036265 0.001559
-0.000632 -0.036249 0.001758
-0.00119 -0.036295 0.001699
-0.001441 -0.036405 0.001696
-0.001421 -0.036407 0.001712
-0.000387 -0.037057 0.002171
-0.000362 -0.037047 0.00215
-0.000337 -0.037036 0.002126
-0.000312 -0.037025 0.002102
-0.000287 -0.037012 0.002075
-0.000261 -0.036999 0.002047
-0.000236 -0.036984 0.002016
-0.000211 -0.036968 0.001983
-0.000186 -0.036951 0.001946
-0.00016 -0.036933 0.001907
-0.000135 -0.03691 0.001858
-0.000993 -0.036291 0.001596
-5.8e-05 -0.036825 0.001677
-3.3e-05 -0.036813 0.001654
-8e-06 -0.036807 0.00164
1.7e-05 -0.036803 0.001632
4.1e-05 -0.036801 0.001629
6.6e-05 -0.0368 0.001628
9.1e-05 -0.036801 0.00163
0.000115 -0.036804 0.001637
0.00014 -0.036809 0.001649
0.000164 -0.036819 0.00167
0.000188 -0.036837 0.001709
0.000211 -0.036866 0.001771
0.000235 -0.036888 0.001818
0.000259 -0.036905 0.001857
0.000283 -0.036922 0.001894
0.000307 -0.036938 0.001928
0.000331 -0.036953 0.00196
0.000356 -0.036966 0.00199
0.00038 -0.036978 0.002016
0.000404 -0.03699 0.002043
0.000428 -0.037002 0.002067
0.000452 -0.037012 0.002091
0.000477 -0.037024 0.002115
0.000501 -0.037033 0.002135
0.000525 -0.037042 0.002155
0.00055 -0.037041 0.002154
0.000574 -0.037037 0.002145
0.000599 -0.037034 0.002138
0.000725 -0.036437 0.001886
-0.001037 -0.036313 0.001625
-0.001325 -0.036397 0.001741
-0.001356 -0.036407 0.001747
-0.000362 -0.037074 0.002149
-0.000337 -0.037063 0.002126
-0.000312 -0.037052 0.002102
-0.000287 -0.037039 0.002076
-0.000261 -0.037026 0.002047
-0.000236 -0.037011 0.002016
-0.000211 -0.036995 0.001982
-0.000186 -0.036978 0.001946
-0.00016 -0.036959 0.001906
-0.000135 -0.036937 0.00186
-5.8e-05 -0.036852 0.001677
-3.3e-05 -0.03684 0.001654
-8e-06 -0.036834 0.00164
1.7e-05 -0.03683 0.001632
4.1e-05 -0.036828 0.001629
6.6e-05 -0.036828 0.001628
9.1e-05 -0.036828 0.00163
0.000115 -0.036831 0.001636
0.00014 -0.036837 0.001649
0.000164 -0.036846 0.00167
0.000188 -0.036864 0.001709
0.000211 -0.036893 0.001772
0.000235 -0.036914 0.001818
0.000259 -0.036933 0.001858
0.000283 -0.03695 0.001894
0.000307 -0.036965 0.001928
0.000331 -0.03698 0.001961
0.000356 -0.036993 0.001989
0.00038 -0.037005 0.002016
0.000404 -0.037018 0.002042
0.000428 -0.037029 0.002067
0.000452 -0.03704 0.002091
0.000477 -0.037051 0.002115
0.000501 -0.03706 0.002135
0.000525 -0.037068 0.002154
0.00055 -0.037068 0.002154
0.000574 -0.037064 0.002146
0.000599 -0.037061 0.002139
0.000688 -0.03649 0.002031
-0.001077 -0.036331 0.001647
-0.000362 -0.037101 0.002149
-0.000337 -0.037091 0.002127
-0.000312 -0.037079 0.002102
-0.000287 -0.037066 0.002075
-0.000261 -0.037053 0.002047
-0.000236 -0.037038 0.002016
-0.000211 -0.037022 0.001982
-0.000186 -0.037005 0.001945
-0.00016 -0.036987 0.001907
-0.000135 -0.036964 0.001858
-0.000109 -0.036937 0.001802
-0.001115 -0.036347 0.001666
-5.8e-05 -0.036879 0.001678
-3.3e-05 -0.036868 0.001654
-8e-06 -0.036861 0.001639
1.7e-05 -0.036857 0.001632
4.1e-05 -0.036855 0.001628
6.6e-05 -0.036855 0.001628
9.1e-05 -0.036855 0.00163
0.000115 -0.036858 0.001636
0.00014 -0.036864 0.001649
0.000164 -0.036873 0.001669
0.000188 -0.036891 0.001708
0.000211 -0.036921 0.001773
0.000235 -0.036942 0.001818
0.000259 -0.03696 0.001857
0.000283 -0.036977 0.001894
0.000307 -0.036993 0.001929
0.000331 -0.037008 0.001961
0.000356 -0.037021 0.001989
0.00038 -0.037033 0.002016
0.000404 -0.037045 0.002042
0.000428 -0.037056 0.002066
0.000452 -0.037067 0.00209
0.000477 -0.037077 0.002114
0.000501 -0.037087 0.002134
0.000525 -0.037096 0.002154
0.00055 -0.037095 0.002154
0.000575 -0.037092 0.002147
0.000599 -0.037088 0.00214
0.000624 -0.037085 0.002132
-0.001678 -0.036259 0.00096
-0.000623 -0.036255 0.001845
-0.000362 -0.037125 0.002141
-0.000337 -0.037118 0.002126
-0.000312 -0.037106 0.002102
-0.000286 -0.037093 0.002075
-0.000261 -0.03708 0.002047
-0.000236 -0.037066 0.002017
-0.000211 -0.037049 0.001982
-0.000186 -0.037032 0.001945
-0.00016 -0.037014 0.001907
-0.001153 -0.036362 0.001683
-5.8e-05 -0.036906 0.001677
-3.3e-05 -0.036895 0.001654
-8e-06 -0.036888 0.00164
1.7e-05 -0.036884 0.001632
4.1e-05 -0.036882 0.001629
6.6e-05 -0.036882 0.001628
9.1e-05 -0.036883 0.00163
0.000115 -0.036886 0.001637
0.00014 -0.036891 0.001649
0.000164 -0.0369 0.001669
0.000211 -0.036949 0.001774
0.000235 -0.036969 0.001819
0.000259 -0.036987 0.001857
0.000283 -0.037004 0.001894
0.000307 -0.03702 0.001929
0.000331 -0.037035 0.001961
0.000356 -0.037048 0.00199
0.00038 -0.03706 0.002017
0.000404 -0.037072 0.002042
0.000428 -0.037083 0.002066
0.000452 -0.037094 0.002091
0.000477 -0.037104 0.002113
0.000501 -0.037113 0.002131
0.000525 -0.037121 0.00215
0.00055 -0.037119 0.002146
0.000575 -0.037116 0.00214
0.000599 -0.037115 0.002139
0.000624 -0.037112 0.002132
-0.000632 -0.036221 0.001757
-0.000533 -0.037123 0.002077
-0.000509 -0.037122 0.002072
-0.000484 -0.037122 0.002075
-0.000459 -0.037122 0.002074
-0.000628 -0.036239 0.001802
-0.001441 -0.036432 0.001697
-0.000311 -0.037124 0.002082
-0.000286 -0.037119 0.002072
-0.000261 -0.037107 0.002047
-0.000236 -0.037093 0.002017
-0.000211 -0.037077 0.001982
-0.000186 -0.037059 0.001945
-0.00016 -0.037041 0.001907
-0.000135 -0.037018 0.001858
-0.000109 -0.036992 0.001803
-5.8e-05 -0.036933 0.001677
-3.3e-05 -0.036922 0.001653
-8e-06 -0.036915 0.001639
1.7e-05 -0.036911 0.001632
4.2e-05 -0.03691 0.001628
6.6e-05 -0.036909 0.001628
9.1e-05 -0.03691 0.00163
0.000115 -0.036913 0.001637
0.00014 -0.036918 0.001649
0.000164 -0.036927 0.001669
0.000212 -0.036975 0.001772
0.000235 -0.036996 0.001819
0.000259 -0.037014 0.001857
0.000283 -0.037031 0.001894
0.000307 -0.037047 0.001928
0.000331 -0.037062 0.00196
0.000356 -0.037075 0.00199
0.00038 -0.037087 0.002016
0.000404 -0.037099 0.002043
0.000428 -0.037111 0.002068
0.000452 -0.03712 0.002087
0.000502 -0.037123 0.002095
0.000526 -0.037124 0.002098
-0.001189 -0.036377 0.001699
-0.001224 -0.03639 0.001711
-0.001258 -0.036402 0.001722
-0.000557 -0.037128 0.002026
-0.000532 -0.037123 0.002017
-0.000507 -0.037122 0.002015
-0.000483 -0.037122 0.002016
-0.000458 -0.037122 0.002017
-0.000433 -0.037122 0.002017
-0.001421 -0.03638 0.001712
-0.000592 -0.036308 0.001992
-0.000359 -0.037121 0.002017
-0.000335 -0.037121 0.002016
-0.00031 -0.037121 0.002017
-0.000261 -0.037125 0.002027
-0.000236 -0.037118 0.002013
-0.000211 -0.037104 0.001983
-0.000186 -0.037087 0.001946
-0.00016 -0.037068 0.001907
-0.000135 -0.037045 0.001858
-0.000109 -0.037018 0.001801
-5.8e-05 -0.03696 0.001677
-3.3e-05 -0.036949 0.001654
-8e-06 -0.036942 0.001639
1.7e-05 -0.036938 0.001631
4.2e-05 -0.036937 0.001628
6.6e-05 -0.036936 0.001628
9.1e-05 -0.036937 0.00163
0.000115 -0.03694 0.001636
0.00014 -0.036945 0.001648
0.000164 -0.036954 0.001668
0.000212 -0.037002 0.001772
0.000235 -0.037023 0.001818
0.000259 -0.037041 0.001857
0.000283 -0.037057 0.001892
0.000307 -0.037074 0.001928
0.000331 -0.037089 0.00196
0.000356 -0.037103 0.001991
0.00038 -0.037116 0.00202
0.000404 -0.037125 0.002039
0.000429 -0.037129 0.002049
0.000478 -0.037122 0.002035
0.000503 -0.037122 0.002034
0.001242 -0.03637 0.001597
0.001342 -0.036405 0.001631
0.001015 -0.036272 0.001475
0.000601 -0.037122 0.002037
0.000626 -0.037122 0.002037
-0.000555 -0.037124 0.00196
-0.000531 -0.037122 0.001957
-0.000506 -0.037122 0.001957
-0.000481 -0.037122 0.001957
-0.000457 -0.037121 0.001957
-0.000432 -0.037122 0.001958
-0.000408 -0.037122 0.00196
-0.000383 -0.037121 0.001959
-0.000358 -0.037122 0.00196
-0.000334 -0.037122 0.00196
-0.000309 -0.037122 0.00196
-0.000284 -0.037121 0.001959
-0.00026 -0.037122 0.001961
-0.000235 -0.037123 0.001965
-0.000211 -0.037123 0.001966
-0.000186 -0.037113 0.001944
-0.00016 -0.037096 0.001908
-0.000135 -0.037072 0.001857
-0.000109 -0.037045 0.0018
-8.3e-05 -0.037009 0.001724
-5.8e-05 -0.036987 0.001677
-3.3e-05 -0.036976 0.001653
-8e-06 -0.036969 0.001639
1.7e-05 -0.036966 0.001632
4.2e-05 -0.036964 0.001628
6.6e-05 -0.036963 0.001627
9.1e-05 -0.036964 0.001629
0.000115 -0.036967 0.001636
0.00014 -0.036972 0.001648
0.000164 -0.036981 0.001668
0.000188 -0.036999 0.001707
0.000235 -0.03705 0.001818
0.000259 -0.037068 0.001855
0.000332 -0.037116 0.00196
0.000356 -0.037124 0.001978
0.000718 -0.036189 0.001817
0.000479 -0.037122 0.001974
0.000504 -0.037121 0.001975
0.000528 -0.037121 0.001975
0.000553 -0.037121 0.001977
0.000578 -0.037122 0.001977
0.000602 -0.037121 0.001976
0.000627 -0.037122 0.00198
-0.000604 -0.037126 0.001906
-0.000579 -0.037123 0.001899
-0.000554 -0.037121 0.001895
-0.00053 -0.037121 0.001897
-0.000505 -0.037121 0.001896
-0.00048 -0.037121 0.001897
-0.000456 -0.037121 0.001898
-0.000431 -0.037121 0.001898
-0.000407 -0.037121 0.001899
-0.000382 -0.037121 0.001899
-0.000357 -0.037121 0.0019
-0.000333 -0.037122 0.001902
-0.000308 -0.037122 0.001902
-0.000283 -0.037121 0.001901
-0.000259 -0.037121 0.001901
-0.000234 -0.037122 0.001903
-0.000185 -0.037125 0.001911
-0.00016 -0.03712 0.001902
-0.000135 -0.0371 0.001859
-0.000109 -0.037073 0.0018
-8.3e-05 -0.037038 0.001727
-5.8e-05 -0.037014 0.001676
-3.3e-05 -0.037003 0.001652
-8e-06 -0.036996 0.001639
1.7e-05 -0.036993 0.001631
4.2e-05 -0.036991 0.001628
6.6e-05 -0.03699 0.001627
9.1e-05 -0.036991 0.001629
0.000115 -0.036994 0.001636
0.00014 -0.036999 0.001648
0.000164 -0.037008 0.001668
0.000188 -0.037026 0.001707
0.000212 -0.037055 0.00177
0.000235 -0.037078 0.001818
0.000259 -0.037095 0.001855
0.001134 -0.036408 0.001546
0.001095 -0.036391 0.001525
0.000738 -0.036295 0.001473
0.000727 -0.036305 0.001505
0.00048 -0.037121 0.001916
0.000505 -0.037121 0.001917
0.000529 -0.037121 0.001917
0.000554 -0.037121 0.001918
0.000579 -0.037121 0.001918
0.000603 -0.037121 0.001919
0.000628 -0.03712 0.001916
-0.000603 -0.03713 0.001855
-0.000578 -0.037123 0.001841
-0.000553 -0.037121 0.001838
-0.000529 -0.037121 0.001839
-0.000504 -0.037121 0.001839
-0.000479 -0.037121 0.00184
-0.000455 -0.037121 0.00184
-0.00043 -0.037121 0.001841
-0.000406 -0.037121 0.001841
-0.000381 -0.037121 0.001842
-0.000356 -0.037121 0.001842
-0.000332 -0.037121 0.00184
-0.000307 -0.037121 0.001842
-0.000282 -0.037122 0.001845
-0.000258 -0.037122 0.001846
-0.000233 -0.037122 0.001846
-0.000209 -0.037122 0.001846
-0.000184 -0.037122 0.001848
-0.000159 -0.037124 0.001852
-0.000135 -0.037122 0.001847
-0.000109 -0.0371 0.001801
-8.3e-05 -0.037065 0.001727
-5.8e-05 -0.037042 0.001677
-3.3e-05 -0.03703 0.001652
-8e-06 -0.037024 0.001639
1.7e-05 -0.03702 0.001631
4.2e-05 -0.037018 0.001628
6.6e-05 -0.037018 0.001627
9.1e-05 -0.037018 0.001629
0.000115 -0.037021 0.001636
0.00014 -0.037026 0.001648
0.000164 -0.037035 0.001667
0.000188 -0.037054 0.001708
0.000212 -0.037082 0.001769
0.000235 -0.037105 0.001818
0.00026 -0.03712 0.00185
0.000699 -0.03645 0.001997
0.000739 -0.036241 0.001474
0.000699 -0.036478 0.001997
0.001309 -0.03642 0.00162
0.000965 -0.03627 0.00143
0.00065 -0.036465 0.002121
0.00065 -0.036356 0.002121
0.000457 -0.037121 0.001858
0.000481 -0.037121 0.001858
0.000506 -0.037121 0.001859
0.00053 -0.037122 0.00186
0.000555 -0.037122 0.00186
0.00058 -0.037121 0.00186
0.000604 -0.037121 0.001861
0.000629 -0.037121 0.001861
-0.000626 -0.037126 0.001787
-0.000602 -0.037123 0.001783
-0.000577 -0.037121 0.001778
-0.000552 -0.037121 0.00178
-0.000528 -0.037122 0.001781
-0.000503 -0.037122 0.001782
-0.000478 -0.037122 0.001783
-0.000454 -0.037122 0.001782
-0.000429 -0.037122 0.001784
-0.000405 -0.037122 0.001785
-0.00038 -0.037123 0.001786
-0.000355 -0.037123 0.001788
-0.000331 -0.037124 0.00179
-0.000306 -0.037124 0.00179
-0.000281 -0.037124 0.00179
-0.000257 -0.037124 0.001792
-0.000232 -0.037124 0.001793
-0.000208 -0.037124 0.001793
-0.000183 -0.037125 0.001794
-0.000158 -0.037125 0.001795
-0.000134 -0.037126 0.001799
-0.000109 -0.037124 0.001793
-5.8e-05 -0.037069 0.001677
-3.3e-05 -0.037058 0.001653
-8e-06 -0.037051 0.001639
1.7e-05 -0.037047 0.001631
4.2e-05 -0.037045 0.001627
6.6e-05 -0.037045 0.001627
9.1e-05 -0.037045 0.001629
0.000115 -0.037048 0.001636
0.00014 -0.037053 0.001647
0.000164 -0.037063 0.001668
0.000212 -0.037113 0.001777
0.000236 -0.037124 0.001801
0.00026 -0.037124 0.001802
0.000285 -0.037123 0.0018
0.00031 -0.037123 0.0018
0.001467 -0.036334 0.00166
0.001437 -0.036327 0.001657
0.000579 -0.036405 0.002143
0.000408 -0.037122 0.001801
0.000433 -0.037122 0.0018
0.000458 -0.037122 0.0018
0.000482 -0.037121 0.001799
0.000507 -0.037121 0.0018
0.000531 -0.037122 0.001802
0.000556 -0.037121 0.001801
0.000581 -0.037121 0.001802
0.000579 -0.036324 0.002144
0.000603 -0.03657 0.002136
-0.000623 -0.037123 0.001731
-0.000601 -0.037124 0.001726
-0.000576 -0.037123 0.001725
-0.000551 -0.037124 0.001726
-0.000527 -0.037124 0.001727
-0.000502 -0.037125 0.00173
-0.000478 -0.037125 0.001732
-0.000453 -0.037126 0.001734
-0.000428 -0.037127 0.001736
-0.000404 -0.037128 0.001738
-0.000379 -0.037129 0.001741
-0.000355 -0.037129 0.001743
-0.00033 -0.03713 0.001745
-0.000305 -0.037131 0.001747
-0.000281 -0.037132 0.001749
-0.000256 -0.037133 0.001751
-0.000232 -0.037133 0.001753
-0.000207 -0.037133 0.001754
-0.000182 -0.037134 0.001755
-0.000158 -0.037134 0.001757
-0.000133 -0.037135 0.001758
-0.000108 -0.037135 0.00176
-5.8e-05 -0.037095 0.001676
-3.3e-05 -0.037085 0.001653
-8e-06 -0.037078 0.001639
1.7e-05 -0.037074 0.001631
4.2e-05 -0.037072 0.001628
6.6e-05 -0.037072 0.001627
9.1e-05 -0.037072 0.001629
0.000115 -0.037075 0.001636
0.00014 -0.037081 0.001648
0.000212 -0.037131 0.001758
0.000237 -0.037131 0.001758
0.000261 -0.03713 0.001756
0.000286 -0.037129 0.001755
0.000311 -0.037128 0.001753
0.000335 -0.037128 0.001752
0.00065 -0.036329 0.002121
0.000385 -0.037126 0.00175
0.000409 -0.037126 0.001749
0.000434 -0.037125 0.001747
0.000458 -0.037124 0.001746
0.000483 -0.037124 0.001746
0.000508 -0.037123 0.001746
0.000532 -0.037124 0.001748
0.000557 -0.037122 0.001745
0.000582 -0.037122 0.001746
0.000738 -0.0362 0.001638
0.001207 -0.036357 0.001583
-0.000624 -0.037129 0.001678
-0.0006 -0.037129 0.001679
-0.000575 -0.03713 0.001681
-0.000551 -0.037132 0.001685
-0.000526 -0.037133 0.001688
-0.000501 -0.037134 0.001692
-0.000477 -0.037136 0.001696
-0.000452 -0.037137 0.001699
-0.000428 -0.037138 0.001702
-0.000403 -0.03714 0.001705
-0.000379 -0.037141 0.001708
-0.000354 -0.037142 0.001711
-0.000329 -0.037143 0.001713
-0.000305 -0.037144 0.001716
-0.00028 -0.037145 0.001718
-0.000256 -0.037145 0.00172
-0.000231 -0.037146 0.001722
-0.000206 -0.037147 0.001724
-0.000182 -0.037147 0.001726
-0.000157 -0.037148 0.001727
-0.000133 -0.037148 0.001729
-0.000108 -0.037148 0.00173
-5.8e-05 -0.037123 0.001677
-3.3e-05 -0.037112 0.001653
-8e-06 -0.037105 0.001639
1.7e-05 -0.037101 0.001631
4.2e-05 -0.037099 0.001628
6.6e-05 -0.037099 0.001627
9.1e-05 -0.0371 0.001629
0.000115 -0.037102 0.001635
0.00014 -0.037108 0.001648
0.000188 -0.037139 0.001716
0.000212 -0.037144 0.001726
0.000237 -0.037143 0.001726
0.000262 -0.037142 0.001724
0.000286 -0.037141 0.001722
0.000311 -0.03714 0.00172
0.000336 -0.037139 0.001719
0.00036 -0.037138 0.001717
0.000385 -0.037137 0.001714
0.00041 -0.037135 0.001712
0.000435 -0.037134 0.001709
0.000459 -0.037132 0.001706
0.000484 -0.037131 0.001704
0.000509 -0.037129 0.001701
0.000533 -0.037128 0.001698
0.000558 -0.037127 0.001696
0.000583 -0.037126 0.001695
0.001407 -0.036373 0.001652
0.001133 -0.036325 0.001545
-0.000623 -0.037138 0.001641
-0.000599 -0.037141 0.001645
-0.000575 -0.037142 0.00165
-0.00055 -0.037144 0.001653
-0.000525 -0.037146 0.001658
-0.000501 -0.037147 0.001662
-0.000476 -0.037149 0.001665
-0.000452 -0.03715 0.001669
-0.000427 -0.037152 0.001673
-0.000403 -0.037153 0.001676
-0.000378 -0.037155 0.001679
-0.000353 -0.037156 0.001682
-0.000329 -0.037157 0.001685
-0.000304 -0.037158 0.001688
-0.00028 -0.037159 0.00169
-0.000255 -0.03716 0.001693
-0.00023 -0.037161 0.001695
-0.000206 -0.037161 0.001697
-0.000181 -0.037162 0.001699
-0.000157 -0.037162 0.0017
-0.000132 -0.037163 0.001702
-0.000107 -0.037163 0.001703
-8.3e-05 -0.037162 0.001702
-5.8e-05 -0.037151 0.001677
-3.3e-05 -0.037139 0.001653
-8e-06 -0.037132 0.001639
1.7e-05 -0.037129 0.001631
4.2e-05 -0.037127 0.001628
6.6e-05 -0.037126 0.001627
9.1e-05 -0.037127 0.001629
0.000115 -0.03713 0.001635
0.00014 -0.037135 0.001649
0.000164 -0.037145 0.00167
0.000188 -0.037157 0.001695
0.000213 -0.037158 0.001699
0.000238 -0.037157 0.001697
0.000262 -0.037156 0.001696
0.000287 -0.037155 0.001694
0.000312 -0.037154 0.001691
0.000336 -0.037153 0.001689
0.000361 -0.037151 0.001687
0.000386 -0.03715 0.001684
0.00041 -0.037148 0.001681
0.000435 -0.037147 0.001678
0.00046 -0.037145 0.001675
0.000484 -0.037143 0.001672
0.000509 -0.037141 0.001669
0.000534 -0.03714 0.001665
0.000603 -0.036326 0.002137
0.001487 -0.036332 0.001645
0.001407 -0.036399 0.001651
0.001438 -0.036517 0.001658
-0.001037 -0.036285 0.001625
-0.000994 -0.03621 0.001597
-0.001357 -0.036326 0.001748
-0.001189 -0.036267 0.001697
-0.001461 -0.036322 0.001681
-0.001072 -0.03619 0.001638
-0.000476 -0.037164 0.001639
-0.000451 -0.037166 0.001643
-0.000427 -0.037167 0.001647
-0.000402 -0.037169 0.001651
-0.000378 -0.037171 0.001655
-0.000353 -0.037172 0.001658
-0.000328 -0.037173 0.001662
-0.000304 -0.037174 0.001665
-0.000279 -0.037176 0.001668
-0.000255 -0.037176 0.00167
-0.00023 -0.037177 0.001673
-0.000205 -0.037178 0.001675
-0.000181 -0.037179 0.001677
-0.000156 -0.037179 0.001679
-0.000132 -0.03718 0.00168
-0.000107 -0.03718 0.001682
-8.2e-05 -0.03718 0.001682
-5.8e-05 -0.037176 0.001674
-3.3e-05 -0.037166 0.001653
-8e-06 -0.03716 0.001639
1.7e-05 -0.037156 0.001631
4.2e-05 -0.037154 0.001627
6.6e-05 -0.037153 0.001627
9.1e-05 -0.037154 0.001629
0.000116 -0.037157 0.001635
0.00014 -0.037163 0.001648
0.000164 -0.037171 0.001668
0.000189 -0.037175 0.001676
0.000213 -0.037175 0.001676
0.000238 -0.037174 0.001674
0.000263 -0.037172 0.001672
0.000287 -0.037171 0.00167
0.000312 -0.03717 0.001667
0.000337 -0.037168 0.001664
0.000361 -0.037166 0.001661
0.000386 -0.037165 0.001658
0.000411 -0.037163 0.001654
0.000436 -0.037161 0.001651
0.00046 -0.037159 0.001647
0.000485 -0.037157 0.001643
0.00051 -0.037155 0.001639
0.000534 -0.037153 0.001636
0.001095 -0.0362 0.001524
0.000603 -0.036407 0.002136
0.000726 -0.036383 0.001888
0.001134 -0.03638 0.001546
-0.00061 -0.036311 0.001922
-0.001036 -0.036231 0.001624
-0.001153 -0.036254 0.001683
-0.001402 -0.036328 0.001727
-0.000601 -0.036173 0.001856
-0.000618 -0.036168 0.001834
-0.000576 -0.03617 0.001861
-0.00144 -0.036323 0.001695
-0.000426 -0.037185 0.001626
-0.000402 -0.037187 0.001631
-0.000377 -0.037188 0.001635
-0.000353 -0.03719 0.001639
-0.000328 -0.037191 0.001642
-0.000304 -0.037192 0.001646
-0.000279 -0.037194 0.001649
-0.000254 -0.037195 0.001652
-0.00023 -0.037196 0.001654
-0.000205 -0.037197 0.001657
-0.000181 -0.037197 0.001659
-0.000156 -0.037198 0.001661
-0.000131 -0.037199 0.001662
-0.000107 -0.037199 0.001663
-8.2e-05 -0.037199 0.001664
-5.7e-05 -0.037199 0.001664
-3.3e-05 -0.037193 0.001653
-8e-06 -0.037187 0.001639
1.7e-05 -0.037183 0.001631
4.2e-05 -0.037181 0.001628
6.6e-05 -0.03718 0.001627
9.1e-05 -0.037181 0.001629
0.000116 -0.037184 0.001635
0.00014 -0.03719 0.001649
0.000164 -0.037194 0.001659
0.000189 -0.037194 0.001659
0.000214 -0.037193 0.001657
0.000238 -0.037192 0.001655
0.000263 -0.03719 0.001652
0.000288 -0.037189 0.001649
0.000312 -0.037187 0.001646
0.000337 -0.037185 0.001643
0.000362 -0.037183 0.001639
0.000627 -0.036328 0.00213
0.000411 -0.03718 0.001632
0.000436 -0.037178 0.001628
0.000461 -0.037175 0.001624
0.000485 -0.037173 0.001619
0.00051 -0.037171 0.001615
0.000665 -0.036321 0.002095
0.001132 -0.036216 0.001544
0.000699 -0.03637 0.001998
0.000699 -0.036423 0.001997
0.000718 -0.036424 0.001925
-0.001461 -0.036403 0.001681
-0.001325 -0.03637 0.001741
-0.001919 -0.03643 0.000943
-0.001326 -0.036317 0.001744
-0.001259 -0.036293 0.001722
-0.001382 -0.03633 0.001743
-0.001225 -0.036281 0.001712
-0.001421 -0.036325 0.001712
-0.000426 -0.037203 0.001608
-0.000402 -0.037205 0.001613
-0.000377 -0.037207 0.001618
-0.000352 -0.037209 0.001622
-0.000328 -0.037211 0.001625
-0.000303 -0.037212 0.001629
-0.000279 -0.037213 0.001632
-0.000254 -0.037214 0.001635
-0.000229 -0.037216 0.001638
-0.000205 -0.037216 0.001641
-0.00018 -0.037217 0.001643
-0.000156 -0.037218 0.001645
-0.000131 -0.037219 0.001647
-0.000106 -0.037219 0.001648
-8.2e-05 -0.037219 0.001649
-5.7e-05 -0.037219 0.00165
-3.2e-05 -0.037218 0.001648
-8e-06 -0.037214 0.001639
1.7e-05 -0.03721 0.001631
4.2e-05 -0.037208 0.001628
6.6e-05 -0.037208 0.001627
9.1e-05 -0.037208 0.001629
0.000116 -0.037211 0.001636
0.00014 -0.037215 0.001644
0.000165 -0.037215 0.001645
0.000189 -0.037214 0.001643
0.000214 -0.037212 0.00164
0.000239 -0.037211 0.001638
0.000263 -0.03721 0.001635
0.000288 -0.037208 0.001632
0.000313 -0.037206 0.001629
0.000337 -0.037204 0.001625
0.000362 -0.037202 0.001622
0.000732 -0.036231 0.001845
0.000725 -0.036247 0.001886
0.000718 -0.036262 0.001926
0.0007 -0.036289 0.001999
0.001056 -0.036182 0.001501
0.001241 -0.036261 0.001596
0.001207 -0.036248 0.001582
0.00117 -0.036233 0.001565
0.000688 -0.036381 0.002031
0.000737 -0.036349 0.0018
0.001505 -0.036437 0.001627
-0.001115 -0.03632 0.001666
-0.000591 -0.03628 0.001991
-0.000596 -0.036216 0.001898
-0.001116 -0.036238 0.001666
-0.001036 -0.036203 0.001624
-0.000628 -0.036184 0.001801
-0.000623 -0.0362 0.001843
-0.001077 -0.036222 0.001647
-0.000426 -0.037224 0.001593
-0.000401 -0.037226 0.001599
-0.000377 -0.037228 0.001603
-0.000352 -0.03723 0.001607
-0.000328 -0.037231 0.001612
-0.000303 -0.037233 0.001616
-0.000278 -0.037234 0.001619
-0.000254 -0.037236 0.001622
-0.000229 -0.037237 0.001625
-0.000205 -0.037238 0.001628
-0.00018 -0.037238 0.00163
-0.000155 -0.037239 0.001632
-0.000131 -0.03724 0.001634
-0.000106 -0.03724 0.001635
-8.2e-05 -0.037241 0.001637
-5.7e-05 -0.037241 0.001637
-3.2e-05 -0.037241 0.001638
-8e-06 -0.03724 0.001636
1.7e-05 -0.037237 0.001631
4.2e-05 -0.037235 0.001628
6.6e-05 -0.037235 0.001628
9.1e-05 -0.037236 0.001629
0.000116 -0.037237 0.001633
0.00014 -0.037237 0.001633
0.000165 -0.037236 0.001632
0.00019 -0.037235 0.001629
0.000214 -0.037233 0.001627
0.000239 -0.037232 0.001625
0.000264 -0.03723 0.001622
0.000288 -0.037229 0.001618
0.000313 -0.037227 0.001615
0.000338 -0.037224 0.00161
0.000741 -0.036221 0.001753
0.000732 -0.036258 0.001845
0.000718 -0.036289 0.001926
0.000688 -0.036327 0.002032
0.000677 -0.036338 0.002065
0.001438 -0.036354 0.001658
0.001133 -0.036244 0.001545
0.000738 -0.036268 0.001801
0.00071 -0.03633 0.001964
0.000718 -0.036316 0.001926
0.000627 -0.036464 0.00213
0.001241 -0.036451 0.001596
-0.000592 -0.036335 0.001992
-0.001402 -0.036382 0.001728
-0.001382 -0.036384 0.001743
-0.001357 -0.03638 0.001748
-0.001383 -0.036357 0.001744
-0.001402 -0.036355 0.001728
-0.001357 -0.036353 0.001748
-0.001422 -0.036353 0.001713
-0.000426 -0.037245 0.001581
-0.000401 -0.037247 0.001586
-0.000376 -0.037249 0.001591
-0.000352 -0.037251 0.001596
-0.000327 -0.037253 0.0016
-0.000303 -0.037255 0.001604
-0.000278 -0.037256 0.001608
-0.000254 -0.037258 0.001611
-0.000229 -0.037259 0.001614
-0.000204 -0.03726 0.001617
-0.00018 -0.037261 0.00162
-0.000155 -0.037262 0.001622
-0.000131 -0.037262 0.001624
-0.000106 -0.037263 0.001625
-8.1e-05 -0.037263 0.001626
-5.7e-05 -0.037263 0.001627
-3.2e-05 -0.037263 0.001628
-7e-06 -0.037263 0.001628
1.7e-05 -0.037263 0.001628
4.2e-05 -0.037262 0.001627
6.6e-05 -0.037262 0.001627
9.1e-05 -0.037261 0.001626
0.000116 -0.03726 0.001625
0.00014 -0.037259 0.001623
0.000165 -0.037258 0.001621
0.00019 -0.037257 0.001619
0.000214 -0.037255 0.001616
0.000239 -0.037254 0.001613
0.000264 -0.037252 0.00161
0.000289 -0.03725 0.001606
0.000313 -0.037249 0.001603
0.000338 -0.037246 0.001598
0.001095 -0.036227 0.001525
0.001241 -0.036288 0.001596
0.001207 -0.036275 0.001583
0.001171 -0.03626 0.001565
0.001056 -0.036209 0.001501
0.000627 -0.036436 0.002129
0.00065 -0.036437 0.00212
0.000579 -0.036432 0.002144
0.001505 -0.036383 0.001627
0.001438 -0.036381 0.001658
0.000677 -0.036447 0.002064
0.001057 -0.036374 0.001503
-0.001293 -0.036414 0.001733
-0.00061 -0.036284 0.001922
-0.000636 -0.036204 0.001713
-0.000993 -0.036237 0.001597
-0.001402 -0.036437 0.001729
-0.001077 -0.036276 0.001647
-0.001422 -0.036435 0.001713
-0.001461 -0.03643 0.001682
-0.001446 -0.036305 0.001486
-0.000561 -0.036369 0.002091
-0.000401 -0.03727 0.001577
-0.000376 -0.037273 0.001584
-0.000352 -0.037275 0.001588
-0.000327 -0.037276 0.001592
-0.000303 -0.037278 0.001596
-0.000278 -0.03728 0.0016
-0.000253 -0.037281 0.001603
-0.000229 -0.037282 0.001607
-0.000204 -0.037283 0.001609
-0.00018 -0.037284 0.001612
-0.000155 -0.037285 0.001614
-0.00013 -0.037286 0.001616
-0.000106 -0.037286 0.001618
-8.1e-05 -0.037287 0.001619
-5.7e-05 -0.037287 0.00162
-3.2e-05 -0.037287 0.00162
-7e-06 -0.037287 0.001621
1.7e-05 -0.037287 0.001621
4.2e-05 -0.037286 0.00162
6.7e-05 -0.037286 0.00162
9.1e-05 -0.037285 0.001618
0.000116 -0.037284 0.001617
0.000141 -0.037283 0.001615
0.000165 -0.037282 0.001613
0.00019 -0.037281 0.001611
0.000215 -0.037279 0.001608
0.000239 -0.037277 0.001605
0.000264 -0.037276 0.001602
0.000289 -0.037274 0.001598
0.000313 -0.037272 0.001594
0.000338 -0.037269 0.001589
0.000718 -0.036479 0.001925
0.000738 -0.036267 0.001472
0.000699 -0.036505 0.001997
0.001207 -0.036411 0.001582
0.001487 -0.036495 0.001645
0.000742 -0.036362 0.001699
0.001309 -0.036448 0.00162
0.000924 -0.036305 0.001404
0.000892 -0.036267 0.001394
0.000741 -0.036389 0.001698
0.00065 -0.036546 0.00212
0.000773 -0.036285 0.001432
-0.001421 -0.036462 0.001712
-0.001402 -0.036464 0.001728
-0.001382 -0.036466 0.001743
-0.001357 -0.036462 0.001748
-0.001325 -0.036452 0.001741
-0.001293 -0.036441 0.001734
-0.001258 -0.036429 0.001722
-0.001224 -0.036417 0.001711
-0.00119 -0.036404 0.001699
-0.001153 -0.036389 0.001683
-0.001115 -0.036374 0.001665
-0.001076 -0.036357 0.001646
-0.001036 -0.036339 0.001624
-0.000993 -0.036318 0.001596
-0.000838 -0.03623 0.001467
-0.000803 -0.036218 0.001455
-0.000632 -0.036219 0.001553
-0.000626 -0.036234 0.001593
-0.000633 -0.036263 0.001658
-0.000636 -0.036286 0.001713
-0.000632 -0.036303 0.001758
-0.000627 -0.03632 0.001801
-0.000623 -0.036336 0.001844
-0.000617 -0.036352 0.001885
-0.00061 -0.036366 0.001923
-0.000601 -0.036378 0.001957
-0.000592 -0.03639 0.001992
-0.000582 -0.036402 0.002026
-0.000572 -0.036412 0.002059
-0.000562 -0.036424 0.002092
-0.00055 -0.036434 0.002122
-0.000538 -0.036442 0.00215
-0.000518 -0.036444 0.002165
-0.000492 -0.03644 0.002169
-0.001351 -0.036253 0.001216
-0.001953 -0.03636 0.000936
-0.001441 -0.036486 0.001696
-0.001421 -0.036489 0.001712
-0.001402 -0.036491 0.001728
-0.001382 -0.036493 0.001743
-0.001356 -0.036489 0.001747
-0.001325 -0.036479 0.001741
-0.001292 -0.036469 0.001733
-0.001259 -0.036457 0.001723
-0.001224 -0.036444 0.001711
-0.001189 -0.036431 0.001699
-0.001153 -0.036417 0.001683
-0.001115 -0.036401 0.001666
-0.001076 -0.036385 0.001646
-0.001036 -0.036367 0.001624
-0.000993 -0.036346 0.001597
-0.000838 -0.036258 0.001467
-0.000803 -0.036245 0.001454
-0.000631 -0.036246 0.001551
-0.000626 -0.036262 0.001593
-0.000632 -0.036288 0.001655
-0.000636 -0.036313 0.001713
-0.000632 -0.03633 0.001757
-0.000628 -0.036347 0.001801
