0.001987 -0.036656 0.000876
0.002018 -0.036665 0.000868
0.002046 -0.036673 0.000858
0.002058 -0.036672 0.000836
0.002068 -0.036668 0.000812
0.000536 -0.036517 0.002165
0.000667 -0.036248 0.001715
0.001461 -0.036703 0.001681
0.001481 -0.036706 0.001665
0.001494 -0.036705 0.001644
0.001493 -0.036697 0.001613
0.001491 -0.036687 0.001581
0.001488 -0.036677 0.001549
0.001484 -0.036667 0.001516
0.001478 -0.036655 0.001481
0.001472 -0.036643 0.001446
0.001464 -0.036631 0.00141
0.001454 -0.036617 0.001373
0.001442 -0.036602 0.001334
0.001428 -0.036585 0.001293
0.001405 -0.036564 0.001247
0.001299 -0.036478 0.00108
0.001281 -0.03646 0.001037
0.001279 -0.03645 0.001005
0.001282 -0.036444 0.000977
0.00129 -0.03644 0.000952
0.001301 -0.036438 0.00093
0.001316 -0.036438 0.00091
0.001333 -0.03644 0.000892
0.001352 -0.036443 0.000876
0.001376 -0.036448 0.000863
0.001409 -0.036459 0.000856
0.001455 -0.036477 0.000858
0.001659 -0.036569 0.000913
0.001704 -0.036586 0.000915
0.001743 -0.036601 0.000913
0.001781 -0.036614 0.00091
0.001817 -0.036626 0.000905
0.001853 -0.036639 0.000901
0.00189 -0.036652 0.000897
0.001925 -0.036664 0.000892
0.001955 -0.036673 0.000884
0.001987 -0.036683 0.000876
0.002018 -0.036692 0.000868
0.002047 -0.036701 0.000858
0.00206 -0.0367 0.000837
0.00207 -0.036696 0.000813
0.001436 -0.037275 0.000723
0.000873 -0.037281 0.001353
0.000574 -0.036538 0.002131
0.00051 -0.036404 0.002169
0.001461 -0.03673 0.001681
0.00148 -0.036733 0.001664
0.001494 -0.036732 0.001644
0.001493 -0.036724 0.001613
0.001491 -0.036714 0.001581
0.001488 -0.036704 0.001549
0.001484 -0.036694 0.001516
0.001478 -0.036682 0.001481
0.001472 -0.036671 0.001447
0.001464 -0.036658 0.00141
0.001454 -0.036644 0.001373
0.001442 -0.036629 0.001334
0.001429 -0.036613 0.001294
0.001405 -0.036591 0.001247
0.0013 -0.036506 0.001081
0.001281 -0.036487 0.001037
0.001279 -0.036477 0.001005
0.001282 -0.036471 0.000977
0.00129 -0.036467 0.000952
0.001301 -0.036465 0.00093
0.001316 -0.036466 0.00091
0.001332 -0.036467 0.000892
0.001352 -0.03647 0.000876
0.001376 -0.036475 0.000863
0.00141 -0.036486 0.000856
0.001454 -0.036504 0.000858
0.001599 -0.03657 0.000901
0.001659 -0.036596 0.000914
0.001703 -0.036613 0.000915
0.001742 -0.036628 0.000913
0.00178 -0.036641 0.000909
0.001817 -0.036654 0.000906
0.001853 -0.036666 0.000901
0.00189 -0.036679 0.000897
0.001925 -0.036691 0.000892
0.001955 -0.0367 0.000883
0.001988 -0.03671 0.000876
0.002018 -0.036719 0.000868
0.002047 -0.036728 0.000858
0.00206 -0.036727 0.000837
0.00207 -0.036724 0.000814
0.000666 -0.036437 0.001712
0.001078 -0.036285 0.0016
0.001459 -0.036756 0.001679
0.001478 -0.036759 0.001663
0.001494 -0.036759 0.001643
0.001494 -0.036751 0.001613
0.001491 -0.036742 0.001581
0.001488 -0.036732 0.001549
0.001484 -0.036721 0.001516
0.001479 -0.03671 0.001482
0.001472 -0.036698 0.001446
0.001464 -0.036685 0.00141
0.001454 -0.036671 0.001373
0.001442 -0.036656 0.001334
0.001427 -0.036639 0.001293
0.001404 -0.036617 0.001246
0.001376 -0.036593 0.001196
0.001299 -0.036532 0.00108
0.001282 -0.036514 0.001037
0.001278 -0.036504 0.001005
0.001282 -0.036498 0.000977
0.00129 -0.036494 0.000952
0.001301 -0.036493 0.00093
0.001316 -0.036493 0.00091
0.001332 -0.036494 0.000892
0.001352 -0.036497 0.000876
0.001376 -0.036503 0.000863
0.00141 -0.036514 0.000856
0.001453 -0.03653 0.000857
0.001659 -0.036624 0.000914
0.001703 -0.036641 0.000915
0.001741 -0.036654 0.000912
0.00178 -0.036668 0.000909
0.001818 -0.036681 0.000906
0.001854 -0.036694 0.000902
0.00189 -0.036706 0.000897
0.001925 -0.036718 0.000892
0.001956 -0.036728 0.000884
0.001987 -0.036737 0.000876
0.002019 -0.036747 0.000868
0.002046 -0.036754 0.000857
0.002058 -0.036753 0.000835
0.002068 -0.03675 0.000812
0.001319 -0.036483 0.001693
0.000599 -0.03641 0.002073
0.001458 -0.036783 0.001678
0.001477 -0.036786 0.001662
0.001493 -0.036786 0.001643
0.001494 -0.036778 0.001613
0.001492 -0.036769 0.001581
0.001488 -0.036759 0.001549
0.001484 -0.036748 0.001516
0.001479 -0.036737 0.001481
0.001473 -0.036725 0.001447
0.001464 -0.036712 0.00141
0.001454 -0.036698 0.001372
0.001441 -0.036683 0.001333
0.001426 -0.036665 0.001292
0.001404 -0.036645 0.001246
0.0013 -0.03656 0.001081
0.001282 -0.036542 0.001037
0.001278 -0.036531 0.001005
0.001282 -0.036525 0.000977
0.00129 -0.036521 0.000952
0.001302 -0.03652 0.00093
0.001316 -0.03652 0.00091
0.001332 -0.036521 0.000892
0.001352 -0.036524 0.000876
0.001377 -0.03653 0.000863
0.001409 -0.03654 0.000856
0.001455 -0.036558 0.000858
0.00166 -0.036651 0.000915
0.001703 -0.036667 0.000915
0.001742 -0.036681 0.000912
0.00178 -0.036695 0.000909
0.001818 -0.036709 0.000906
0.001854 -0.036721 0.000902
0.00189 -0.036733 0.000897
0.001925 -0.036745 0.000892
0.001956 -0.036755 0.000884
0.001988 -0.036765 0.000876
0.002018 -0.036774 0.000868
0.002046 -0.036781 0.000857
0.002057 -0.036779 0.000835
0.002067 -0.036776 0.000811
0.000574 -0.03651 0.002131
0.000611 -0.036426 0.002041
0.001459 -0.036811 0.001679
0.001479 -0.036814 0.001663
0.001493 -0.036814 0.001643
0.001494 -0.036806 0.001613
0.001491 -0.036796 0.001581
0.001488 -0.036786 0.001549
0.001484 -0.036775 0.001516
0.001479 -0.036764 0.001481
0.001473 -0.036752 0.001447
0.001465 -0.036739 0.001411
0.001454 -0.036725 0.001373
0.001441 -0.03671 0.001333
0.001425 -0.036692 0.001291
0.001405 -0.036672 0.001247
0.001377 -0.036648 0.001196
0.001282 -0.036569 0.001038
0.001278 -0.036558 0.001004
0.001282 -0.036552 0.000977
0.00129 -0.036549 0.000952
0.001302 -0.036547 0.00093
0.001316 -0.036547 0.00091
0.001332 -0.036548 0.000892
0.001352 -0.036551 0.000876
0.001376 -0.036557 0.000863
0.001409 -0.036568 0.000856
0.00166 -0.036678 0.000914
0.001703 -0.036695 0.000915
0.001742 -0.036709 0.000913
0.00178 -0.036722 0.000909
0.001817 -0.036735 0.000906
0.001854 -0.036748 0.000902
0.00189 -0.03676 0.000897
0.001925 -0.036773 0.000892
0.001956 -0.036782 0.000884
0.001988 -0.036792 0.000877
0.002018 -0.036801 0.000868
0.002047 -0.036809 0.000858
0.002058 -0.036807 0.000835
0.002068 -0.036804 0.000812
0.00099 -0.036321 0.001534
0.001319 -0.036402 0.001694
0.001461 -0.036839 0.001681
0.00148 -0.036842 0.001664
0.001493 -0.036841 0.001643
0.001494 -0.036833 0.001614
0.00149 -0.036823 0.001581
0.001488 -0.036813 0.001548
0.001484 -0.036802 0.001515
0.001479 -0.036791 0.001481
0.001473 -0.03678 0.001447
0.001464 -0.036766 0.00141
0.001454 -0.036753 0.001373
0.001442 -0.036737 0.001333
0.001425 -0.036719 0.001291
0.001375 -0.036674 0.001195
0.001282 -0.036596 0.001037
0.001278 -0.036585 0.001004
0.001281 -0.036579 0.000976
0.001289 -0.036576 0.000952
0.001301 -0.036574 0.00093
0.001316 -0.036574 0.00091
0.001332 -0.036575 0.000892
0.001352 -0.036579 0.000876
0.001377 -0.036584 0.000863
0.001409 -0.036595 0.000856
0.001455 -0.036613 0.000858
0.001659 -0.036705 0.000914
0.001704 -0.036722 0.000915
0.001741 -0.036735 0.000912
0.00178 -0.03675 0.00091
0.001817 -0.036763 0.000906
0.001854 -0.036776 0.000902
0.001889 -0.036787 0.000896
0.001925 -0.0368 0.000892
0.001956 -0.036809 0.000884
0.001988 -0.036819 0.000876
0.002019 -0.036828 0.000868
0.002048 -0.036837 0.000859
0.00206 -0.036836 0.000837
0.002069 -0.036833 0.000813
0.000655 -0.036329 0.001525
0.000535 -0.036462 0.002164
0.001462 -0.036867 0.001681
0.001482 -0.03687 0.001665
0.001494 -0.036868 0.001644
0.001493 -0.03686 0.001613
0.001491 -0.03685 0.001581
0.001488 -0.03684 0.001548
0.001484 -0.036829 0.001515
0.001478 -0.036818 0.001481
0.001473 -0.036807 0.001447
0.001465 -0.036794 0.00141
0.001455 -0.03678 0.001373
0.001443 -0.036765 0.001334
0.001426 -0.036747 0.001292
0.001402 -0.036725 0.001244
0.001298 -0.03664 0.001079
0.001281 -0.036623 0.001037
0.001278 -0.036613 0.001004
0.001282 -0.036606 0.000976
0.001289 -0.036603 0.000952
0.001301 -0.036601 0.00093
0.001315 -0.036601 0.00091
0.001332 -0.036602 0.000891
0.001352 -0.036606 0.000876
0.001376 -0.036611 0.000862
0.001408 -0.036621 0.000855
0.00146 -0.036643 0.000862
0.001532 -0.036676 0.000883
0.001601 -0.036707 0.000902
0.001657 -0.036731 0.000912
0.001703 -0.036749 0.000915
0.001741 -0.036763 0.000912
0.001781 -0.036777 0.00091
0.001818 -0.03679 0.000906
0.001853 -0.036802 0.000901
0.001889 -0.036814 0.000896
0.001925 -0.036827 0.000892
0.001956 -0.036836 0.000884
0.001988 -0.036846 0.000876
0.002018 -0.036855 0.000868
0.002048 -0.036864 0.000859
0.002061 -0.036863 0.000838
0.00207 -0.03686 0.000814
0.000666 -0.036455 0.001821
0.000536 -0.03649 0.002165
0.001039 -0.036213 0.001577
0.001462 -0.036894 0.001681
0.001481 -0.036897 0.001665
0.001494 -0.036895 0.001643
0.001493 -0.036887 0.001613
0.001491 -0.036877 0.001581
0.001488 -0.036867 0.001548
0.001484 -0.036857 0.001515
0.001478 -0.036845 0.001481
0.001472 -0.036834 0.001446
0.001463 -0.03682 0.00141
0.001454 -0.036807 0.001373
0.001443 -0.036792 0.001334
0.001426 -0.036774 0.001292
0.001402 -0.036752 0.001245
0.001338 -0.036699 0.001138
0.001299 -0.036668 0.00108
0.00128 -0.03665 0.001036
0.001278 -0.03664 0.001004
0.001281 -0.036633 0.000976
0.001289 -0.03663 0.000952
0.001301 -0.036628 0.00093
0.001315 -0.036628 0.00091
0.001332 -0.036629 0.000891
0.001352 -0.036633 0.000875
0.001376 -0.036638 0.000863
0.001408 -0.036648 0.000855
0.001534 -0.036704 0.000884
0.001599 -0.036733 0.000901
0.001657 -0.036758 0.000912
0.001703 -0.036776 0.000914
0.001742 -0.03679 0.000912
0.00178 -0.036804 0.000909
0.001817 -0.036817 0.000906
0.001853 -0.036829 0.000901
0.001889 -0.036842 0.000896
0.001925 -0.036854 0.000892
0.001956 -0.036864 0.000884
0.001989 -0.036874 0.000877
0.002018 -0.036882 0.000867
0.002048 -0.036891 0.000858
0.002061 -0.036891 0.000838
0.002071 -0.036887 0.000814
0.001425 -0.037277 0.000745
0.000666 -0.036382 0.001712
0.001381 -0.036448 0.001707
0.000621 -0.036306 0.002007
0.001463 -0.036921 0.001682
0.001482 -0.036924 0.001665
0.001494 -0.036922 0.001643
0.001494 -0.036914 0.001613
0.001492 -0.036905 0.001581
0.001488 -0.036895 0.001548
0.001484 -0.036884 0.001515
0.001478 -0.036873 0.001481
0.001472 -0.036861 0.001446
0.001464 -0.036848 0.00141
0.001454 -0.036834 0.001373
0.001443 -0.036819 0.001334
0.001426 -0.036801 0.001292
0.001402 -0.036779 0.001245
0.001413 -0.037278 0.000767
0.001299 -0.036695 0.00108
0.00128 -0.036676 0.001036
0.001277 -0.036667 0.001004
0.001281 -0.036661 0.000976
0.001289 -0.036657 0.000952
0.001301 -0.036655 0.00093
0.001315 -0.036655 0.00091
0.001331 -0.036656 0.000891
0.001352 -0.03666 0.000875
0.001377 -0.036666 0.000863
0.001408 -0.036676 0.000855
0.001536 -0.036732 0.000886
0.001598 -0.03676 0.0009
0.001657 -0.036785 0.000912
0.001703 -0.036803 0.000915
0.001742 -0.036818 0.000912
0.001781 -0.036831 0.00091
0.001817 -0.036844 0.000906
0.001853 -0.036856 0.000901
0.001889 -0.036869 0.000896
0.001925 -0.036881 0.000892
0.001956 -0.036891 0.000884
0.001988 -0.036901 0.000877
0.002018 -0.036909 0.000867
0.002047 -0.036918 0.000858
0.002062 -0.036918 0.000838
0.001401 -0.03728 0.000788
0.00138 -0.036474 0.001707
0.001444 -0.036946 0.001698
0.001463 -0.036949 0.001682
0.001482 -0.036951 0.001665
0.001494 -0.03695 0.001643
0.001494 -0.036941 0.001613
0.001491 -0.036932 0.001581
0.001488 -0.036922 0.001548
0.001484 -0.036911 0.001515
0.001478 -0.0369 0.001481
0.001472 -0.036888 0.001446
0.001464 -0.036875 0.00141
0.001454 -0.036861 0.001372
0.001443 -0.036846 0.001334
0.001426 -0.036829 0.001292
0.001403 -0.036807 0.001245
0.001339 -0.036754 0.001139
0.001299 -0.036723 0.00108
0.001281 -0.036704 0.001036
0.001278 -0.036694 0.001004
0.001281 -0.036687 0.000976
0.001289 -0.036684 0.000951
0.0013 -0.036682 0.000929
0.001315 -0.036682 0.000909
0.001331 -0.036683 0.000891
0.001352 -0.036687 0.000875
0.001377 -0.036693 0.000863
0.001408 -0.036703 0.000855
0.001598 -0.036787 0.0009
0.001658 -0.036813 0.000913
0.001703 -0.036831 0.000915
0.001742 -0.036845 0.000912
0.001781 -0.036859 0.00091
0.001817 -0.036871 0.000905
0.001853 -0.036884 0.000901
0.001889 -0.036896 0.000896
0.001925 -0.036908 0.000892
0.001956 -0.036918 0.000884
0.001988 -0.036928 0.000876
0.002018 -0.036937 0.000868
0.002047 -0.036946 0.000858
0.000991 -0.036404 0.001536
0.000845 -0.036321 0.001411
0.001443 -0.036973 0.001698
0.001462 -0.036975 0.001681
0.001481 -0.036978 0.001665
0.001494 -0.036977 0.001644
0.001494 -0.036969 0.001613
0.001492 -0.036959 0.001581
0.001488 -0.036949 0.001548
0.001484 -0.036938 0.001515
0.001479 -0.036927 0.001481
0.001473 -0.036916 0.001447
0.001464 -0.036902 0.00141
0.001454 -0.036888 0.001372
0.001442 -0.036873 0.001334
0.001426 -0.036856 0.001292
0.001402 -0.036834 0.001245
0.001375 -0.03681 0.001195
0.001339 -0.036781 0.001139
0.001299 -0.03675 0.00108
0.00128 -0.036731 0.001036
0.001278 -0.036721 0.001004
0.001281 -0.036715 0.000976
0.001289 -0.036711 0.000951
0.001301 -0.03671 0.000929
0.001315 -0.03671 0.000909
0.001331 -0.036711 0.000891
0.001352 -0.036714 0.000875
0.001377 -0.03672 0.000863
0.001408 -0.03673 0.000855
0.001658 -0.03684 0.000912
0.001704 -0.036858 0.000915
0.001742 -0.036872 0.000912
0.001781 -0.036886 0.00091
0.001817 -0.036898 0.000905
0.001853 -0.036911 0.000901
0.001889 -0.036923 0.000896
0.001925 -0.036935 0.000892
0.001956 -0.036945 0.000884
0.001988 -0.036955 0.000876
0.002018 -0.036964 0.000867
0.002047 -0.036973 0.000857
0.001454 -0.036537 0.001689
0.000955 -0.037275 0.001297
0.001462 -0.037003 0.001681
0.001481 -0.037005 0.001664
0.001494 -0.037004 0.001643
0.001494 -0.036996 0.001613
0.001491 -0.036986 0.001581
0.001488 -0.036976 0.001548
0.001484 -0.036965 0.001515
0.00148 -0.036955 0.001482
0.001473 -0.036943 0.001447
0.001464 -0.036929 0.00141
0.001453 -0.036915 0.001372
0.001442 -0.0369 0.001334
0.001425 -0.036882 0.001291
0.001402 -0.036861 0.001244
0.001374 -0.036837 0.001194
0.001297 -0.036776 0.001079
0.00128 -0.036758 0.001036
0.001277 -0.036748 0.001003
0.001281 -0.036742 0.000976
0.001289 -0.036738 0.000951
0.001301 -0.036737 0.000929
0.001315 -0.036737 0.000909
0.001331 -0.036738 0.000891
0.001352 -0.036741 0.000875
0.001376 -0.036747 0.000862
0.001409 -0.036758 0.000856
0.001389 -0.037281 0.00081
0.001376 -0.037282 0.000831
0.001659 -0.036868 0.000913
0.001704 -0.036886 0.000915
0.001742 -0.036899 0.000912
0.001781 -0.036913 0.00091
0.001817 -0.036925 0.000905
0.001853 -0.036938 0.000901
0.00189 -0.03695 0.000897
0.001925 -0.036962 0.000891
0.001956 -0.036972 0.000883
0.001988 -0.036982 0.000876
0.002018 -0.036991 0.000867
0.002047 -0.037 0.000857
0.001079 -0.036422 0.001601
0.000935 -0.037277 0.001312
0.000663 -0.036356 0.001651
0.000644 -0.036473 0.001941
0.001493 -0.037031 0.001643
0.001494 -0.037023 0.001613
0.001491 -0.037013 0.001581
0.001488 -0.037003 0.001548
0.001484 -0.036993 0.001515
0.00148 -0.036982 0.001482
0.001473 -0.03697 0.001447
0.001464 -0.036957 0.00141
0.001454 -0.036942 0.001372
0.001443 -0.036928 0.001334
0.001424 -0.036909 0.00129
0.001402 -0.036888 0.001244
0.001374 -0.036864 0.001194
0.001295 -0.036802 0.001077
0.00128 -0.036785 0.001036
0.001277 -0.036775 0.001004
0.001281 -0.036769 0.000976
0.001289 -0.036765 0.000951
0.001301 -0.036764 0.000929
0.001315 -0.036764 0.000909
0.001331 -0.036765 0.000891
0.001351 -0.036768 0.000875
0.001376 -0.036774 0.000862
0.001409 -0.036785 0.000855
0.001363 -0.037283 0.000852
0.001704 -0.036913 0.000915
0.001743 -0.036927 0.000913
0.001781 -0.03694 0.00091
0.001817 -0.036953 0.000905
0.001853 -0.036965 0.000901
0.00189 -0.036978 0.000897
0.001924 -0.036989 0.000891
0.001955 -0.036999 0.000883
0.001986 -0.037008 0.000875
0.002019 -0.037019 0.000868
0.000667 -0.036356 0.001714
0.000666 -0.0364 0.001821
0.000659 -0.036416 0.001863
0.000511 -0.036514 0.002171
0.001486 -0.037046 0.001607
0.001489 -0.037039 0.001579
0.001488 -0.03703 0.001548
0.001484 -0.03702 0.001515
0.001472 -0.036996 0.001446
0.001464 -0.036984 0.00141
0.001454 -0.03697 0.001373
0.001442 -0.036955 0.001334
0.001423 -0.036936 0.00129
0.001402 -0.036915 0.001245
0.001375 -0.036891 0.001195
0.001341 -0.036864 0.00114
0.001296 -0.03683 0.001078
0.00128 -0.036813 0.001036
0.001277 -0.036802 0.001003
0.001281 -0.036796 0.000976
0.001289 -0.036793 0.000951
0.0013 -0.036791 0.000929
0.001315 -0.036791 0.000909
0.001331 -0.036792 0.000891
0.001351 -0.036795 0.000875
0.001376 -0.036801 0.000862
0.001408 -0.036812 0.000855
0.001456 -0.036831 0.000859
0.001349 -0.037283 0.000872
0.001704 -0.036939 0.000915
0.001743 -0.036954 0.000913
0.001781 -0.036968 0.00091
0.001818 -0.03698 0.000906
0.001853 -0.036992 0.000901
0.00189 -0.037005 0.000897
0.001924 -0.037017 0.000891
0.001958 -0.037027 0.000885
0.001985 -0.037035 0.000874
0.002014 -0.037043 0.000864
0.001331 -0.037281 0.00089
0.001315 -0.03728 0.000909
0.001351 -0.037045 0.001693
0.001366 -0.037045 0.001673
0.001185 -0.036409 0.001647
0.001218 -0.036421 0.001659
0.001253 -0.036461 0.001672
0.00147 -0.037047 0.001535
0.00148 -0.037045 0.001512
0.001472 -0.037023 0.001446
0.001465 -0.037011 0.00141
0.001454 -0.036997 0.001373
0.001442 -0.036982 0.001334
0.001426 -0.036964 0.001291
0.001402 -0.036942 0.001244
0.001376 -0.036919 0.001195
0.001339 -0.03689 0.001139
0.001297 -0.036857 0.001078
0.00128 -0.03684 0.001036
0.001277 -0.036829 0.001003
0.00128 -0.036823 0.000975
0.001289 -0.03682 0.000951
0.0013 -0.036818 0.000929
0.001315 -0.036818 0.000909
0.001331 -0.036819 0.000891
0.001351 -0.036823 0.000875
0.001376 -0.036829 0.000862
0.001408 -0.036839 0.000855
0.001457 -0.036859 0.00086
0.001657 -0.036948 0.000912
0.001705 -0.036967 0.000916
0.001743 -0.036981 0.000913
0.001781 -0.036995 0.00091
0.001817 -0.037007 0.000905
0.001854 -0.03702 0.000901
0.00189 -0.037032 0.000897
0.001921 -0.037042 0.000889
0.001943 -0.037046 0.000874
0.001955 -0.037045 0.000852
0.001304 -0.037045 0.001659
0.001314 -0.037043 0.001636
0.001327 -0.037042 0.001615
0.001343 -0.037043 0.001596
0.001358 -0.037043 0.001576
0.001218 -0.036448 0.001658
0.001463 -0.037037 0.001409
0.001454 -0.037024 0.001372
0.001442 -0.037009 0.001333
0.001427 -0.036992 0.001292
0.001401 -0.036969 0.001244
0.001373 -0.036945 0.001193
0.00128 -0.036867 0.001036
0.001277 -0.036856 0.001003
0.00128 -0.03685 0.000975
0.001289 -0.036847 0.000951
0.0013 -0.036845 0.000929
0.001315 -0.036845 0.000909
0.001331 -0.036846 0.000891
0.001351 -0.03685 0.000875
0.001376 -0.036856 0.000862
0.001409 -0.036866 0.000855
0.001457 -0.036886 0.00086
0.001599 -0.036951 0.000901
0.001656 -0.036975 0.000911
0.001706 -0.036995 0.000916
0.001744 -0.037009 0.000913
0.001781 -0.037022 0.00091
0.001817 -0.037034 0.000905
0.001849 -0.037044 0.000898
0.001868 -0.037047 0.000881
0.00188 -0.037046 0.00086
0.001889 -0.037043 0.000836
0.001904 -0.037043 0.000816
0.001918 -0.037043 0.000795
0.001244 -0.037046 0.001646
0.001256 -0.037045 0.001625
0.001265 -0.037042 0.0016
0.001279 -0.037042 0.001581
0.001293 -0.037041 0.00156
0.001309 -0.037042 0.001541
0.000631 -0.036088 0.001807
0.001286 -0.036472 0.001684
0.001444 -0.037045 0.001365
0.00144 -0.037035 0.001332
0.001426 -0.037019 0.001292
0.001401 -0.036996 0.001244
0.001374 -0.036972 0.001194
0.001338 -0.036943 0.001138
0.001298 -0.036912 0.001079
0.001281 -0.036894 0.001036
0.001276 -0.036883 0.001003
0.00128 -0.036877 0.000975
0.001288 -0.036874 0.000951
0.0013 -0.036872 0.000929
0.001315 -0.036872 0.000909
0.001331 -0.036874 0.000891
0.001351 -0.036877 0.000875
0.001376 -0.036883 0.000862
0.0016 -0.036978 0.000901
0.001706 -0.037023 0.000917
0.001744 -0.037036 0.000913
0.001774 -0.037045 0.000905
0.001804 -0.037045 0.000865
0.001815 -0.037044 0.000843
0.001827 -0.037042 0.000821
0.001841 -0.037043 0.000801
0.001856 -0.037043 0.000782
0.001871 -0.037043 0.000762
0.001885 -0.037043 0.000742
0.0019 -0.037043 0.000722
0.001914 -0.037043 0.000702
0.00193 -0.037043 0.000683
0.001944 -0.037043 0.000663
0.001962 -0.037045 0.000645
0.001974 -0.037038 0.000625
0.001194 -0.037045 0.00161
0.001206 -0.037043 0.001589
0.00122 -0.037043 0.001568
0.001233 -0.037042 0.001547
0.001247 -0.037042 0.001527
0.001261 -0.037042 0.001507
0.000599 -0.036572 0.002071
0.001346 -0.037041 0.001386
0.00061 -0.036534 0.00204
0.000668 -0.036461 0.001771
0.001411 -0.037045 0.001311
0.00142 -0.037043 0.001288
0.001301 -0.03728 0.000929
0.001302 -0.036942 0.001082
0.00128 -0.036921 0.001036
0.001277 -0.036911 0.001003
0.00128 -0.036904 0.000975
0.001288 -0.036901 0.000951
0.0013 -0.0369 0.000929
0.001315 -0.0369 0.000909
0.001331 -0.036901 0.000891
0.001351 -0.036904 0.000875
0.001376 -0.03691 0.000862
0.0017 -0.037046 0.000912
0.001718 -0.037048 0.000895
0.001724 -0.037043 0.000869
0.001734 -0.037041 0.000846
0.001765 -0.037042 0.000807
0.001794 -0.037042 0.000767
0.001809 -0.037042 0.000748
0.001822 -0.037042 0.000727
0.001836 -0.037042 0.000707
0.00185 -0.037042 0.000686
0.001866 -0.037042 0.000667
0.001882 -0.037043 0.000648
0.001896 -0.037043 0.000628
0.001911 -0.037044 0.000609
0.00193 -0.037046 0.000592
0.001412 -0.036539 0.001715
0.001156 -0.037042 0.001553
0.00117 -0.037042 0.001533
0.001185 -0.037042 0.001513
0.0012 -0.037042 0.001493
0.001214 -0.037042 0.001473
0.001227 -0.037042 0.001452
0.00115 -0.03645 0.001633
0.0013 -0.037042 0.001353
0.001314 -0.037042 0.001333
0.001328 -0.037042 0.001313
0.001435 -0.03654 0.001706
0.000894 -0.03728 0.00134
0.001392 -0.037045 0.001237
0.001279 -0.036947 0.001035
0.001277 -0.036938 0.001003
0.00128 -0.036932 0.000975
0.001288 -0.036928 0.000951
0.001301 -0.036927 0.000929
0.001315 -0.036927 0.000909
0.001331 -0.036928 0.000891
0.001351 -0.036931 0.000875
0.001376 -0.036937 0.000862
0.00141 -0.036949 0.000856
0.001637 -0.037045 0.000897
0.001649 -0.037044 0.000876
0.00166 -0.037042 0.000853
0.001676 -0.037043 0.000834
0.001689 -0.037043 0.000814
0.001704 -0.037043 0.000794
0.001719 -0.037043 0.000774
0.001733 -0.037043 0.000754
0.001746 -0.037043 0.000733
0.001761 -0.037043 0.000714
0.001775 -0.037042 0.000693
0.00179 -0.037042 0.000673
0.001805 -0.037043 0.000654
0.00182 -0.037043 0.000634
0.001833 -0.037042 0.000614
0.001846 -0.037042 0.000593
0.001862 -0.037042 0.000574
0.001879 -0.037044 0.000555
0.001898 -0.037047 0.000539
0.001095 -0.037042 0.001539
0.001109 -0.037042 0.001519
0.001122 -0.037042 0.001498
0.001138 -0.037042 0.001479
0.001153 -0.037042 0.00146
0.001168 -0.037043 0.00144
0.001184 -0.037044 0.001421
0.001197 -0.037043 0.001401
0.000634 -0.036513 0.001976
0.000485 -0.036402 0.002175
0.00127 -0.037044 0.001301
0.001286 -0.037044 0.001282
0.001301 -0.037045 0.001263
0.000586 -0.036528 0.002102
0.000655 -0.036302 0.001525
0.001349 -0.037048 0.001206
0.00136 -0.037046 0.001184
0.0013 -0.036995 0.00108
0.00128 -0.036976 0.001036
0.001277 -0.036965 0.001003
0.00128 -0.036959 0.000975
0.001288 -0.036955 0.000951
0.0013 -0.036954 0.000929
0.001314 -0.036954 0.000909
0.001331 -0.036955 0.000891
0.001351 -0.036958 0.000875
0.001376 -0.036964 0.000862
0.001408 -0.036975 0.000855
0.001551 -0.03704 0.000896
0.001579 -0.037048 0.000886
0.00159 -0.037046 0.000864
0.001602 -0.037044 0.000842
0.001616 -0.037044 0.000822
0.00163 -0.037044 0.000802
0.001644 -0.037044 0.000781
0.001659 -0.037044 0.000762
0.001673 -0.037044 0.000742
0.001688 -0.037044 0.000721
0.001702 -0.037044 0.000701
0.001716 -0.037044 0.000681
0.00173 -0.037043 0.000661
0.001744 -0.037043 0.000641
0.001758 -0.037043 0.00062
0.001772 -0.037043 0.0006
0.001785 -0.037042 0.000579
0.0018 -0.037043 0.00056
0.001815 -0.037043 0.00054
0.001831 -0.037044 0.000521
0.001849 -0.037046 0.000504
0.001051 -0.037044 0.001508
0.001065 -0.037044 0.001488
0.00108 -0.037045 0.001468
0.001095 -0.037045 0.001449
0.001109 -0.037045 0.001429
0.001125 -0.037045 0.001409
0.001141 -0.037046 0.00139
0.001157 -0.037047 0.001371
0.000643 -0.036446 0.001941
0.00061 -0.03648 0.00204
0.001286 -0.036445 0.001684
0.00115 -0.036369 0.001633
0.001015 -0.037269 0.001252
0.001252 -0.037052 0.001258
0.001268 -0.037053 0.001239
0.000663 -0.036193 0.001652
0.001299 -0.037054 0.001201
0.001315 -0.037055 0.001182
0.00133 -0.037056 0.001162
0.001335 -0.03705 0.001135
0.001301 -0.037022 0.001081
0.00128 -0.037003 0.001036
0.001276 -0.036992 0.001003
0.00128 -0.036986 0.000975
0.001288 -0.036982 0.000951
0.001301 -0.036981 0.000929
0.001314 -0.036981 0.000909
0.001331 -0.036982 0.00089
0.001352 -0.036986 0.000875
0.001376 -0.036991 0.000862
0.001407 -0.037001 0.000854
0.001544 -0.037055 0.000861
0.001557 -0.037054 0.00084
0.00157 -0.037053 0.000819
0.001583 -0.037052 0.000798
0.001596 -0.037052 0.000777
0.001609 -0.037051 0.000756
0.001621 -0.03705 0.000735
0.001634 -0.037049 0.000714
0.001647 -0.037049 0.000692
0.00166 -0.037047 0.000672
0.001674 -0.037047 0.000651
0.001687 -0.037046 0.00063
0.0017 -0.037045 0.000609
0.001714 -0.037045 0.000589
0.001727 -0.037044 0.000568
0.001741 -0.037044 0.000548
0.001755 -0.037044 0.000527
0.001769 -0.037044 0.000507
0.000937 -0.036289 0.001483
0.001027 -0.03705 0.00146
0.001044 -0.037051 0.001442
0.001061 -0.037052 0.001424
0.001078 -0.037054 0.001406
0.001095 -0.037055 0.001388
0.001112 -0.037057 0.001369
0.001129 -0.037058 0.001351
0.001145 -0.037059 0.001333
0.00138 -0.036393 0.001706
0.000587 -0.03642 0.002103
0.001184 -0.036299 0.001645
0.000533 -0.036351 0.002161
0.000509 -0.036349 0.002166
0.000559 -0.0363 0.002157
0.001258 -0.037066 0.001202
0.001274 -0.037067 0.001183
0.001289 -0.037068 0.001163
0.001305 -0.037068 0.001144
0.001319 -0.037068 0.001124
0.00128 -0.03703 0.001036
0.001277 -0.037019 0.001003
0.00128 -0.037013 0.000975
0.001288 -0.03701 0.000951
0.0013 -0.037008 0.000929
0.001315 -0.037008 0.000909
0.001331 -0.03701 0.000891
0.001352 -0.037013 0.000875
0.001376 -0.037019 0.000862
0.001407 -0.037028 0.000854
0.001502 -0.037066 0.000862
0.001518 -0.037067 0.000842
0.001531 -0.037066 0.000821
0.001544 -0.037066 0.000801
0.001557 -0.037065 0.000779
0.00157 -0.037064 0.000758
0.001582 -0.037063 0.000737
0.001595 -0.037062 0.000716
0.001607 -0.037061 0.000694
0.00162 -0.03706 0.000673
0.001632 -0.037058 0.000651
0.001644 -0.037057 0.000629
0.001655 -0.037055 0.000607
0.001667 -0.037054 0.000586
0.001679 -0.037052 0.000564
0.001692 -0.037051 0.000543
0.001704 -0.03705 0.000521
0.001115 -0.036463 0.001617
0.000633 -0.036376 0.001976
0.001472 -0.036315 0.001669
0.000655 -0.036118 0.0018
0.001052 -0.037066 0.001387
0.00107 -0.037068 0.00137
0.001087 -0.037069 0.001351
0.001104 -0.037071 0.001333
0.001121 -0.037072 0.001315
0.000651 -0.036268 0.001902
0.000558 -0.036381 0.002154
0.001039 -0.036186 0.001577
0.00109 -0.036112 0.001569
0.001039 -0.036104 0.001576
0.00122 -0.03708 0.001205
0.001236 -0.037081 0.001186
0.001252 -0.037082 0.001167
0.001268 -0.037083 0.001148
0.00115 -0.036314 0.001632
0.001185 -0.036436 0.001647
0.001278 -0.037056 0.001034
0.001276 -0.037046 0.001003
0.00128 -0.03704 0.000975
0.001288 -0.037037 0.000951
0.0013 -0.037036 0.000929
0.001314 -0.037035 0.000909
0.001331 -0.037037 0.00089
0.001352 -0.03704 0.000875
0.001376 -0.037046 0.000862
0.001408 -0.037056 0.000854
0.001455 -0.037075 0.000858
0.001482 -0.037082 0.000847
0.001496 -0.037082 0.000827
0.001509 -0.037081 0.000806
0.001522 -0.03708 0.000785
0.001535 -0.037079 0.000763
0.001547 -0.037078 0.000742
0.001559 -0.037077 0.00072
0.001572 -0.037076 0.000699
0.001584 -0.037075 0.000677
0.001596 -0.037073 0.000656
0.001607 -0.037071 0.000633
0.001619 -0.03707 0.000611
0.00163 -0.037068 0.000589
0.001642 -0.037067 0.000567
0.001653 -0.037065 0.000545
0.001664 -0.037063 0.000523
0.000623 -0.03647 0.00201
0.000668 -0.036275 0.001716
0.001318 -0.036347 0.001693
0.000611 -0.036317 0.002041
0.000557 -0.036354 0.002154
0.00111 -0.03611 0.001554
0.000486 -0.036294 0.002178
0.001083 -0.037086 0.001318
0.0011 -0.037088 0.001301
0.000651 -0.03624 0.001901
0.000598 -0.036327 0.002071
0.000595 -0.036269 0.002064
0.001168 -0.037094 0.001228
0.000631 -0.036115 0.001807
0.000573 -0.036293 0.002131
0.000534 -0.036325 0.002162
0.001318 -0.036292 0.001692
0.001349 -0.036329 0.001699
0.001184 -0.036327 0.001646
0.000598 -0.036545 0.002071
0.00129 -0.037098 0.001073
0.00128 -0.037084 0.001036
0.001277 -0.037074 0.001003
0.00128 -0.037068 0.000975
0.001289 -0.037064 0.000951
0.0013 -0.037063 0.000929
0.001314 -0.037062 0.000909
0.001331 -0.037064 0.00089
0.001353 -0.037068 0.000875
0.001377 -0.037074 0.000863
0.001408 -0.037083 0.000855
0.001447 -0.037097 0.000852
0.001465 -0.037099 0.000835
0.001478 -0.037099 0.000814
0.001491 -0.037098 0.000793
0.001504 -0.037097 0.000772
0.001517 -0.037097 0.000751
0.001528 -0.037095 0.000728
0.00154 -0.037093 0.000707
0.001552 -0.037092 0.000685
0.001564 -0.03709 0.000663
0.001575 -0.037088 0.000641
0.001586 -0.037087 0.000618
0.001598 -0.037085 0.000596
0.001609 -0.037083 0.000574
0.00162 -0.037081 0.000552
0.00163 -0.037079 0.000529
0.001641 -0.037077 0.000506
0.000536 -0.036544 0.002165
0.001287 -0.036337 0.001685
0.000643 -0.036282 0.00194
0.000621 -0.036278 0.002007
0.000535 -0.036299 0.002164
0.000542 -0.036141 0.001849
0.001209 -0.036098 0.001477
0.001065 -0.037103 0.001306
0.001083 -0.037105 0.001288
0.001251 -0.036123 0.00145
0.00051 -0.036296 0.00217
0.001135 -0.03711 0.001235
0.001152 -0.037112 0.001217
0.001169 -0.037113 0.001199
0.001186 -0.037115 0.00118
0.001202 -0.037116 0.001162
0.001219 -0.037117 0.001143
0.001235 -0.037118 0.001124
0.00125 -0.037119 0.001105
0.001266 -0.03712 0.001086
0.001281 -0.03712 0.001066
0.00128 -0.037111 0.001035
0.001277 -0.037101 0.001003
0.00128 -0.037095 0.000975
0.001288 -0.037091 0.000951
0.0013 -0.03709 0.000929
0.001315 -0.03709 0.000909
0.001331 -0.037091 0.00089
0.001351 -0.037094 0.000874
0.001377 -0.037101 0.000862
0.001409 -0.037111 0.000855
0.001435 -0.037118 0.000844
0.00145 -0.037118 0.000824
0.001463 -0.037117 0.000803
0.001476 -0.037116 0.000782
0.001489 -0.037116 0.000761
0.001501 -0.037114 0.000739
0.001512 -0.037113 0.000717
0.001524 -0.037111 0.000695
0.001536 -0.037109 0.000673
0.001547 -0.037108 0.000651
0.001559 -0.037106 0.000629
0.001569 -0.037104 0.000606
0.00158 -0.037102 0.000583
0.001591 -0.0371 0.000561
0.001601 -0.037097 0.000538
0.001611 -0.037095 0.000515
0.001621 -0.037093 0.000492
0.001631 -0.03709 0.000469
0.001641 -0.037088 0.000445
0.001651 -0.037085 0.000422
0.001661 -0.037082 0.000399
0.00167 -0.037079 0.000376
0.001115 -0.036382 0.001617
0.001149 -0.036286 0.001631
0.000633 -0.036295 0.001975
0.00061 -0.03629 0.00204
0.000659 -0.036226 0.001862
0.001268 -0.036091 0.001429
0.00117 -0.036103 0.001508
0.00113 -0.036108 0.001539
0.00115 -0.036106 0.001524
0.001086 -0.037126 0.00126
0.001104 -0.037128 0.001242
0.001121 -0.03713 0.001225
0.001139 -0.037131 0.001207
0.001156 -0.037133 0.001189
0.001173 -0.037134 0.00117
0.001189 -0.037136 0.001152
0.001205 -0.037137 0.001134
0.001222 -0.037138 0.001115
0.001238 -0.037139 0.001096
0.001253 -0.037139 0.001077
0.001269 -0.03714 0.001058
0.001278 -0.037137 0.001034
0.001277 -0.037128 0.001003
0.00128 -0.037122 0.000975
0.001288 -0.037118 0.00095
0.0013 -0.037117 0.000929
0.001315 -0.037117 0.000909
0.001331 -0.037118 0.00089
0.001352 -0.037122 0.000875
0.001377 -0.037128 0.000862
0.001406 -0.037136 0.000853
0.001424 -0.037138 0.000836
0.001437 -0.037138 0.000815
0.00145 -0.037137 0.000794
0.001463 -0.037136 0.000773
0.001476 -0.037135 0.000751
0.001487 -0.037133 0.000729
0.001499 -0.037132 0.000707
0.00151 -0.03713 0.000685
0.001522 -0.037128 0.000663
0.001533 -0.037127 0.000641
0.001544 -0.037125 0.000618
0.001585 -0.037115 0.000526
0.001595 -0.037113 0.000503
0.001604 -0.03711 0.00048
0.001614 -0.037107 0.000456
0.001624 -0.037105 0.000433
0.001633 -0.037102 0.000409
0.001641 -0.037098 0.000385
0.001651 -0.037095 0.000362
0.000559 -0.036545 0.002157
0.001452 -0.036399 0.001686
0.000598 -0.036354 0.002071
0.000573 -0.036347 0.002131
0.000632 -0.036267 0.001974
0.001038 -0.03613 0.001574
0.000667 -0.036135 0.00177
0.000667 -0.036112 0.001715
0.000639 -0.036151 0.001824
0.001074 -0.037146 0.001251
0.001092 -0.037148 0.001234
0.00111 -0.03715 0.001216
0.001128 -0.037152 0.001199
0.001145 -0.037154 0.001181
0.001162 -0.037156 0.001163
0.001179 -0.037157 0.001145
0.001195 -0.037158 0.001126
0.001211 -0.037159 0.001107
0.001228 -0.03716 0.001089
0.001243 -0.037161 0.00107
0.001259 -0.037162 0.001051
0.001273 -0.037161 0.00103
0.001277 -0.037155 0.001003
0.001281 -0.03715 0.000976
0.001289 -0.037146 0.000951
0.0013 -0.037144 0.000929
0.001315 -0.037144 0.000909
0.001331 -0.037145 0.00089
0.001352 -0.037149 0.000875
0.001376 -0.037154 0.000862
0.0014 -0.03716 0.000849
0.001414 -0.03716 0.000829
0.001427 -0.037159 0.000807
0.001439 -0.037158 0.000786
0.001452 -0.037157 0.000765
0.001464 -0.037155 0.000743
0.001476 -0.037154 0.000721
0.001487 -0.037152 0.000699
0.001499 -0.037151 0.000677
0.00151 -0.037149 0.000654
0.001521 -0.037147 0.000632
0.001531 -0.037144 0.000609
0.001581 -0.037132 0.000493
0.00159 -0.037129 0.000469
0.001599 -0.037126 0.000446
0.001608 -0.037123 0.000422
0.001617 -0.037119 0.000398
0.001625 -0.037116 0.000373
0.001629 -0.03711 0.000346
0.000665 -0.036481 0.001818
0.001433 -0.036402 0.001702
0.000587 -0.036338 0.002103
0.000642 -0.036254 0.001939
0.001133 -0.036187 0.001598
0.00111 -0.036187 0.001609
0.001038 -0.036158 0.001574
0.000662 -0.03611 0.001649
0.000586 -0.036283 0.002101
0.001064 -0.037168 0.001244
0.001083 -0.03717 0.001227
0.001101 -0.037172 0.00121
0.001118 -0.037174 0.001192
0.001136 -0.037176 0.001174
0.001153 -0.037177 0.001156
0.00117 -0.037179 0.001138
0.001187 -0.03718 0.00112
0.001203 -0.037182 0.001101
0.001219 -0.037183 0.001083
0.001235 -0.037183 0.001064
0.001251 -0.037184 0.001045
0.001266 -0.037185 0.001026
0.001277 -0.037182 0.001003
0.00128 -0.037176 0.000975
0.001289 -0.037173 0.000951
0.0013 -0.037171 0.000929
0.001315 -0.037171 0.000909
0.001331 -0.037172 0.00089
0.001351 -0.037176 0.000874
0.001375 -0.037181 0.000861
0.001393 -0.037183 0.000843
0.001406 -0.037182 0.000823
0.001419 -0.037181 0.000801
0.001431 -0.03718 0.00078
0.001443 -0.037179 0.000758
0.001455 -0.037177 0.000736
0.001467 -0.037176 0.000715
0.001478 -0.037174 0.000692
0.001489 -0.037172 0.00067
0.0015 -0.03717 0.000647
0.001511 -0.037168 0.000625
0.001578 -0.037149 0.000461
0.001587 -0.037146 0.000436
0.001595 -0.037142 0.000412
0.001603 -0.037139 0.000388
0.001611 -0.037135 0.000363
0.001616 -0.037129 0.000336
0.000659 -0.036444 0.001863
0.001079 -0.03634 0.001601
0.000668 -0.036244 0.00177
0.00138 -0.036311 0.001706
0.001348 -0.036301 0.001699
0.001216 -0.036256 0.001655
0.001182 -0.036243 0.001642
0.000667 -0.036166 0.001714
0.000665 -0.036209 0.001819
0.001057 -0.037191 0.001239
0.001075 -0.037193 0.001222
0.001094 -0.037196 0.001205
0.001112 -0.037198 0.001187
0.001129 -0.037199 0.00117
0.001146 -0.037201 0.001152
0.001164 -0.037203 0.001134
0.001181 -0.037204 0.001116
0.001197 -0.037205 0.001097
0.001213 -0.037206 0.001079
0.001229 -0.037207 0.00106
0.001245 -0.037208 0.001041
0.00126 -0.037209 0.001021
0.001274 -0.037208 0.001001
0.001281 -0.037204 0.000975
0.001289 -0.0372 0.000951
0.001301 -0.037199 0.000929
0.001315 -0.037199 0.000909
0.001331 -0.0372 0.00089
0.001351 -0.037203 0.000874
0.001372 -0.037207 0.000859
0.001387 -0.037207 0.000839
0.0014 -0.037206 0.000818
0.001412 -0.037205 0.000797
0.001425 -0.037204 0.000775
0.001437 -0.037202 0.000754
0.001449 -0.037201 0.000732
0.00146 -0.037199 0.00071
0.001471 -0.037197 0.000687
0.001482 -0.037195 0.000665
0.001493 -0.037193 0.000642
0.001503 -0.037191 0.000619
0.001585 -0.037163 0.000405
0.001592 -0.03716 0.00038
0.0016 -0.037156 0.000355
0.001609 -0.037153 0.000332
0.001435 -0.036485 0.001705
0.000992 -0.036295 0.001537
0.001079 -0.036259 0.001601
0.000667 -0.03622 0.001714
0.000611 -0.036372 0.002041
0.001184 -0.036272 0.001645
0.001114 -0.036245 0.001616
0.001078 -0.036231 0.0016
0.000659 -0.036253 0.001863
0.001052 -0.037215 0.001235
0.00107 -0.037218 0.001218
0.001089 -0.03722 0.001201
0.001107 -0.037222 0.001184
0.001124 -0.037224 0.001166
0.001142 -0.037226 0.001148
0.001159 -0.037227 0.00113
0.001176 -0.037229 0.001112
0.001192 -0.03723 0.001094
0.001209 -0.037231 0.001075
0.001225 -0.037232 0.001056
0.00124 -0.037233 0.001037
0.001256 -0.037233 0.001018
0.001271 -0.037233 0.000998
0.001281 -0.037231 0.000975
0.00129 -0.037228 0.000951
0.001301 -0.037226 0.000929
0.001315 -0.037226 0.000909
0.001331 -0.037227 0.00089
0.001351 -0.03723 0.000874
0.00137 -0.037232 0.000857
0.001383 -0.037232 0.000837
0.001396 -0.037231 0.000815
0.001408 -0.03723 0.000794
0.00142 -0.037228 0.000772
0.001432 -0.037227 0.00075
0.001444 -0.037225 0.000728
0.001455 -0.037224 0.000706
0.001466 -0.037222 0.000684
0.001477 -0.03722 0.000661
0.001487 -0.037217 0.000638
0.001497 -0.037215 0.000615
0.001591 -0.037178 0.000349
0.001599 -0.037174 0.000324
0.000652 -0.036514 0.001904
0.001287 -0.036391 0.001685
0.001253 -0.036379 0.001672
0.001114 -0.036327 0.001616
0.001184 -0.036354 0.001646
0.000643 -0.036336 0.00194
0.000574 -0.036402 0.002132
0.000534 -0.036407 0.002163
0.001432 -0.036374 0.001701
0.001411 -0.036375 0.001714
0.001065 -0.037242 0.001215
0.001084 -0.037244 0.001198
0.001102 -0.037247 0.001181
0.00112 -0.037249 0.001163
0.001138 -0.03725 0.001146
0.001155 -0.037252 0.001128
0.001172 -0.037254 0.00111
0.001189 -0.037255 0.001091
0.001205 -0.037256 0.001072
0.001221 -0.037257 0.001054
0.001237 -0.037258 0.001035
0.001252 -0.037258 0.001016
0.001268 -0.037259 0.000996
0.00128 -0.037258 0.000975
0.001289 -0.037255 0.000951
0.001301 -0.037253 0.000929
0.001315 -0.037253 0.000909
0.001331 -0.037254 0.00089
0.00135 -0.037257 0.000873
0.001366 -0.037258 0.000855
0.00138 -0.037257 0.000834
0.001392 -0.037256 0.000812
0.001404 -0.037254 0.000791
0.001416 -0.037253 0.000769
0.001428 -0.037252 0.000747
0.001439 -0.03725 0.000725
0.001451 -0.037248 0.000703
0.001462 -0.037246 0.00068
0.001472 -0.037244 0.000658
0.001483 -0.037242 0.000635
0.001493 -0.03724 0.000612
0.001503 -0.037237 0.000589
0.000659 -0.036498 0.001863
0.000681 -0.03631 0.001467
0.000653 -0.03635 0.001577
0.000586 -0.036555 0.002102
0.000622 -0.036524 0.002008
0.000659 -0.036471 0.001863
0.000667 -0.036406 0.001769
0.000666 -0.036428 0.001822
0.00061 -0.036507 0.00204
0.000599 -0.036518 0.002071
0.001062 -0.037267 0.001212
0.001081 -0.037269 0.001195
0.001099 -0.037272 0.001178
0.001117 -0.037274 0.001161
0.001134 -0.037276 0.001143
0.001152 -0.037277 0.001125
0.001169 -0.037279 0.001107
0.001186 -0.03728 0.001089
0.001202 -0.037282 0.001071
0.001218 -0.037282 0.001052
0.001234 -0.037283 0.001033
0.00125 -0.037284 0.001013
0.001265 -0.037284 0.000994
0.00128 -0.037285 0.000974
0.001289 -0.037282 0.000951
0.000719 -0.036331 0.001433
0.000741 -0.036331 0.001422
0.000763 -0.036332 0.001412
0.000788 -0.036334 0.001405
0.000815 -0.036339 0.001404
0.000845 -0.036348 0.00141
0.000992 -0.036431 0.001537
0.001038 -0.036457 0.001575
0.001078 -0.036475 0.001599
0.001115 -0.036491 0.001617
0.001151 -0.036505 0.001634
0.001185 -0.036517 0.001647
0.001218 -0.036529 0.001659
0.001253 -0.036542 0.001672
0.001286 -0.036554 0.001684
0.001319 -0.036565 0.001694
0.00135 -0.036575 0.001702
0.001381 -0.036584 0.001708
0.001412 -0.036593 0.001714
0.001432 -0.036591 0.0017
0.001452 -0.036588 0.001683
0.000533 -0.036623 0.00216
0.000557 -0.036625 0.002154
0.000574 -0.036619 0.002132
0.000586 -0.036609 0.002101
0.000599 -0.036599 0.002071
0.00061 -0.036589 0.00204
0.000622 -0.036578 0.002008
0.000633 -0.036567 0.001976
0.000643 -0.036554 0.00194
0.000652 -0.03654 0.001903
0.00066 -0.036525 0.001864
0.000665 -0.036508 0.001819
0.000668 -0.036488 0.00177
0.000667 -0.036464 0.001713
0.000655 -0.036406 0.00158
0.000655 -0.036383 0.001525
0.000665 -0.036372 0.001491
0.000681 -0.036365 0.001467
0.000699 -0.03636 0.001448
0.000719 -0.036358 0.001433
0.000741 -0.036358 0.001422
0.000763 -0.036359 0.001412
0.000788 -0.036361 0.001406
0.000815 -0.036367 0.001405
0.000846 -0.036376 0.001411
0.000884 -0.036393 0.001433
0.000852 -0.037282 0.001367
0.000991 -0.036458 0.001535
0.001039 -0.036485 0.001576
0.001078 -0.036502 0.001599
0.001115 -0.036518 0.001618
0.00115 -0.036532 0.001633
0.001184 -0.036544 0.001646
0.001218 -0.036556 0.001658
0.001253 -0.036569 0.001672
0.001286 -0.036581 0.001684
0.001319 -0.036592 0.001694
0.00135 -0.036602 0.001702
0.001381 -0.03661 0.001707
0.001411 -0.036619 0.001713
0.001432 -0.036618 0.001699
0.001451 -0.036615 0.001682
0.000534 -0.036651 0.002161
0.000558 -0.036653 0.002155
0.000574 -0.036646 0.002131
0.000586 -0.036636 0.002101
0.000598 -0.036626 0.002071
0.000611 -0.036616 0.00204
0.000622 -0.036605 0.002008
0.000633 -0.036594 0.001975
0.000642 -0.03658 0.001939
0.000652 -0.036568 0.001904
0.00066 -0.036553 0.001864
0.000666 -0.036536 0.00182
0.000667 -0.036515 0.001769
0.000666 -0.036491 0.001713
0.000664 -0.036466 0.001653
0.000654 -0.03641 0.001524
0.000665 -0.036399 0.001491
0.000681 -0.036392 0.001467
0.000699 -0.036387 0.001448
0.000719 -0.036386 0.001433
0.000741 -0.036386 0.001422
0.000764 -0.036386 0.001412
0.000788 -0.036389 0.001406
0.000815 -0.036394 0.001405
0.000846 -0.036403 0.001411
0.000883 -0.036419 0.00143
0.000991 -0.036485 0.001535
0.001038 -0.036511 0.001575
0.001079 -0.03653 0.0016
0.001115 -0.036545 0.001617
0.00115 -0.036558 0.001631
0.001185 -0.036571 0.001646
0.001218 -0.036584 0.001658
0.001253 -0.036596 0.001672
0.001286 -0.036608 0.001683
0.001319 -0.036619 0.001694
0.00135 -0.036629 0.001702
0.001381 -0.036638 0.001707
0.001411 -0.036647 0.001713
0.001433 -0.036646 0.001701
0.001452 -0.036643 0.001684
0.00051 -0.036676 0.002168
0.000534 -0.036678 0.002163
0.000558 -0.03668 0.002155
0.000574 -0.036673 0.002131
0.000586 -0.036664 0.002101
0.000598 -0.036653 0.00207
0.00061 -0.036643 0.00204
0.000622 -0.036632 0.002007
0.000633 -0.036621 0.001976
0.000642 -0.036607 0.001938
0.000652 -0.036595 0.001904
0.00066 -0.03658 0.001864
0.000666 -0.036563 0.00182
0.000667 -0.036542 0.001768
0.000667 -0.036519 0.001713
0.000663 -0.036491 0.00165
0.000653 -0.036459 0.001576
0.000654 -0.036437 0.001524
0.000665 -0.036426 0.001491
0.000681 -0.036419 0.001467
0.000699 -0.036415 0.001448
0.000719 -0.036413 0.001433
0.000741 -0.036413 0.001422
0.000764 -0.036413 0.001412
0.000788 -0.036416 0.001406
0.000815 -0.036421 0.001405
0.000846 -0.03643 0.001411
0.000884 -0.036447 0.001432
0.00099 -0.036511 0.001534
0.001039 -0.036539 0.001576
0.001079 -0.036558 0.001601
0.001115 -0.036572 0.001616
0.001149 -0.036585 0.001631
0.001184 -0.036598 0.001646
0.001218 -0.036611 0.001658
0.001253 -0.036623 0.001672
0.001286 -0.036635 0.001684
0.001319 -0.036646 0.001693
0.00135 -0.036656 0.001701
0.001381 -0.036665 0.001708
0.001411 -0.036674 0.001713
0.001433 -0.036674 0.001702
0.001453 -0.03667 0.001685
0.00051 -0.036704 0.00217
0.000535 -0.036706 0.002164
0.000559 -0.036708 0.002156
0.000573 -0.0367 0.002131
0.000586 -0.036691 0.002101
0.000598 -0.036681 0.002071
0.00061 -0.03667 0.002039
0.000622 -0.036659 0.002008
0.000633 -0.036648 0.001975
0.000642 -0.036634 0.001937
0.000652 -0.036622 0.001903
0.000659 -0.036607 0.001863
0.000665 -0.03659 0.00182
0.000667 -0.036569 0.001769
0.000667 -0.036546 0.001713
0.000663 -0.036519 0.001651
0.000654 -0.036486 0.001577
0.000654 -0.036464 0.001524
0.000665 -0.036453 0.001491
0.000681 -0.036446 0.001467
0.000699 -0.036442 0.001448
0.000719 -0.03644 0.001433
0.000741 -0.03644 0.001422
0.000764 -0.036441 0.001412
0.000788 -0.036443 0.001406
0.000815 -0.036448 0.001405
0.000845 -0.036457 0.00141
0.000884 -0.036474 0.001432
0.000991 -0.03654 0.001536
0.001039 -0.036566 0.001576
0.001079 -0.036585 0.001601
0.001114 -0.036599 0.001616
0.00115 -0.036612 0.001631
0.001185 -0.036626 0.001646
0.001218 -0.036638 0.001658
0.001252 -0.03665 0.001671
0.001286 -0.036663 0.001684
0.001319 -0.036673 0.001693
0.00135 -0.036683 0.001701
0.001381 -0.036692 0.001707
0.001412 -0.036701 0.001714
0.001434 -0.036702 0.001704
0.001454 -0.036698 0.001687
0.00051 -0.03673 0.002169
0.000535 -0.036733 0.002163
0.000558 -0.036735 0.002155
0.000573 -0.036727 0.002131
0.000586 -0.036718 0.002101
0.000598 -0.036708 0.00207
0.000611 -0.036697 0.00204
0.000622 -0.036687 0.002008
0.000633 -0.036675 0.001975
0.000642 -0.036662 0.001938
0.000651 -0.036648 0.001901
0.000659 -0.036633 0.001862
0.000665 -0.036617 0.00182
0.000667 -0.036596 0.001769
0.000666 -0.036572 0.001712
0.000663 -0.036546 0.001651
0.000654 -0.036492 0.001524
0.000665 -0.03648 0.001491
0.000681 -0.036473 0.001467
0.000698 -0.036469 0.001447
0.000719 -0.036467 0.001433
0.000741 -0.036467 0.001421
0.000763 -0.036468 0.001412
0.000788 -0.03647 0.001406
0.000815 -0.036475 0.001405
0.000846 -0.036485 0.001411
0.000884 -0.036501 0.001431
0.001039 -0.036593 0.001575
0.001079 -0.036612 0.001601
0.001114 -0.036626 0.001616
0.00115 -0.03664 0.001631
0.001184 -0.036652 0.001645
0.001218 -0.036665 0.001658
0.001253 -0.036678 0.001671
0.001287 -0.03669 0.001684
0.001319 -0.036701 0.001693
0.00135 -0.03671 0.001701
0.001381 -0.036719 0.001707
0.001412 -0.036729 0.001714
0.001434 -0.036729 0.001704
0.001454 -0.036726 0.001687
0.000509 -0.036757 0.002167
0.000534 -0.036759 0.002161
0.000558 -0.036761 0.002154
0.000573 -0.036754 0.00213
0.000586 -0.036745 0.002101
0.000599 -0.036735 0.002071
0.000611 -0.036724 0.00204
0.000622 -0.036714 0.002008
0.000633 -0.036702 0.001974
0.000642 -0.036689 0.001939
0.000652 -0.036676 0.001902
0.000659 -0.036661 0.001863
0.000665 -0.036644 0.001819
0.000668 -0.036624 0.00177
0.000666 -0.0366 0.001712
0.000663 -0.036573 0.00165
0.000654 -0.036518 0.001523
0.000665 -0.036507 0.001491
0.000681 -0.0365 0.001467
0.000699 -0.036496 0.001448
0.000719 -0.036494 0.001433
0.000741 -0.036494 0.001421
0.000764 -0.036495 0.001412
0.000788 -0.036498 0.001406
0.000815 -0.036503 0.001405
0.000846 -0.036512 0.001412
0.000886 -0.03653 0.001436
0.000938 -0.036561 0.001484
0.000831 -0.037284 0.00138
0.001039 -0.03662 0.001576
0.001079 -0.036639 0.0016
0.001114 -0.036653 0.001616
0.001149 -0.036666 0.001631
0.001184 -0.03668 0.001645
0.001219 -0.036693 0.001659
0.001253 -0.036705 0.001672
0.001286 -0.036717 0.001684
0.001319 -0.036728 0.001693
0.00135 -0.036738 0.001701
0.001381 -0.036746 0.001707
0.001412 -0.036756 0.001714
0.001434 -0.036755 0.001702
0.001453 -0.036752 0.001685
0.000509 -0.036783 0.002166
0.000534 -0.036786 0.002161
0.000558 -0.036788 0.002154
0.000573 -0.036782 0.00213
0.000586 -0.036772 0.002101
0.000599 -0.036762 0.002071
0.000611 -0.036752 0.00204
0.000623 -0.036741 0.002009
0.000633 -0.036729 0.001974
0.000643 -0.036716 0.001939
0.000652 -0.036703 0.001903
0.00066 -0.036688 0.001863
0.000665 -0.036671 0.00182
0.000668 -0.036651 0.00177
0.000666 -0.036626 0.00171
0.000654 -0.036545 0.001523
0.000665 -0.036534 0.00149
0.000681 -0.036528 0.001467
0.000699 -0.036523 0.001448
0.000719 -0.036522 0.001433
0.000741 -0.036521 0.001422
0.000764 -0.036522 0.001412
0.000788 -0.036525 0.001406
0.000815 -0.03653 0.001405
0.000846 -0.036539 0.001412
0.000885 -0.036557 0.001435
0.000937 -0.036588 0.001483
0.001038 -0.036647 0.001574
0.001079 -0.036666 0.0016
0.001114 -0.03668 0.001615
0.001149 -0.036694 0.001631
0.001184 -0.036706 0.001644
0.001219 -0.03672 0.001659
0.001253 -0.036732 0.001672
0.001286 -0.036744 0.001684
0.001318 -0.036755 0.001693
0.00135 -0.036765 0.001701
0.001381 -0.036773 0.001707
0.001412 -0.036783 0.001714
0.001433 -0.036782 0.001702
0.001452 -0.036778 0.001684
0.00051 -0.036812 0.002168
0.000535 -0.036814 0.002163
0.000558 -0.036816 0.002155
0.000574 -0.036809 0.002131
0.000586 -0.036799 0.002101
0.000599 -0.03679 0.002071
0.000611 -0.036779 0.00204
0.000622 -0.036768 0.002008
0.000633 -0.036756 0.001974
0.000643 -0.036744 0.001939
0.000652 -0.03673 0.001902
0.00066 -0.036716 0.001864
0.000665 -0.036698 0.001818
0.000668 -0.036678 0.00177
0.000666 -0.036653 0.001711
0.000665 -0.03663 0.001654
0.000654 -0.036573 0.001523
0.000665 -0.036561 0.00149
0.000681 -0.036555 0.001467
0.000699 -0.036551 0.001448
0.000719 -0.036549 0.001433
0.000741 -0.036548 0.001421
0.000764 -0.036549 0.001412
0.000788 -0.036552 0.001406
0.000815 -0.036557 0.001405
0.000846 -0.036566 0.001412
0.000939 -0.036616 0.001486
0.00099 -0.036647 0.001534
0.001039 -0.036674 0.001575
0.001079 -0.036694 0.001601
0.001114 -0.036707 0.001616
0.001149 -0.036721 0.00163
